# .PCD v0.7 - Point Cloud Data file format
VERSION 0.7
FIELDS x y z
SIZE 4 4 4
TYPE F F F
COUNT 1 1 1
WIDTH 2048
HEIGHT 1
VIEWPOINT 0 0 0 1 0 0 0
POINTS 2048
DATA ascii
15.525 6.075 2.475
15.525 6.075 0.525
15.525 5.925 0.075
15.525 5.925 1.125
15.525 6.225 1.725
15.375 6.075 0.225
15.675 5.925 2.025
15.675 6.225 2.025
15.675 6.225 2.175
15.375 5.925 0.075
15.375 6.225 0.075
15.375 6.225 0.525
15.525 5.775 0.375
15.525 5.775 2.025
15.525 5.775 -1.275
15.525 5.775 0.075
15.225 6.075 0.075
15.825 5.925 -0.225
15.675 5.775 -1.125
15.375 5.775 2.625
15.375 5.775 -0.075
15.375 5.775 0.075
15.375 5.775 2.475
15.225 5.925 2.025
15.225 5.925 -0.075
15.375 6.375 0.075
15.375 6.375 -0.075
15.375 6.375 0.825
15.375 6.375 0.525
15.225 6.225 -0.075
15.225 6.225 0.675
15.225 6.225 0.075
15.225 6.225 -0.225
15.225 5.775 2.625
15.225 5.775 0.675
15.225 6.375 2.475
15.225 6.375 0.225
15.225 6.375 1.875
15.225 6.375 0.075
15.225 6.375 -0.075
15.225 6.375 0.525
15.525 5.625 2.625
15.525 6.525 3.975
15.075 6.075 -0.375
15.075 6.075 -0.075
15.675 5.625 0.525
15.675 5.625 0.375
15.675 5.625 -1.125
15.375 5.625 -0.075
15.375 5.625 2.925
15.375 5.625 2.325
15.675 6.525 -2.175
15.075 5.925 -0.375
15.075 5.925 2.325
15.375 6.525 -0.075
15.375 6.525 0.675
15.375 6.525 0.525
15.375 6.525 0.225
15.075 6.225 0.075
15.975 5.775 -1.425
15.225 5.625 2.625
15.225 6.525 -0.075
15.225 6.525 0.075
15.225 6.525 0.225
15.075 6.375 0.075
15.075 6.375 -1.125
15.075 6.375 1.875
15.525 5.475 0.675
15.525 5.475 0.075
15.525 5.475 1.125
15.525 6.675 3.825
15.675 5.475 0.075
16.125 6.225 -2.175
15.375 5.475 1.875
15.375 5.475 -0.075
15.675 6.675 -0.225
14.925 5.925 4.425
15.375 6.675 0.675
15.375 6.675 2.025
15.375 6.675 0.075
15.375 6.675 0.525
14.925 6.225 2.025
14.925 6.225 1.275
15.075 5.625 -0.075
15.075 5.625 2.175
15.075 6.525 2.175
15.075 6.525 -0.075
16.125 5.775 2.625
15.825 5.475 -1.425
15.825 5.475 1.725
15.825 5.475 0.675
15.225 5.475 -0.075
15.225 5.475 1.425
15.825 6.675 -0.225
14.925 5.775 1.875
14.925 5.775 2.325
15.225 6.675 0.075
15.225 6.675 1.575
15.225 6.675 0.225
14.925 6.375 1.875
14.925 6.375 -4.425
16.125 5.625 -0.675
15.975 5.475 2.475
15.975 5.475 -1.425
15.525 5.325 0.075
15.525 5.325 0.975
15.525 5.325 1.425
15.525 5.325 -0.075
15.525 5.325 -0.825
15.075 5.475 1.725
14.925 5.625 2.325
14.925 5.625 2.025
14.925 5.625 2.925
16.275 5.925 0.075
15.525 6.825 -0.225
15.525 6.825 0.825
15.525 6.825 2.025
15.525 6.825 4.125
15.675 5.325 0.075
15.675 5.325 -0.375
16.275 6.225 2.175
14.775 6.075 2.025
14.775 6.075 2.475
15.075 6.675 -1.275
15.075 6.675 -0.675
15.075 6.675 -2.775
15.075 6.675 -0.075
14.925 6.525 1.425
14.925 6.525 1.575
15.375 5.325 1.575
15.375 5.325 3.525
14.775 5.925 1.725
15.375 6.825 0.525
15.375 6.825 2.025
15.375 6.825 0.075
15.375 6.825 0.225
14.775 6.225 2.175
16.275 5.775 -3.375
15.825 5.325 0.225
15.825 5.325 -2.025
15.825 5.325 -0.825
15.825 5.325 0.825
15.225 5.325 1.725
15.225 6.825 -1.275
15.225 6.825 0.225
14.775 6.375 1.425
14.775 6.375 -4.725
14.775 6.375 1.575
16.125 5.475 2.025
14.925 6.675 1.425
14.925 6.675 1.725
16.275 5.625 -0.375
15.975 5.325 1.875
15.075 5.325 2.175
14.775 5.625 0.525
14.775 5.625 0.375
14.775 5.625 1.875
15.075 6.825 -1.875
15.075 6.825 -0.075
15.075 6.825 -1.425
15.075 6.825 -1.125
15.075 6.825 0.525
14.775 6.525 1.575
15.525 5.175 -2.025
15.525 5.175 -0.075
15.525 5.175 0.075
16.425 5.925 2.475
15.675 5.175 -0.075
15.675 5.175 0.975
15.525 6.975 -0.075
15.525 6.975 1.875
15.525 6.975 0.825
15.375 5.175 1.425
15.375 5.175 1.575
15.375 5.175 2.775
14.625 6.075 1.425
14.625 6.075 1.275
14.625 6.075 2.325
15.675 6.975 -0.225
15.675 6.975 -0.075
15.675 6.975 -0.825
15.675 6.975 -2.325
14.625 5.925 1.425
14.625 5.925 1.275
14.625 5.925 1.575
14.625 5.925 2.325
14.625 5.925 3.225
14.625 5.925 1.725
14.625 5.925 1.875
15.375 6.975 0.225
14.625 6.225 -1.575
14.625 6.225 -0.525
14.625 6.225 2.175
14.625 6.225 -0.225
14.625 6.225 2.475
14.625 6.225 1.875
16.425 5.775 -0.675
16.425 5.775 1.275
15.825 5.175 0.225
15.825 5.175 0.825
15.825 5.175 1.875
16.425 6.375 2.625
15.225 5.175 -0.075
16.275 5.475 2.175
16.125 5.325 2.325
15.825 6.975 0.975
15.825 6.975 -2.175
14.625 5.775 1.725
14.625 5.775 1.875
14.625 5.775 1.425
14.625 5.775 1.575
15.225 6.975 -0.075
15.225 6.975 0.225
15.225 6.975 0.675
15.225 6.975 0.075
15.225 6.975 -1.425
14.625 6.375 -0.225
14.625 6.375 1.725
14.925 5.325 1.125
14.925 5.325 0.975
14.775 5.475 -0.075
14.775 5.475 2.175
14.925 6.825 1.425
15.975 5.175 -0.975
15.975 5.175 0.375
14.625 5.625 1.725
14.625 5.625 2.025
15.075 6.975 -0.975
15.075 6.975 -0.075
14.625 6.525 -2.025
14.625 6.525 1.125
14.625 6.525 -0.225
15.525 5.025 0.075
15.525 5.025 -0.225
15.525 5.025 -0.075
15.525 5.025 -0.675
16.575 5.925 -0.825
15.675 5.025 -0.675
15.675 5.025 0.975
15.675 5.025 2.325
15.675 5.025 -4.125
15.675 5.025 -0.075
15.525 7.125 -1.275
15.525 7.125 -1.125
15.525 7.125 0.675
15.525 7.125 1.875
15.525 7.125 -5.025
15.525 7.125 -0.075
15.525 7.125 0.525
14.475 6.075 1.575
14.475 6.075 1.275
14.475 6.075 1.425
14.475 6.075 -0.825
16.275 6.825 -1.425
14.775 5.325 2.175
15.675 7.125 -0.075
15.675 7.125 -2.175
15.675 7.125 -1.275
15.675 7.125 -1.425
15.675 7.125 0.825
14.475 5.925 1.875
15.375 7.125 -0.975
15.375 7.125 0.525
14.475 6.225 -0.225
14.475 6.225 2.025
14.775 6.825 1.725
14.775 6.825 -2.625
16.425 5.475 1.275
16.125 5.175 2.175
16.425 6.675 2.625
14.925 5.175 1.725
14.925 5.175 1.125
16.575 5.775 -0.225
15.825 5.025 -0.825
15.825 5.025 0.825
14.625 5.475 0.225
14.625 5.475 1.725
16.575 6.375 2.475
15.225 5.025 1.725
15.225 5.025 1.575
14.625 6.675 1.575
14.625 6.675 1.725
15.825 7.125 -2.025
14.475 5.775 2.025
14.475 5.775 2.325
14.475 5.775 1.725
14.475 5.775 1.875
15.225 7.125 -1.125
15.225 7.125 2.775
14.475 6.375 -0.225
14.475 6.375 2.475
16.575 5.625 1.275
16.575 5.625 -0.375
15.975 5.025 2.325
15.975 5.025 1.275
15.075 5.025 2.175
15.075 5.025 -0.225
15.075 5.025 2.025
15.075 5.025 2.475
15.075 5.025 1.275
15.075 5.025 1.575
15.975 7.125 2.325
14.475 5.625 0.825
14.475 5.625 1.125
14.475 5.625 2.175
15.075 7.125 -0.975
15.075 7.125 1.725
14.475 6.525 0.075
16.425 5.325 -5.475
16.425 5.325 2.025
16.425 5.325 2.175
16.275 5.175 2.325
16.275 5.175 1.875
16.275 5.175 -0.975
16.275 5.175 -4.725
16.275 6.975 2.625
16.275 6.975 1.875
14.775 5.175 -1.125
14.625 5.325 0.075
14.625 5.325 2.025
14.625 5.325 -0.225
14.775 6.975 -1.575
14.625 6.825 -0.975
16.725 6.075 -0.075
16.725 6.075 -0.375
16.725 6.075 -0.825
15.525 4.875 -0.075
15.525 4.875 0.525
15.525 4.875 0.375
15.525 4.875 2.925
15.525 4.875 0.975
15.525 4.875 0.075
16.125 5.025 2.325
16.725 5.925 -0.975
15.675 4.875 3.525
15.675 4.875 -0.075
15.675 4.875 2.175
15.675 4.875 0.075
15.375 4.875 2.325
15.375 4.875 -0.975
15.375 4.875 -0.075
15.525 7.275 1.725
15.525 7.275 0.075
15.525 7.275 0.525
15.525 7.275 -0.075
15.525 7.275 -2.475
14.925 5.025 -2.025
14.925 5.025 2.325
14.925 5.025 1.875
14.325 6.075 1.575
14.325 6.075 0.225
16.125 7.125 2.325
16.125 7.125 2.025
14.475 5.475 0.975
15.675 7.275 -0.075
15.675 7.275 -1.875
15.375 7.275 0.075
15.375 7.275 1.575
15.375 7.275 -0.825
15.375 7.275 1.425
15.375 7.275 1.725
14.325 5.925 0.675
14.325 5.925 3.525
14.325 5.925 2.025
14.325 6.225 2.325
14.325 6.225 -1.575
14.325 6.225 0.375
14.475 6.675 0.075
14.475 6.675 0.825
14.475 6.675 1.575
14.475 6.675 0.225
16.725 5.775 -0.825
16.725 5.775 -0.525
16.725 5.775 2.475
15.825 4.875 0.225
16.725 6.375 2.925
15.825 7.275 1.275
14.325 5.775 1.875
14.325 5.775 2.025
14.325 5.775 1.275
15.225 7.275 3.075
15.225 7.275 -0.075
15.225 7.275 1.575
14.325 6.375 3.225
14.325 6.375 -0.975
14.325 6.375 -0.225
16.425 5.175 2.325
16.725 5.625 1.725
16.725 5.625 1.575
15.975 4.875 -0.525
15.975 4.875 0.225
14.625 5.175 2.025
16.725 6.525 2.925
15.075 4.875 -0.225
15.075 4.875 2.475
15.075 4.875 0.825
16.575 5.325 -0.675
16.575 5.325 2.025
16.275 5.025 2.475
16.275 5.025 -0.975
16.275 5.025 2.325
16.275 5.025 1.725
16.275 5.025 -0.675
14.625 6.975 2.775
14.625 6.975 -1.575
15.975 7.275 -0.225
14.775 5.025 -0.825
14.775 5.025 1.425
14.775 5.025 1.575
15.075 7.275 -2.175
15.075 7.275 -2.025
14.325 6.525 -1.725
14.325 6.525 -1.575
14.325 6.525 0.075
14.325 6.525 -0.075
14.475 5.325 1.575
14.475 5.325 0.975
14.475 5.325 0.375
14.475 6.825 1.275
14.475 6.825 -1.425
14.475 6.825 -1.725
14.475 6.825 -0.375
14.475 6.825 -1.575
16.125 4.875 -0.075
16.125 4.875 1.425
16.125 4.875 0.375
16.125 4.875 2.175
14.925 4.875 0.375
14.925 4.875 2.325
14.925 4.875 2.775
14.925 4.875 -1.275
14.925 4.875 2.925
14.925 4.875 1.125
16.125 7.275 -1.875
16.125 7.275 2.475
16.125 7.275 -0.825
15.525 4.725 2.325
15.525 4.725 -0.675
14.325 5.475 0.225
14.325 5.475 -1.125
16.875 5.925 2.325
16.875 5.925 2.475
16.875 5.925 -0.975
16.875 5.925 2.025
14.925 7.275 -2.325
15.675 4.725 -0.975
15.675 4.725 -0.075
15.675 4.725 0.225
15.675 4.725 -0.225
15.675 4.725 0.075
15.675 4.725 1.725
14.325 6.675 0.075
14.325 6.675 1.575
14.325 6.675 1.725
14.325 6.675 -0.075
14.325 6.675 0.225
15.375 4.725 -0.075
15.525 7.425 0.225
15.525 7.425 0.075
15.525 7.425 1.875
15.525 7.425 1.725
15.525 7.425 0.525
14.175 6.075 0.375
14.175 6.075 2.475
14.175 6.075 2.325
14.175 6.075 -0.075
15.675 7.425 0.825
15.675 7.425 -0.075
15.675 7.425 0.675
15.675 7.425 0.525
15.375 7.425 1.875
15.375 7.425 0.225
15.375 7.425 -0.975
15.375 7.425 1.275
15.375 7.425 -1.125
15.375 7.425 1.425
14.175 5.925 -0.225
14.175 6.225 -0.375
14.175 6.225 0.075
16.575 5.175 1.125
16.425 5.025 2.325
16.425 5.025 -1.125
15.825 4.725 0.225
15.825 4.725 1.425
16.875 6.375 3.225
15.225 4.725 2.025
15.225 4.725 2.775
14.625 5.025 1.575
14.625 5.025 1.875
14.625 5.025 -0.675
14.625 5.025 1.425
14.475 5.175 0.675
14.475 5.175 1.575
14.475 5.175 -0.675
14.475 5.175 1.275
14.475 5.175 -1.125
15.825 7.425 -0.075
14.175 5.775 2.175
14.175 5.775 -1.575
14.175 5.775 2.025
14.175 5.775 1.725
14.175 5.775 -1.425
15.225 7.425 -1.275
15.225 7.425 -2.775
14.175 6.375 0.075
14.175 6.375 -0.525
14.175 6.375 -0.825
14.625 7.125 2.175
14.625 7.125 -0.675
14.625 7.125 -1.725
14.625 7.125 1.875
14.625 7.125 -0.825
14.475 6.975 2.625
14.475 6.975 -0.975
16.725 5.325 -0.825
16.275 4.875 2.325
16.275 4.875 1.575
16.275 4.875 -0.675
16.275 4.875 -0.375
16.875 5.625 1.725
16.875 5.625 1.875
14.775 4.875 1.575
14.775 4.875 -0.825
14.775 4.875 1.125
14.775 4.875 3.675
15.975 4.725 0.375
15.975 4.725 -0.225
15.975 4.725 1.875
15.975 4.725 -0.375
16.275 7.275 2.625
16.875 6.525 3.075
14.325 5.325 1.575
14.775 7.275 -1.875
14.775 7.275 2.025
14.775 7.275 1.875
14.325 6.825 3.525
14.325 6.825 -1.125
14.325 6.825 0.075
14.325 6.825 -2.925
15.975 7.425 1.875
15.975 7.425 -2.025
15.075 7.425 1.575
14.175 6.525 -0.225
14.175 6.525 0.225
14.175 6.525 -0.375
14.175 6.525 -0.075
16.125 4.725 -0.075
16.125 4.725 0.525
16.125 4.725 0.225
16.125 4.725 3.525
16.125 4.725 0.825
16.125 4.725 -1.275
16.125 4.725 0.375
14.925 4.725 0.675
14.925 4.725 3.075
14.925 4.725 3.375
14.925 4.725 -0.525
14.925 4.725 2.925
14.925 4.725 2.325
14.925 4.725 2.475
16.125 7.425 2.625
16.125 7.425 -0.825
14.475 5.025 0.225
14.925 7.425 -2.775
14.175 6.675 1.275
15.525 4.575 0.225
15.525 4.575 2.325
15.525 4.575 1.875
15.525 4.575 -0.525
14.475 7.125 -1.425
14.475 7.125 1.275
14.475 7.125 1.725
14.475 7.125 -0.825
14.625 4.875 2.775
14.625 4.875 0.975
15.675 4.575 -1.125
15.675 4.575 -0.375
15.375 4.575 0.975
15.375 4.575 3.375
14.325 5.175 -1.425
14.325 5.175 -0.225
15.525 7.575 0.225
14.025 6.075 0.975
14.025 6.075 -0.075
14.025 6.075 -0.375
14.025 6.075 0.225
14.025 6.075 2.775
14.625 7.275 1.125
14.325 6.975 3.225
15.675 7.575 -2.025
15.375 7.575 0.075
14.025 5.925 -0.075
14.025 5.925 -0.225
14.025 5.925 0.075
14.025 5.925 -0.375
14.025 5.925 -2.775
14.025 6.225 -0.375
14.025 6.225 -0.225
14.025 6.225 0.075
17.025 5.775 1.875
17.025 5.775 2.175
17.025 5.775 -0.075
15.825 4.575 -0.075
15.825 4.575 -0.225
15.825 4.575 0.225
15.825 4.575 0.375
15.825 4.575 -1.575
15.825 4.575 -1.275
15.825 4.575 2.175
17.025 6.375 -0.825
15.225 4.575 2.175
15.225 4.575 2.025
15.825 7.575 -0.075
15.825 7.575 -0.975
16.275 4.725 -1.125
16.275 4.725 1.875
16.275 4.725 -0.375
16.275 4.725 -0.225
14.025 5.775 -0.075
14.025 5.775 1.725
15.225 7.575 -2.625
15.225 7.575 -0.225
14.025 6.375 0.225
14.025 6.375 0.075
16.875 6.825 -0.825
14.775 4.725 2.775
14.175 5.325 1.125
14.175 5.325 1.275
14.775 7.425 0.675
14.775 7.425 1.725
17.025 5.625 1.575
15.975 4.575 2.625
15.975 4.575 0.375
15.975 4.575 -0.225
15.975 4.575 0.075
15.975 4.575 1.275
15.075 4.575 2.475
15.075 4.575 0.675
15.975 7.575 3.075
14.025 5.625 0.375
14.025 6.525 -0.375
16.725 5.025 -0.825
16.725 5.025 0.675
16.575 4.875 1.275
14.475 4.875 1.725
14.325 5.025 -0.825
14.475 7.275 -1.575
14.325 7.125 0.525
16.125 4.575 0.375
16.125 4.575 0.675
14.925 4.575 2.925
16.125 7.575 -1.875
14.025 5.475 -1.125
14.025 5.475 0.225
14.625 4.725 3.075
14.625 4.725 2.925
14.625 4.725 2.475
14.625 4.725 2.775
14.925 7.575 -1.575
14.025 6.675 -1.575
14.175 5.175 1.875
14.175 5.175 -0.975
14.175 5.175 -0.825
14.625 7.425 -1.125
14.625 7.425 -0.375
14.175 6.975 -2.025
14.175 6.975 -2.175
14.175 6.975 3.225
17.175 6.075 -0.075
15.525 4.425 5.325
15.525 4.425 0.225
15.525 4.425 -1.575
15.525 4.425 -1.125
15.525 4.425 -0.525
15.525 4.425 5.025
15.525 4.425 1.125
17.175 5.925 -0.225
15.675 4.425 -0.375
15.675 4.425 0.825
15.675 4.425 1.275
15.675 4.425 0.075
15.375 4.425 2.025
15.375 4.425 -1.575
15.375 4.425 1.125
15.525 7.725 0.525
13.875 6.075 2.775
13.875 6.075 0.225
13.875 6.075 1.875
15.675 7.725 -0.075
15.675 7.725 0.675
15.375 7.725 1.875
15.375 7.725 -2.025
15.375 7.725 -3.975
13.875 5.925 2.175
13.875 6.225 -0.525
13.875 6.225 2.625
13.875 6.225 0.075
13.875 6.225 0.225
13.875 6.225 2.475
16.275 4.575 0.225
16.275 4.575 1.425
16.275 4.575 0.675
16.275 4.575 0.375
15.825 4.425 0.375
15.825 4.425 -0.525
15.825 4.425 1.575
15.825 4.425 1.125
15.825 4.425 1.425
15.225 4.425 2.025
15.225 4.425 2.175
15.225 4.425 2.325
14.775 4.575 1.875
14.775 4.575 2.925
14.025 5.325 4.275
14.025 5.325 0.225
15.825 7.725 -2.175
15.825 7.725 0.675
15.825 7.725 2.925
13.875 5.775 0.375
13.875 5.775 0.225
13.875 6.375 2.475
13.875 6.375 3.075
13.875 6.375 2.325
13.875 6.375 0.075
13.875 6.375 -0.375
14.775 7.575 -1.275
14.775 7.575 -0.825
14.775 7.575 -1.875
14.775 7.575 -4.875
16.725 4.875 -1.125
14.325 4.875 1.725
14.325 4.875 3.225
16.875 5.025 -0.825
16.875 5.025 -0.975
16.875 5.025 0.075
16.575 4.725 2.475
16.575 4.725 1.575
17.175 5.625 1.275
15.975 4.425 -0.375
15.975 4.425 0.375
15.975 4.425 0.675
15.975 4.425 0.225
15.975 4.425 1.275
15.975 4.425 1.725
15.975 4.425 0.825
15.975 4.425 0.525
15.975 4.425 -5.475
17.175 6.525 -3.075
17.175 6.525 4.125
15.075 4.425 -0.375
15.075 4.425 0.525
15.075 4.425 2.625
15.075 4.425 2.925
15.075 4.425 2.475
15.075 4.425 0.825
14.325 7.275 0.975
16.875 7.125 2.325
14.475 4.725 1.575
15.975 7.725 -0.075
13.875 5.625 0.675
13.875 5.625 1.725
15.075 7.725 -2.025
13.875 6.525 3.525
14.475 7.425 -0.525
14.475 7.425 -0.675
14.175 7.125 2.925
14.175 7.125 -3.225
16.425 4.575 -0.675
16.425 4.575 -0.525
16.425 4.575 2.325
17.025 6.975 -4.425
17.175 5.475 2.175
17.175 5.475 1.875
17.175 5.475 1.575
16.125 4.425 -0.075
16.125 4.425 1.875
16.125 4.425 0.825
16.125 4.425 0.075
16.125 4.425 0.225
16.125 4.425 0.675
16.125 4.425 0.375
14.625 4.575 2.925
16.425 7.575 -1.125
14.925 4.425 -0.525
14.925 4.425 0.825
14.925 4.425 1.425
14.925 4.425 -0.225
14.925 4.425 2.775
14.025 5.175 0.525
14.025 5.175 -0.075
14.025 5.175 1.275
14.025 5.175 0.225
14.025 5.175 -0.825
14.025 5.175 2.475
14.625 7.575 -0.675
14.625 7.575 0.675
13.875 5.475 0.825
13.875 5.475 2.025
13.875 5.475 0.225
14.925 7.725 2.775
14.925 7.725 -1.575
13.875 6.675 0.975
15.525 4.275 0.225
15.525 4.275 1.425
15.525 4.275 -1.425
15.525 4.275 -1.575
15.525 4.275 0.075
16.875 4.875 0.825
16.875 4.875 0.375
16.875 4.875 -0.975
16.725 4.725 -1.275
17.325 5.925 2.475
15.675 4.275 0.825
15.675 4.275 1.275
15.675 4.275 0.675
15.675 4.275 -1.575
15.375 4.275 -1.125
15.375 4.275 0.225
15.375 4.275 1.725
17.175 5.325 1.875
16.275 4.425 0.075
16.275 4.425 0.675
16.275 4.425 0.225
16.275 4.425 -0.525
16.275 4.425 -1.425
15.525 7.875 -2.775
15.525 7.875 0.075
14.325 4.725 -1.725
14.325 4.725 3.825
14.325 4.725 2.775
14.325 4.725 -0.225
13.725 6.075 2.775
13.725 6.075 -0.525
13.725 6.075 -0.075
14.775 4.425 3.075
14.775 4.425 2.925
14.775 4.425 1.425
14.775 4.425 2.625
15.675 7.875 -2.475
15.675 7.875 0.075
15.375 7.875 -0.225
13.725 5.925 2.175
13.725 5.925 -0.525
13.725 6.225 -0.825
13.725 6.225 2.625
17.325 5.775 2.475
14.325 7.425 -0.075
14.175 7.275 -0.525
14.175 7.275 -0.375
15.825 4.275 0.375
15.825 4.275 0.225
15.825 4.275 0.525
13.875 5.325 2.025
13.875 5.325 1.125
15.225 4.275 1.275
15.225 4.275 1.875
15.225 4.275 1.125
15.225 4.275 2.025
16.575 4.575 1.275
16.575 4.575 -0.675
13.875 6.825 -0.525
15.825 7.875 0.075
15.825 7.875 -0.075
14.475 4.575 0.975
14.475 4.575 -0.675
13.725 5.775 1.725
14.025 5.025 3.075
14.025 5.025 -1.425
14.475 7.575 0.675
17.325 5.625 2.325
15.975 4.275 0.375
15.975 4.275 0.525
15.975 4.275 0.225
15.075 4.275 2.625
15.075 4.275 -0.075
15.075 4.275 1.275
15.075 4.275 0.825
15.075 4.275 -0.225
15.075 4.275 0.525
15.975 7.875 -0.075
13.725 5.625 -0.825
13.725 5.625 0.225
13.725 5.625 0.375
15.075 7.875 2.475
15.075 7.875 2.175
15.075 7.875 -1.425
13.725 6.525 -0.075
17.175 5.175 2.025
16.425 4.425 2.475
17.175 6.975 -3.225
14.625 4.425 1.575
14.625 4.425 1.875
13.875 5.175 0.975
13.875 5.175 0.225
13.875 5.175 0.525
13.875 5.175 0.375
13.875 5.175 2.775
17.325 5.475 1.875
16.125 4.275 -0.975
16.125 4.275 1.425
16.125 4.275 -1.125
16.125 4.275 0.375
16.125 4.275 -1.275
16.125 4.275 1.575
14.625 7.725 0.525
14.625 7.725 -1.575
14.625 7.725 -2.775
14.925 4.275 1.425
14.925 4.275 2.025
14.925 4.275 1.575
14.925 4.275 0.825
16.875 4.725 0.975
16.125 7.875 -1.275
16.125 7.875 -1.125
13.725 5.475 2.775
13.725 5.475 1.875
13.725 5.475 1.125
13.725 6.675 -0.375
16.875 7.425 -0.375
14.175 4.725 2.025
14.175 4.725 0.225
17.025 4.875 -0.675
17.025 4.875 -1.275
17.025 4.875 0.525
16.725 4.575 -1.725
16.725 4.575 -0.825
14.175 7.425 2.925
14.175 7.425 -0.375
14.325 4.575 3.075
17.325 5.325 0.525
17.325 5.325 1.875
16.275 4.275 0.225
16.275 4.275 2.025
16.275 4.275 1.275
16.275 4.275 -1.425
16.275 4.275 1.875
16.275 4.275 1.725
15.525 4.125 0.675
15.525 4.125 0.225
15.525 4.125 -0.075
15.525 4.125 2.475
17.325 6.825 0.675
17.175 5.025 -0.525
17.175 5.025 -0.375
17.175 5.025 2.025
16.575 4.425 1.275
14.775 4.275 1.875
14.775 4.275 1.275
14.775 4.275 -2.775
17.475 6.225 0.675
15.675 4.125 1.275
15.675 4.125 -0.075
15.375 4.125 0.225
15.375 4.125 0.075
15.375 4.125 1.575
15.375 4.125 2.325
15.375 4.125 0.375
13.725 5.325 2.175
13.725 5.325 1.125
15.525 8.025 4.425
15.525 8.025 -0.225
15.525 8.025 3.075
15.525 8.025 0.075
15.525 8.025 2.025
13.875 5.025 0.825
15.675 8.025 0.225
15.675 8.025 -0.675
15.675 8.025 0.075
15.675 8.025 0.525
15.375 8.025 0.075
13.575 5.925 0.825
13.575 5.925 -0.225
13.575 6.225 0.225
13.575 6.225 0.075
14.475 7.725 2.325
15.825 4.125 0.375
15.825 4.125 -1.125
15.225 4.125 1.425
15.225 4.125 -1.125
15.225 4.125 -0.975
15.225 4.125 0.975
15.225 4.125 1.725
13.575 5.775 1.875
13.575 5.775 0.225
15.225 8.025 -1.575
17.475 5.625 2.025
17.475 5.625 0.975
15.975 4.125 0.075
15.975 4.125 0.375
15.975 4.125 0.225
15.075 4.125 -0.225
15.075 4.125 0.525
15.075 4.125 -0.075
15.075 4.125 1.725
15.075 4.125 1.425
16.425 4.275 -0.975
16.425 4.275 -1.725
15.975 8.025 -1.725
17.025 4.725 -1.125
13.575 5.625 0.375
16.875 4.575 -0.975
15.075 8.025 -1.575
15.075 8.025 -1.275
14.625 4.275 1.725
14.625 4.275 1.875
14.625 4.275 -0.525
14.625 4.275 1.575
13.725 5.175 0.225
13.725 5.175 2.325
13.725 5.175 0.525
14.025 4.725 0.225
17.175 4.875 -2.475
16.125 4.125 0.075
16.125 4.125 2.025
16.125 4.125 1.725
16.125 4.125 0.225
16.125 4.125 0.375
14.925 4.125 1.425
14.325 4.425 -1.125
16.725 7.725 -1.425
13.875 4.875 -0.225
13.875 4.875 3.075
16.125 8.025 -1.725
16.125 8.025 3.675
13.575 5.475 0.075
13.575 5.475 0.675
14.925 8.025 -1.125
14.925 8.025 -0.375
17.325 5.025 1.875
16.575 4.275 -0.825
16.575 4.275 -1.125
17.475 5.325 5.775
16.275 4.125 -1.275
16.275 4.125 1.425
14.475 4.275 3.075
14.475 4.275 1.875
14.475 4.275 -1.125
14.775 4.125 1.725
14.775 4.125 1.875
14.775 4.125 1.425
13.725 5.025 0.525
13.725 5.025 0.075
13.725 5.025 -0.375
15.525 3.975 1.725
15.525 3.975 1.425
13.725 7.125 0.975
13.575 5.325 0.975
14.775 8.025 -2.925
15.675 3.975 1.125
15.375 3.975 1.425
15.375 3.975 0.225
15.375 3.975 1.575
15.525 8.175 0.075
13.425 6.075 2.325
15.675 8.175 0.675
15.675 8.175 0.225
17.025 4.575 -1.125
15.375 8.175 2.025
17.625 5.775 -2.625
17.625 5.775 0.975
13.425 5.925 2.475
13.425 5.925 -0.075
13.425 5.925 0.075
13.425 5.925 2.775
15.825 3.975 -0.525
13.425 6.225 -0.375
13.425 6.225 -2.475
15.225 3.975 1.575
15.225 3.975 0.375
15.225 3.975 -0.975
15.225 3.975 1.725
17.175 4.725 -0.675
17.175 4.725 -0.525
17.175 4.725 1.875
16.875 4.425 0.675
16.875 4.425 2.325
14.025 4.575 0.225
14.025 4.575 -0.225
14.025 4.575 0.375
15.825 8.175 0.075
15.225 8.175 2.025
13.425 6.375 -1.875
14.025 7.575 3.225
16.875 7.725 -0.975
14.175 4.425 2.625
13.875 4.725 -0.075
13.875 4.725 3.075
13.875 4.725 0.075
16.425 4.125 0.825
16.425 4.125 -0.225
15.975 3.975 -0.975
15.975 3.975 1.875
14.175 7.725 2.325
17.475 6.975 -0.075
15.075 3.975 0.525
15.075 3.975 1.725
15.075 3.975 -0.075
15.075 3.975 2.025
14.625 4.125 1.575
14.625 4.125 2.025
14.625 4.125 3.075
14.625 4.125 0.675
15.975 8.175 0.075
13.575 5.175 0.375
13.575 5.175 0.225
13.575 5.175 -0.225
13.575 5.175 0.075
15.075 8.175 -1.425
14.325 4.275 -1.125
14.325 4.275 -0.675
14.325 4.275 -0.225
14.325 4.275 2.475
13.725 4.875 3.375
13.725 4.875 -3.525
14.325 7.875 2.475
16.125 3.975 0.075
14.925 3.975 1.425
14.925 3.975 -0.975
14.925 3.975 1.875
13.425 5.475 1.125
13.425 6.675 0.375
16.575 4.125 -1.425
16.575 4.125 1.425
17.475 7.125 -0.075
14.475 4.125 -0.075
16.575 8.025 0.225
13.575 5.025 -0.075
13.575 5.025 0.075
17.025 4.425 2.175
17.025 4.425 -0.825
16.275 3.975 -1.725
14.775 3.975 1.275
17.175 7.575 1.425
17.025 7.725 -0.525
14.025 4.425 0.225
13.875 4.575 0.075
13.875 4.575 -3.525
13.875 4.575 0.375
17.325 4.725 -0.825
13.425 6.825 -2.475
16.875 4.275 -3.375
16.875 4.275 -1.275
13.875 7.575 1.875
15.525 3.825 0.975
15.525 3.825 2.025
15.525 3.825 1.125
15.525 3.825 1.425
15.375 3.825 1.275
15.375 3.825 0.675
15.375 3.825 1.875
15.375 3.825 1.575
14.175 4.275 -0.075
14.175 4.275 0.825
15.525 8.325 -0.225
13.275 6.075 2.625
14.175 7.875 -0.975
14.175 7.875 1.425
15.675 8.325 0.075
15.675 8.325 0.525
17.775 5.775 2.175
15.825 3.825 1.725
13.275 5.925 0.225
13.275 6.225 2.625
13.275 6.225 2.475
15.225 3.825 0.525
15.225 3.825 0.375
15.225 3.825 0.225
15.225 3.825 1.575
15.225 3.825 1.275
15.225 3.825 1.875
17.625 5.175 2.175
15.825 8.325 0.075
15.825 8.325 3.825
16.425 3.975 -1.125
16.425 3.975 1.725
16.425 3.975 -1.875
13.275 6.375 2.625
13.275 6.375 -2.475
17.475 4.875 -2.775
17.475 4.875 -0.525
17.475 4.875 -1.425
17.625 6.975 2.175
16.725 4.125 -0.975
14.625 3.975 2.025
14.625 3.975 1.875
14.625 3.975 2.175
15.975 3.825 1.875
16.425 8.175 -0.225
14.325 4.125 -0.375
14.325 4.125 -0.525
14.325 4.125 -0.675
14.325 4.125 -0.975
15.075 3.825 0.075
15.075 3.825 0.525
15.075 3.825 5.025
16.725 8.025 -1.425
13.575 4.875 1.875
15.975 8.325 0.975
13.275 5.625 0.225
17.175 4.425 -0.525
17.175 4.425 -0.675
17.175 4.425 1.875
17.175 4.425 1.725
14.925 3.825 -1.125
16.125 8.325 3.525
17.325 4.575 2.025
17.025 4.275 0.375
17.625 5.025 6.075
16.575 3.975 2.175
17.325 7.575 2.025
17.625 7.125 1.725
14.025 4.275 -0.525
13.875 7.725 -0.075
13.725 4.575 -0.375
14.475 3.975 0.225
14.475 3.975 1.275
14.475 3.975 0.675
16.575 8.175 -0.975
13.425 5.025 2.475
13.425 5.025 0.075
13.425 5.025 -0.225
14.025 7.875 1.275
14.025 7.875 0.075
14.025 7.875 2.475
14.025 7.875 2.625
14.475 8.175 -0.375
13.425 7.125 2.925
16.875 4.125 1.725
17.775 5.325 -2.625
16.275 3.825 1.875
14.775 3.825 1.575
14.775 3.825 1.275
14.175 4.125 0.375
16.875 8.025 -0.075
13.575 4.725 2.175
13.575 4.725 -2.175
13.575 4.725 -0.075
16.275 8.325 -0.825
13.275 5.325 1.125
15.525 3.675 1.425
15.525 3.675 1.125
17.925 6.225 2.775
15.675 3.675 1.575
15.375 3.675 0.825
15.375 3.675 0.075
15.375 3.675 0.975
15.375 3.675 0.675
15.375 3.675 1.875
15.525 8.475 0.975
15.525 8.475 0.075
13.125 6.075 2.925
16.725 3.975 -1.125
16.725 3.975 2.325
15.675 8.475 0.225
15.675 8.475 3.825
15.825 3.675 1.725
13.125 5.925 3.075
17.775 5.175 -1.575
15.225 3.675 5.025
15.225 3.675 0.075
15.225 3.675 0.675
15.225 3.675 0.225
15.225 3.675 0.375
16.425 3.825 1.575
16.425 3.825 1.125
17.625 7.275 2.325
14.325 3.975 1.575
14.325 3.975 -0.375
14.325 3.975 -0.825
16.725 8.175 -1.725
14.625 3.825 3.525
13.425 4.875 -1.575
13.425 4.875 0.825
13.125 5.775 2.775
13.125 6.375 2.625
13.275 5.175 -0.375
17.325 4.425 -0.975
17.325 4.425 0.375
17.175 4.275 -0.375
17.175 4.275 -0.675
17.175 4.275 0.375
17.925 5.625 1.725
15.975 3.675 1.425
15.075 3.675 0.525
15.075 3.675 -0.225
15.075 3.675 -0.675
17.175 7.875 -0.075
13.125 5.625 2.025
15.075 8.475 1.425
17.475 4.575 2.025
17.025 4.125 -1.725
13.875 7.875 1.725
13.725 7.725 1.875
17.025 8.025 0.225
17.025 8.025 -0.225
17.025 8.025 -0.075
17.025 8.025 -0.675
14.025 4.125 -1.575
13.575 4.575 0.675
16.125 3.675 1.725
16.125 3.675 1.575
16.125 3.675 0.825
14.925 3.675 -0.675
14.925 3.675 -0.375
14.925 3.675 2.025
14.925 3.675 -0.525
17.775 5.025 0.975
16.575 3.825 -0.825
16.575 3.825 2.025
16.125 8.475 0.825
14.475 3.825 1.425
17.625 4.725 -1.725
17.625 4.725 1.575
16.875 3.975 -0.525
16.875 3.975 1.125
16.875 3.975 -0.975
13.275 5.025 -0.375
14.475 8.325 1.425
14.475 8.325 2.025
14.175 3.975 1.725
14.175 3.975 2.175
14.175 3.975 -0.675
16.875 8.175 -0.075
16.875 8.175 0.225
17.925 5.325 2.175
16.275 3.675 1.575
16.275 3.675 1.725
16.275 3.675 0.675
16.275 3.675 1.875
16.275 8.475 -0.975
13.125 5.325 1.575
17.325 4.275 2.925
16.725 3.825 2.175
16.725 3.825 0.375
16.725 3.825 1.875
17.175 4.125 2.325
17.775 7.275 2.775
13.725 4.275 0.675
13.725 4.275 -3.525
14.325 3.825 2.175
14.325 3.825 2.325
14.325 3.825 -0.375
14.325 3.825 -0.675
15.375 3.525 0.825
15.375 3.525 0.675
15.375 3.525 0.975
16.725 8.325 -3.525
17.175 8.025 -0.825
13.275 4.875 2.475
13.275 4.875 2.325
16.425 3.675 1.875
16.425 3.675 1.725
13.725 7.875 0.675
13.575 4.425 0.525
13.575 4.425 2.775
12.975 6.075 1.575
13.275 7.275 3.375
14.625 3.675 2.475
14.625 3.675 0.825
15.825 3.525 -0.975
12.975 5.925 2.475
15.225 3.525 1.875
15.225 3.525 0.375
15.225 3.525 -0.075
13.875 8.025 2.625
13.575 7.725 1.875
17.025 3.975 -1.875
15.225 8.625 1.725
12.975 6.375 2.475
17.625 7.575 -0.225
17.025 8.175 -0.825
15.975 3.525 1.575
13.425 4.575 -0.375
13.425 4.575 0.675
15.075 3.525 -0.375
15.075 3.525 -0.525
15.075 3.525 0.525
15.075 3.525 -0.675
14.025 8.175 2.475
13.425 7.575 1.725
12.975 6.525 2.475
18.075 5.475 2.325
16.575 3.675 1.875
16.575 3.675 2.025
16.125 3.525 1.725
16.125 3.525 1.875
16.125 3.525 1.575
16.125 3.525 2.025
16.875 3.825 1.875
16.875 3.825 -0.825
14.925 3.525 2.025
14.925 3.525 -0.975
14.925 3.525 0.225
14.925 3.525 0.075
14.925 3.525 -0.675
14.175 3.825 1.875
13.125 5.025 -1.875
16.875 8.325 4.575
14.475 8.475 1.875
12.975 6.675 -3.675
12.975 6.675 2.775
13.125 7.125 1.725
17.475 4.275 1.725
17.475 4.275 2.175
18.075 5.325 2.175
17.325 8.025 -0.525
14.775 3.525 1.875
14.775 3.525 -0.975
14.775 3.525 2.175
14.775 3.525 -0.225
14.775 3.525 -0.675
14.775 3.525 -0.525
14.775 3.525 2.325
14.775 3.525 0.675
13.575 4.275 1.725
13.725 8.025 -1.425
13.725 8.025 -0.225
12.975 5.325 2.325
17.625 7.725 0.075
17.175 8.175 -0.825
17.175 8.175 -0.225
17.925 4.875 -3.075
13.425 4.425 -0.075
13.425 4.425 2.925
16.725 3.675 1.875
13.875 8.175 2.775
14.325 3.675 2.175
14.325 3.675 1.875
14.325 3.675 1.425
14.325 3.675 0.975
13.125 4.875 0.675
13.125 4.875 2.625
14.325 8.475 2.325
17.775 4.575 2.175
16.425 3.525 0.375
16.425 3.525 -0.525
18.225 5.925 1.725
15.675 3.375 1.425
15.375 3.375 0.525
14.625 3.525 -0.675
17.025 8.325 0.225
16.425 8.625 2.325
12.825 6.075 2.475
15.825 3.375 1.425
12.975 5.175 0.825
12.975 5.175 0.225
15.675 8.775 0.675
15.675 8.775 0.525
15.675 8.775 0.075
15.675 8.775 -0.075
15.375 8.775 -0.225
15.225 3.375 0.525
12.825 5.925 1.425
12.825 6.225 2.475
14.625 8.625 1.875
12.975 6.975 1.875
13.275 7.575 0.975
15.825 8.775 0.075
15.825 8.775 -2.025
15.225 8.775 -0.075
12.825 6.375 2.475
18.225 5.625 1.725
15.975 3.375 1.875
15.075 3.375 1.425
15.075 3.375 -0.525
15.075 3.375 3.825
15.975 8.775 0.075
17.925 4.725 4.575
17.925 4.725 -0.825
16.875 3.675 0.225
16.875 3.675 3.225
15.075 8.775 -0.225
17.475 4.125 1.875
17.475 4.125 2.025
17.475 4.125 0.975
16.575 3.525 -0.225
16.575 3.525 1.875
17.925 7.425 2.775
14.475 3.525 1.125
14.475 3.525 0.225
14.475 3.525 0.525
14.475 3.525 0.075
16.875 8.475 0.225
17.475 8.025 -0.525
13.125 4.725 0.825
13.125 4.725 2.775
16.125 3.375 1.575
16.125 3.375 -4.275
16.125 3.375 1.725
16.125 3.375 1.425
13.575 4.125 1.575
14.925 3.375 -0.525
14.925 3.375 -0.225
14.925 3.375 -0.375
14.925 3.375 0.075
14.925 3.375 2.325
14.925 3.375 0.225
12.975 5.025 4.875
12.975 5.025 0.375
13.125 7.425 1.275
17.325 8.175 -0.525
17.325 8.175 -2.025
13.725 3.975 -1.425
14.475 8.625 5.325
13.575 8.025 0.675
13.575 8.025 -1.425
13.725 8.175 2.475
13.425 7.875 2.175
17.175 8.325 0.225
16.275 3.375 -0.975
18.225 6.825 2.775
14.775 3.375 1.425
14.775 3.375 0.075
14.775 3.375 -0.525
14.775 3.375 -0.825
14.775 3.375 -0.675
14.775 3.375 -0.225
14.775 3.375 -0.375
13.275 7.725 1.875
12.825 5.325 -1.275
12.825 5.325 2.325
12.825 5.325 2.925
12.825 5.325 0.675
16.725 3.525 -1.875
16.725 3.525 2.175
16.725 3.525 2.325
18.075 7.275 1.575
14.325 3.525 -1.125
14.325 3.525 -0.975
14.325 3.525 2.925
17.025 3.675 1.725
12.975 4.875 -2.025
12.975 4.875 2.775
14.325 8.625 2.025
14.325 8.625 2.625
17.025 8.475 0.075
13.125 4.575 2.925
16.425 3.375 -0.675
16.425 3.375 1.275
16.425 3.375 1.875
14.025 8.475 1.875
14.025 8.475 1.725
18.375 6.075 2.175
18.375 6.075 1.575
14.625 3.375 -0.225
14.625 3.375 -0.975
14.625 3.375 -1.125
15.525 3.225 2.625
15.525 3.225 0.675
15.525 3.225 5.025
15.675 3.225 1.425
15.675 3.225 1.725
15.675 3.225 0.975
15.375 3.225 0.225
12.825 5.175 0.075
12.825 5.175 1.125
12.825 5.175 0.225
14.625 8.775 -3.525
17.625 4.125 -0.825
17.625 4.125 2.475
17.625 4.125 2.775
12.825 6.975 1.425
15.525 8.925 0.075
18.375 5.775 2.175
18.375 5.775 2.025
12.675 6.075 2.625
12.675 6.075 2.475
18.375 6.375 2.775
18.375 6.375 2.325
18.375 6.375 3.075
15.825 3.225 1.275
15.825 3.225 2.625
15.825 3.225 -0.975
15.825 3.225 0.975
15.675 8.925 0.525
15.675 8.925 -0.825
15.675 8.925 0.225
15.225 3.225 1.425
15.225 3.225 0.525
12.675 5.925 2.625
17.475 8.175 -0.525
13.575 3.975 -1.275
13.425 4.125 2.025
13.425 4.125 -0.825
17.775 4.275 -0.825
17.775 4.275 2.325
15.825 8.925 -4.125
15.825 8.925 -0.225
17.325 3.825 1.275
15.225 8.925 0.225
12.675 5.775 2.175
16.875 3.525 2.025
16.875 3.525 2.625
16.875 3.525 1.875
13.425 8.025 2.025
13.425 8.025 0.825
13.425 8.025 2.475
15.975 3.225 1.275
15.975 3.225 1.425
15.975 3.225 1.575
18.375 6.525 3.075
18.375 6.525 2.475
15.075 3.225 1.575
15.075 3.225 -0.375
17.325 8.325 -0.375
17.325 8.325 -0.525
14.175 3.525 2.325
13.275 4.275 -1.275
16.575 3.375 -1.125
16.575 3.375 -1.575
16.575 3.375 2.025
12.975 4.725 -1.725
12.975 4.725 2.775
15.975 8.925 0.825
15.975 8.925 3.075
13.725 8.325 3.525
13.275 7.875 -0.525
13.275 7.875 2.025
13.275 7.875 1.875
15.075 8.925 -0.075
14.175 8.625 -3.675
14.175 8.625 2.025
17.925 4.425 1.425
17.925 4.425 1.875
17.925 4.425 -0.675
12.825 5.025 0.225
12.825 5.025 4.275
12.825 5.025 2.325
17.175 3.675 1.575
16.125 3.225 1.275
18.375 6.675 2.475
18.375 6.675 3.225
18.375 6.675 2.925
12.825 7.125 2.775
14.925 3.225 -0.225
14.925 3.225 0.225
14.925 3.225 -0.375
14.925 3.225 0.075
14.925 3.225 -0.975
14.925 3.225 -0.825
17.175 8.475 -0.525
17.175 8.475 0.225
13.125 4.425 2.925
16.125 8.925 -1.275
16.125 8.925 3.375
12.675 5.475 0.525
13.875 8.475 0.675
13.875 8.475 0.075
16.275 3.225 1.575
18.375 6.825 2.475
18.375 6.825 2.625
18.375 6.825 2.325
18.375 6.825 -3.825
14.775 3.225 -0.225
14.775 3.225 0.075
14.775 3.225 1.425
14.775 3.225 -0.075
14.775 3.225 -0.675
14.775 3.225 -1.125
18.225 4.875 0.825
18.225 4.875 2.475
18.225 4.875 0.225
18.225 4.875 -0.225
16.725 3.375 2.025
16.725 3.375 -0.825
16.725 3.375 -0.675
16.725 3.375 1.875
18.075 4.575 0.375
18.075 4.575 -0.375
18.075 4.575 -0.075
17.025 3.525 2.175
17.025 3.525 2.025
16.275 8.925 0.075
14.325 3.375 2.775
14.325 3.375 2.625
14.325 3.375 1.875
16.725 8.775 0.225
14.025 3.525 4.875
17.025 8.625 -0.225
12.975 4.575 1.725
12.975 4.575 2.925
12.975 4.575 2.775
12.975 4.575 2.625
14.325 8.775 1.275
12.825 7.275 0.825
17.475 3.825 1.725
14.025 8.625 3.375
17.625 8.175 -0.525
12.975 7.575 2.175
17.475 8.325 -0.225
13.275 4.125 -1.425
13.425 8.175 2.625
13.425 8.175 1.275
13.425 8.175 1.875
13.425 8.175 1.425
16.425 3.225 2.625
16.425 3.225 -0.375
18.375 6.975 2.025
18.375 6.975 2.775
14.625 3.225 -0.375
14.625 3.225 -0.075
14.625 3.225 -1.275
14.625 3.225 -0.825
17.925 4.275 2.325
17.325 3.675 1.575
17.325 3.675 1.725
18.525 6.075 2.475
16.425 8.925 2.325
15.525 3.075 1.125
15.525 3.075 -0.975
18.525 5.925 2.175
15.675 3.075 0.225
15.675 3.075 0.375
15.675 3.075 2.925
15.675 3.075 1.725
15.375 3.075 0.825
15.375 3.075 0.675
15.375 3.075 0.225
13.125 4.275 -0.225
18.525 5.775 1.275
15.525 9.075 0.075
15.525 9.075 -0.975
18.525 6.375 2.025
18.525 6.375 2.175
15.825 3.075 1.725
15.825 3.075 0.225
15.825 3.075 1.575
15.825 3.075 1.125
12.525 6.075 -0.075
18.225 4.725 0.225
18.225 4.725 -2.025
16.875 3.375 -0.675
15.225 3.075 0.525
15.225 3.075 1.575
15.675 9.075 3.225
15.675 9.075 0.075
15.675 9.075 -0.075
15.675 9.075 1.425
15.675 9.075 0.675
13.725 8.475 0.525
13.125 7.875 1.275
13.125 7.875 2.775
13.125 7.875 2.325
12.525 5.925 -0.225
12.525 6.225 1.125
18.225 7.425 4.425
14.175 3.375 2.175
14.175 3.375 2.775
15.825 9.075 0.075
16.875 8.775 0.075
15.225 9.075 0.675
15.225 9.075 -0.075
12.525 5.775 2.475
12.825 4.725 1.725
12.525 6.375 -0.375
18.525 5.625 2.175
15.975 3.075 1.425
18.525 6.525 5.025
18.075 4.425 -0.225
18.375 5.025 2.175
18.375 5.025 -2.025
18.375 5.025 0.375
18.375 5.025 -0.225
17.175 3.525 2.775
14.175 8.775 2.025
16.575 3.225 1.575
16.575 3.225 0.525
14.475 3.225 -0.675
14.475 3.225 -0.225
13.875 3.525 3.375
17.175 8.625 -0.375
17.175 8.625 0.075
17.175 8.625 -0.075
17.175 8.625 1.125
17.175 8.625 0.225
15.975 9.075 0.075
16.575 8.925 0.075
12.975 4.425 2.625
12.675 5.025 0.825
12.675 5.025 0.375
13.875 8.625 0.675
13.875 8.625 0.375
12.675 7.125 1.875
12.975 7.725 2.025
12.975 7.725 1.275
18.525 6.675 2.025
18.525 6.675 0.675
18.525 6.675 2.625
14.925 3.075 -0.075
14.925 3.075 -0.375
16.125 9.075 0.075
16.125 9.075 3.675
16.125 9.075 0.525
17.775 3.975 -3.075
17.625 3.825 -1.425
17.625 3.825 1.125
17.625 8.325 -0.225
17.625 8.325 2.925
13.275 3.975 -0.525
17.475 3.675 1.575
18.375 4.875 -2.475
18.375 4.875 0.075
18.375 4.875 0.225
18.375 4.875 -0.225
18.375 4.875 -0.525
18.375 4.875 0.375
18.375 4.875 1.275
18.525 5.325 -0.525
18.525 5.325 -0.075
18.525 5.325 -0.375
18.525 5.325 0.375
14.025 3.375 4.725
18.375 7.275 4.125
13.425 8.325 3.075
13.275 8.175 -0.225
14.775 3.075 3.825
14.775 3.075 0.375
14.775 3.075 -0.975
14.775 3.075 0.075
14.775 3.075 -0.225
17.025 8.775 1.575
17.025 8.775 0.075
13.575 3.675 2.475
12.825 4.575 0.975
13.125 4.125 -0.525
13.125 4.125 2.025
16.725 8.925 0.075
16.275 9.075 -0.375
12.675 4.875 0.225
14.025 8.775 2.025
14.025 8.775 0.525
14.025 8.775 2.325
12.825 7.575 -0.225
13.125 8.025 2.775
13.125 8.025 2.475
13.125 8.025 1.575
17.325 3.525 2.175
17.325 3.525 0.825
17.325 8.625 0.975
17.325 8.625 0.825
18.525 5.175 -0.075
18.525 5.175 -0.225
16.425 3.075 -0.525
18.525 6.975 2.625
14.625 3.075 3.375
14.625 3.075 -0.675
13.725 8.625 0.375
13.725 8.625 2.625
12.975 7.875 2.025
12.525 6.975 3.225
18.675 6.075 2.475
18.675 6.075 2.325
18.375 4.725 0.225
18.375 4.725 0.075
15.525 2.925 0.675
15.525 2.925 0.375
15.525 2.925 2.175
16.875 3.225 2.025
18.675 5.925 3.225
18.675 5.925 2.175
18.675 6.225 2.775
18.675 6.225 0.075
15.675 2.925 0.375
15.675 2.925 0.675
15.675 2.925 1.125
15.675 2.925 1.425
15.375 2.925 0.525
15.375 2.925 0.975
15.375 2.925 1.425
15.375 2.925 1.575
14.175 3.225 2.625
14.175 3.225 3.225
16.875 8.925 0.225
16.875 8.925 2.175
18.675 6.375 2.025
15.825 2.925 0.225
12.375 6.075 2.775
12.675 4.725 3.075
12.675 4.725 0.375
15.225 2.925 1.275
15.225 2.925 0.675
15.225 2.925 1.575
15.675 9.225 3.075
15.675 9.225 1.575
15.675 9.225 0.225
15.675 9.225 2.925
15.375 9.225 2.325
12.375 5.925 -0.375
12.375 6.225 2.625
14.175 8.925 0.975
14.175 8.925 2.025
12.675 7.425 2.775
17.175 8.775 0.375
17.175 8.775 0.075
17.175 8.775 0.525
12.825 4.425 -2.325
12.825 4.425 3.225
18.525 5.025 0.075
18.525 5.025 2.325
18.525 5.025 2.175
16.575 3.075 0.525
16.575 3.075 2.025
15.225 9.225 3.075
15.225 9.225 1.125
18.525 7.125 2.025
18.675 5.625 -0.225
12.375 6.375 3.225
12.375 6.375 2.625
13.875 8.775 0.525
13.875 8.775 0.375
13.875 8.775 2.625
12.825 7.725 -0.225
15.975 2.925 -0.225
15.975 2.925 1.275
18.675 6.525 2.175
14.475 3.075 1.575
15.075 2.925 0.075
17.625 3.675 -3.075
17.625 3.675 1.425
17.625 3.675 1.725
17.625 3.675 2.325
16.575 9.075 2.175
16.575 9.075 2.475
13.275 3.825 0.375
12.525 5.025 3.525
12.525 5.025 0.525
12.525 7.125 1.875
17.625 8.475 -0.675
17.625 8.475 -0.525
12.375 5.625 2.775
12.375 5.625 -0.075
13.125 3.975 2.775
13.275 8.325 2.475
18.675 5.475 0.075
18.675 5.475 -0.525
16.125 2.925 0.075
16.125 2.925 1.425
16.125 2.925 1.575
16.125 2.925 4.425
17.475 3.525 1.725
17.475 3.525 1.425
14.925 2.925 -0.375
14.925 2.925 0.075
13.575 3.525 0.975
17.475 8.625 -0.525
17.475 8.625 -0.375
18.375 4.575 -0.675
18.375 4.575 2.475
17.025 3.225 2.175
17.025 3.225 2.025
12.375 5.475 2.925
12.375 6.675 2.775
14.025 3.225 3.075
14.025 3.225 0.975
12.975 8.025 3.225
12.975 8.025 1.875
18.525 4.875 -0.375
18.525 4.875 0.675
18.525 4.875 2.325
16.725 3.075 1.725
12.675 4.575 3.075
18.675 5.325 0.525
14.025 8.925 2.175
14.025 8.925 0.525
14.775 2.925 0.375
18.225 4.275 0.375
17.325 3.375 1.725
17.325 3.375 2.025
12.525 4.875 0.825
12.525 4.875 3.525
14.325 9.075 0.975
12.525 7.275 3.075
18.225 7.875 2.175
16.275 9.225 0.525
13.725 3.375 0.375
12.375 5.325 0.375
12.375 5.325 3.825
17.325 8.775 -0.225
12.825 4.275 3.375
13.725 8.775 0.975
13.725 8.775 0.675
12.825 7.875 3.075
18.675 5.175 0.075
18.675 5.175 -3.525
18.675 5.175 -0.225
16.425 2.925 2.175
16.425 2.925 -0.375
18.675 6.975 4.575
14.625 2.925 0.525
14.625 2.925 -1.275
17.775 3.675 2.175
18.525 4.725 0.075
18.525 4.725 -0.975
18.525 4.725 -0.075
18.525 4.725 2.325
12.375 5.175 1.575
12.375 5.175 4.575
12.375 5.175 2.925
12.375 5.175 0.525
18.375 4.425 2.475
17.175 3.225 2.175
17.175 3.225 0.825
18.525 7.425 2.925
14.175 3.075 0.525
14.175 3.075 2.625
13.275 3.675 -5.475
13.125 3.825 2.325
18.825 6.075 2.625
13.875 3.225 1.275
13.875 3.225 -0.075
13.875 3.225 0.825
13.875 3.225 0.375
13.875 3.225 0.675
13.875 3.225 4.575
13.875 3.225 2.175
17.625 3.525 2.025
17.625 3.525 1.875
17.625 3.525 1.575
15.525 2.775 -0.525
15.525 2.775 0.825
15.525 2.775 0.525
15.525 2.775 0.675
17.175 8.925 1.575
17.175 8.925 1.125
17.175 8.925 0.075
12.525 4.725 0.825
12.525 4.725 0.225
12.525 4.725 2.775
18.825 5.925 2.325
15.675 2.775 1.875
15.375 2.775 0.675
15.375 2.775 0.525
14.175 9.075 0.525
14.175 9.075 0.675
13.275 8.475 2.475
13.875 8.925 0.525
13.875 8.925 0.675
13.875 8.925 2.325
13.425 3.525 2.775
18.825 6.375 2.775
18.825 6.375 0.225
15.525 9.375 -1.425
15.825 2.775 1.275
15.825 2.775 0.375
15.825 2.775 0.675
15.225 2.775 2.325
12.225 6.075 2.625
12.225 6.075 1.425
