# .PCD v0.7 - Point Cloud Data file format
VERSION 0.7
FIELDS x y z
SIZE 4 4 4
TYPE F F F
COUNT 1 1 1
WIDTH 2048
HEIGHT 1
VIEWPOINT 0 0 0 1 0 0 0
POINTS 2048
DATA ascii
-32.625 -10.575 2.175
-32.475 -10.425 1.875
-32.025 -10.125 1.725
-31.875 -11.175 -0.075
-31.725 -10.725 2.175
-32.625 -11.625 1.425
-31.725 -10.875 2.025
-32.475 -11.625 1.425
-32.625 -11.775 1.875
-32.775 -11.775 1.125
-32.775 -11.775 1.725
-31.725 -11.325 0.375
-31.425 -10.725 2.025
-32.025 -9.675 -0.975
-32.325 -11.925 1.425
-32.175 -11.925 -2.475
-31.875 -11.775 1.425
-32.625 -12.075 2.325
-31.275 -10.725 1.875
-32.475 -12.075 2.175
-31.725 -9.675 2.175
-32.925 -12.075 2.025
-31.875 -11.925 -0.075
-33.075 -12.075 2.625
-32.625 -12.225 2.475
-32.475 -12.225 2.175
-32.475 -12.225 2.025
-32.475 -12.225 1.725
-32.475 -12.225 1.425
-31.875 -12.075 1.275
-31.125 -11.175 0.825
-32.175 -12.225 2.175
-31.575 -11.925 0.375
-32.325 -12.375 1.875
-31.275 -11.775 0.225
-31.275 -11.775 1.275
-32.775 -12.525 2.025
-32.475 -12.525 1.125
-31.275 -11.925 1.425
-31.875 -12.375 0.375
-31.575 -12.225 2.025
-30.975 -11.625 0.675
-31.125 -11.925 0.225
-30.825 -11.475 0.975
-32.625 -12.675 0.225
-32.175 -12.675 2.475
-31.275 -12.225 2.025
-31.275 -12.225 2.175
-30.975 -11.925 1.425
-31.425 -9.075 2.475
-33.225 -12.675 0.825
-30.675 -11.475 2.175
-32.625 -12.825 2.325
-32.625 -12.825 2.025
-32.475 -12.825 1.125
-32.325 -12.825 2.325
-30.975 -12.075 1.725
-30.525 -11.175 1.125
-31.425 -12.525 2.025
-30.825 -11.925 1.125
-30.525 -11.325 1.425
-30.675 -11.775 0.975
-31.575 -12.675 -4.425
-30.975 -12.225 1.875
-30.975 -12.225 0.825
-30.825 -12.075 -0.075
-30.825 -12.075 1.425
-30.825 -12.075 1.725
-32.175 -12.975 1.275
-33.075 -12.975 1.425
-30.375 -11.325 0.975
-30.525 -11.775 1.125
-30.225 -10.725 -2.175
-32.325 -13.125 0.075
-32.925 -13.125 1.425
-30.375 -11.625 1.125
-30.375 -11.625 1.575
-30.225 -10.275 1.725
-30.225 -11.175 1.575
-30.225 -11.325 0.975
-33.225 -13.125 -0.675
-30.375 -11.775 0.375
-30.975 -12.675 -0.675
-30.225 -11.625 1.725
-30.225 -11.625 1.275
-31.125 -12.825 -4.125
-30.225 -9.675 -2.475
-30.225 -11.775 1.425
-30.225 -11.775 0.375
-30.075 -11.325 0.975
-30.075 -11.325 0.825
-30.075 -11.325 1.725
-32.025 -13.275 0.075
-31.875 -13.275 1.875
-30.225 -11.925 1.275
-30.225 -11.925 2.025
-30.375 -12.225 1.575
-30.375 -12.225 1.725
-31.725 -13.275 2.025
-31.725 -13.275 1.725
-30.075 -11.625 1.275
-32.775 -13.425 2.625
-29.925 -11.025 -2.625
-32.925 -13.425 1.275
-30.225 -12.075 0.825
-33.225 -13.425 1.275
-30.375 -12.375 0.075
-29.925 -11.475 0.825
-30.225 -12.225 1.425
-30.225 -12.225 0.525
-31.725 -13.425 1.875
-30.225 -12.375 1.275
-32.025 -13.575 1.725
-31.875 -13.575 1.275
-29.925 -11.925 1.275
-30.675 -8.475 -5.175
-30.675 -8.475 -5.025
-29.625 -10.725 0.075
-29.625 -10.725 0.375
-31.575 -13.575 2.175
-30.075 -9.075 0.375
-30.075 -12.375 1.125
-29.775 -11.775 1.725
-30.225 -8.775 0.375
-30.225 -8.775 0.675
-30.675 -13.125 2.325
-29.775 -11.925 1.425
-30.075 -12.525 1.725
-29.625 -11.625 0.375
-29.625 -11.625 1.575
-29.475 -10.575 1.575
-29.775 -12.075 1.275
-29.775 -9.375 2.325
-29.475 -10.425 -2.475
-31.575 -13.725 -0.375
-29.625 -11.775 1.275
-30.225 -8.625 0.825
-30.675 -13.275 1.425
-29.775 -9.225 -1.575
-29.625 -11.925 0.525
-29.475 -9.975 3.225
-29.925 -8.925 4.125
-30.825 -13.425 0.675
-30.825 -13.425 1.575
-29.475 -11.625 0.225
-29.625 -12.075 1.275
-30.975 -13.575 1.275
-30.975 -7.875 -2.775
-29.325 -10.425 2.175
-29.925 -8.775 0.825
-29.625 -12.225 -5.775
-29.475 -9.525 2.475
-29.475 -11.925 1.425
-29.775 -12.525 0.675
-29.325 -11.475 1.425
-29.325 -11.625 0.225
-29.475 -12.075 1.275
-29.475 -12.075 1.425
-29.175 -10.575 0.225
-30.675 -13.575 0.675
-29.775 -8.775 -2.175
-29.175 -11.025 0.375
-29.325 -11.775 -0.375
-33.075 -14.175 2.325
-29.475 -9.225 -1.425
-29.475 -12.225 0.525
-30.825 -13.725 1.425
-29.175 -11.325 -0.225
-29.175 -11.325 -0.825
-29.175 -11.325 -0.075
-29.325 -9.525 0.225
-29.325 -9.525 0.375
-29.175 -11.475 0.225
-29.475 -12.375 0.975
-29.175 -9.825 0.075
-29.175 -11.625 -1.125
-29.325 -9.375 1.575
-30.675 -13.725 1.425
-29.025 -10.575 0.375
-29.175 -9.675 -0.225
-29.025 -11.025 -4.875
-29.025 -11.025 0.375
-29.025 -11.025 2.025
-29.025 -11.175 -2.925
-29.025 -11.325 2.025
-29.025 -11.325 -2.925
-29.025 -11.325 1.275
-29.175 -11.925 1.575
-31.425 -14.175 -0.075
-31.425 -14.175 -0.525
-29.025 -9.975 0.225
-29.025 -9.975 -0.675
-29.025 -9.975 0.075
-29.025 -11.475 -0.225
-29.025 -11.475 1.575
-29.025 -11.475 1.275
-30.975 -7.425 2.475
-29.475 -8.775 -2.325
-29.175 -9.375 0.225
-29.625 -12.975 0.975
-29.025 -9.675 -0.075
-28.875 -10.875 0.075
-28.875 -10.875 0.225
-29.175 -12.225 0.075
-28.875 -11.025 -1.125
-28.875 -11.025 0.075
-28.875 -11.025 0.225
-28.875 -10.275 -0.525
-28.875 -11.175 -1.575
-28.875 -11.175 0.075
-28.875 -11.175 -0.075
-33.075 -14.475 1.875
-33.075 -14.475 2.025
-30.525 -13.875 -3.075
-30.525 -13.875 1.125
-28.875 -11.325 -0.225
-28.875 -11.325 -1.575
-28.875 -9.975 1.575
-28.875 -9.975 -0.675
-29.775 -13.275 -1.875
-30.225 -13.725 -1.425
-31.275 -14.325 0.075
-29.025 -9.375 -6.975
-29.025 -12.075 -2.025
-28.875 -9.825 -1.125
-29.175 -8.925 -6.675
-29.175 -12.525 0.975
-30.825 -14.175 0.075
-30.825 -14.175 -0.375
-28.725 -10.725 -5.475
-29.025 -12.225 0.225
-29.025 -12.225 1.275
-29.025 -12.225 0.375
-29.025 -9.225 0.375
-29.025 -9.225 -5.025
-28.725 -10.575 -0.825
-28.725 -10.875 0.075
-28.725 -10.575 1.725
-28.725 -11.025 -0.075
-28.725 -11.025 1.875
-29.325 -12.825 1.125
-30.525 -7.425 1.125
-28.725 -10.275 -0.975
-28.725 -10.275 -0.675
-28.725 -11.175 0.225
-28.725 -11.175 -0.075
-28.725 -11.175 -1.425
-28.875 -9.525 -0.675
-28.875 -11.925 -4.425
-30.075 -7.725 0.825
-29.625 -13.275 -2.175
-30.075 -7.725 0.975
-28.725 -10.125 0.075
-28.725 -11.325 -0.225
-30.225 -7.575 0.375
-30.225 -7.575 0.975
-29.475 -13.125 1.425
-29.475 -13.125 1.275
-30.225 -13.875 1.425
-29.025 -12.375 -0.075
-29.025 -12.375 0.375
-29.175 -12.675 0.975
-28.725 -11.475 -0.225
-28.725 -9.975 0.075
-30.375 -7.425 0.375
-30.375 -7.425 0.825
-30.375 -14.025 -0.975
-29.325 -12.975 -0.825
-28.725 -11.625 -1.125
-28.725 -9.825 0.075
-28.725 -9.825 -2.475
-28.725 -9.825 -6.975
-30.825 -14.325 -0.975
-30.825 -14.325 -2.475
-29.025 -8.925 1.275
-29.025 -8.925 -0.825
-29.025 -8.925 -7.425
-29.025 -12.525 -0.075
-29.025 -12.525 1.425
-29.925 -7.725 0.975
-29.625 -8.025 2.175
-28.725 -11.775 0.225
-28.725 -11.775 0.975
-29.175 -8.625 1.125
-29.175 -8.625 0.825
-29.175 -8.625 -0.075
-31.125 -6.975 -4.575
-31.125 -14.475 -0.825
-28.875 -12.225 1.275
-29.475 -13.275 1.125
-30.075 -7.575 2.025
-28.575 -10.875 -0.975
-30.075 -13.875 1.725
-28.575 -11.025 -0.075
-28.575 -11.175 0.225
-28.575 -10.275 -1.275
-28.575 -11.175 -0.075
-28.575 -10.275 -0.375
-30.225 -7.425 0.825
-29.325 -8.325 2.475
-30.675 -7.125 -2.625
-29.025 -8.775 0.225
-28.575 -11.325 -2.325
-29.025 -8.775 1.125
-29.025 -8.775 0.675
-28.575 -11.325 0.075
-28.575 -11.325 -0.225
-28.575 -10.125 -0.525
-28.575 -10.125 -0.075
-28.575 -11.325 -0.375
-28.575 -11.325 -1.125
-28.575 -10.125 0.375
-28.575 -10.125 -1.275
-29.025 -8.775 -6.825
-28.875 -12.375 1.275
-28.875 -12.375 0.225
-28.875 -9.075 0.825
-29.175 -8.475 2.475
-29.175 -8.475 1.875
-29.175 -8.475 0.375
-28.575 -9.975 0.375
-28.575 -9.975 1.425
-28.575 -11.475 -1.425
-28.725 -12.075 -1.575
-29.925 -7.575 0.825
-28.575 -11.625 -0.525
-28.575 -11.625 -0.975
-28.575 -11.625 -1.125
-28.575 -11.625 0.975
-28.875 -8.925 0.825
-28.875 -8.925 0.375
-30.825 -6.975 1.425
-30.825 -14.475 -0.675
-29.025 -12.825 -1.275
-29.025 -8.625 1.425
-29.025 -12.825 -1.125
-29.325 -8.175 2.625
-29.325 -8.175 2.475
-29.325 -8.175 0.825
-30.075 -14.025 -1.575
-28.725 -12.225 -1.575
-28.725 -9.225 -0.675
-28.725 -12.225 0.975
-28.725 -12.225 -1.425
-31.125 -14.625 0.825
-28.575 -11.775 0.975
-28.575 -11.775 0.075
-29.175 -8.325 0.375
-28.425 -11.175 2.025
-28.425 -11.175 0.075
-28.425 -11.175 -1.575
-28.425 -11.175 -0.075
-28.575 -11.925 0.675
-28.875 -8.775 1.275
-28.875 -8.775 1.125
-28.875 -8.775 0.225
-28.875 -12.675 -0.075
-28.725 -12.375 0.975
-30.975 -14.625 0.975
-28.425 -11.325 0.225
-28.425 -11.325 -1.575
-28.425 -11.325 0.075
-28.425 -10.125 -0.225
-28.425 -11.325 -0.075
-30.375 -7.125 0.675
-30.375 -14.325 1.425
-29.025 -8.475 1.575
-29.925 -14.025 2.925
-29.325 -13.425 -2.925
-28.425 -11.475 0.375
-28.425 -11.475 -0.975
-28.425 -9.975 1.125
-28.425 -9.975 -2.775
-28.425 -11.475 -1.275
-28.425 -11.475 0.525
-29.175 -8.175 2.325
-30.075 -7.275 2.775
-30.075 -7.275 0.675
-28.725 -12.525 0.825
-28.725 -12.525 1.125
-28.425 -11.625 -1.125
-30.825 -14.625 1.125
-31.725 -14.925 1.575
-28.875 -8.625 1.425
-28.875 -8.625 0.525
-28.875 -8.625 0.225
-28.875 -12.825 0.975
-28.875 -8.625 -8.775
-28.575 -9.225 -0.675
-28.425 -11.775 -0.975
-28.275 -10.725 1.425
-28.275 -10.725 -2.175
-28.275 -10.575 -0.675
-28.725 -8.775 0.525
-28.725 -12.675 0.375
-28.275 -11.025 -0.075
-28.275 -11.025 1.725
-28.275 -11.025 0.075
-28.275 -11.025 2.025
-28.275 -10.425 -0.825
-28.425 -9.525 -3.825
-28.875 -8.475 -0.525
-30.975 -14.775 1.575
-28.575 -9.075 -0.525
-28.275 -10.275 -0.225
-28.275 -11.175 -0.225
-28.275 -11.175 -2.475
-28.275 -10.275 -2.025
-28.275 -11.325 0.975
-28.275 -11.325 -0.225
-28.275 -11.325 0.225
-28.275 -11.325 -1.725
-28.425 -12.075 -5.025
-28.425 -12.075 -5.325
-28.275 -11.475 0.075
-28.275 -11.475 5.925
-28.275 -11.475 -0.075
-28.725 -12.825 -0.075
-28.725 -8.625 -0.825
-28.575 -8.925 0.225
-30.825 -6.675 1.575
-28.575 -12.525 0.525
-28.275 -11.625 -1.275
-28.275 -11.625 0.075
-28.275 -11.625 -0.225
-30.225 -14.475 0.675
-30.225 -14.475 1.575
-30.225 -14.475 0.525
-28.875 -8.325 2.325
-29.475 -13.875 -0.825
-29.475 -13.875 -1.275
-28.425 -9.225 -1.125
-31.125 -6.525 0.675
-29.325 -13.725 -1.275
-29.325 -13.725 0.075
-29.625 -14.025 3.375
-29.325 -13.725 -1.125
-29.325 -13.725 -1.425
-31.575 -6.375 1.875
-28.275 -9.675 0.225
-28.275 -11.775 -0.225
-28.275 -11.775 0.075
-28.275 -11.775 0.375
-28.275 -11.775 1.125
-28.575 -8.775 0.525
-28.575 -8.775 1.575
-28.575 -8.775 2.025
-28.575 -12.675 -1.875
-28.125 -11.025 1.125
-28.125 -11.025 0.975
-30.975 -6.525 0.825
-28.425 -9.075 -1.125
-28.425 -9.075 0.375
-28.425 -12.375 0.375
-28.425 -9.075 -0.075
-31.425 -6.375 2.325
-30.975 -14.925 -0.525
-28.275 -11.925 -1.275
-28.275 -11.925 1.125
-28.125 -10.275 1.725
-28.125 -10.275 0.825
-28.125 -11.175 -1.875
-28.875 -8.175 2.325
-30.075 -6.975 0.225
-30.075 -6.975 2.175
-28.875 -13.275 1.275
-28.125 -10.125 1.575
-28.125 -11.325 4.425
-28.125 -11.325 0.825
-28.125 -11.325 -0.225
-28.125 -11.325 0.075
-28.125 -10.125 -1.425
-28.125 -10.125 -0.225
-31.275 -6.375 2.625
-28.275 -9.375 0.675
-28.275 -9.375 0.375
-28.125 -11.475 0.075
-28.125 -9.975 -0.225
-28.125 -9.975 0.675
-28.125 -11.475 -0.075
-28.125 -11.475 -0.225
-33.375 -15.225 1.425
-28.575 -8.625 -0.675
-28.575 -12.825 0.075
-28.575 -8.625 1.425
-28.575 -12.825 0.375
-30.525 -6.675 -1.875
-28.425 -8.925 0.525
-28.425 -12.525 -0.675
-30.825 -6.525 2.775
-30.825 -6.525 0.075
-29.175 -7.725 -0.675
-29.175 -13.725 -1.575
-30.225 -6.825 0.975
-30.225 -14.625 -0.675
-31.725 -6.225 1.875
-33.525 -15.225 1.125
-28.125 -9.825 -2.925
-28.125 -11.625 0.825
-28.125 -11.625 -0.225
-29.775 -7.125 1.425
-29.025 -7.875 0.375
-29.025 -7.875 1.125
-28.275 -12.225 1.125
-28.275 -9.225 0.375
-29.925 -6.975 0.525
-28.875 -8.025 1.125
-28.125 -11.775 0.075
-30.675 -6.525 2.025
-30.675 -14.925 0.525
-28.575 -12.975 -2.775
-27.975 -10.875 1.575
-27.975 -10.575 2.925
-28.275 -9.075 -1.125
-28.275 -12.375 0.975
-28.275 -12.375 0.375
-28.125 -9.525 0.525
-28.725 -8.175 -4.275
-28.725 -8.175 -1.125
-27.975 -11.025 1.575
-28.725 -13.275 1.125
-28.725 -13.275 -0.225
-30.075 -6.825 0.225
-30.075 -14.625 1.875
-30.075 -14.625 1.275
-29.325 -14.025 -0.975
-27.975 -11.175 0.525
-29.175 -7.575 -0.675
-27.975 -11.175 0.825
-29.475 -14.175 0.075
-29.625 -7.125 0.375
-29.625 -7.125 0.525
-29.025 -7.725 1.125
-29.025 -13.725 -1.425
-27.975 -11.325 2.625
-27.975 -11.325 1.725
-27.975 -11.325 -1.275
-28.425 -12.825 -4.875
-28.425 -8.625 0.375
-28.425 -8.625 -0.825
-28.425 -12.825 0.075
-30.525 -6.525 3.075
-30.525 -6.525 3.375
-28.125 -12.075 -0.525
-28.125 -9.375 -1.125
-28.125 -9.375 0.375
-28.125 -12.075 -0.375
-30.225 -6.675 0.975
-28.275 -12.525 0.675
-28.275 -12.525 -0.525
-28.275 -12.525 0.075
-27.975 -11.475 0.975
-28.875 -13.575 -2.175
-29.775 -6.975 0.975
-27.975 -11.625 -0.225
-31.725 -6.075 2.175
-28.725 -8.025 2.025
-29.925 -6.825 0.975
-29.925 -6.825 -0.225
-29.925 -6.825 0.825
-29.925 -6.825 1.725
-28.725 -13.425 -0.075
-28.125 -12.225 0.975
-28.125 -12.225 1.125
-28.125 -9.225 -0.375
-28.425 -8.475 0.375
-28.425 -12.975 0.225
-28.425 -12.975 0.525
-27.975 -11.775 0.825
-27.975 -11.775 0.075
-27.975 -11.775 -1.275
-30.675 -6.375 0.375
-31.575 -6.075 2.175
-28.275 -12.675 0.675
-28.275 -12.675 -0.075
-28.275 -12.675 -0.375
-28.275 -12.675 0.975
-29.175 -7.425 -3.375
-29.325 -7.275 0.675
-29.175 -14.025 -2.025
-29.325 -14.175 -1.575
-29.475 -7.125 0.825
-29.475 -14.325 -1.275
-29.025 -7.575 0.825
-29.025 -7.575 0.375
-29.025 -7.575 0.225
-28.575 -8.175 -7.275
-30.075 -14.775 1.275
-28.575 -13.275 -3.675
-28.575 -13.275 -0.225
-30.975 -6.225 0.525
-30.975 -6.225 0.225
-28.125 -12.375 0.225
-28.125 -9.075 0.075
-28.125 -12.375 0.075
-28.125 -12.375 -0.225
-28.125 -12.375 0.975
-27.975 -9.525 0.375
-27.975 -11.925 0.675
-27.975 -11.925 -0.525
-31.425 -6.075 2.175
-29.625 -6.975 2.175
-29.625 -6.975 0.825
-28.875 -7.725 0.375
-28.875 -7.725 2.025
-28.875 -13.725 -0.675
-27.825 -10.425 1.425
-27.825 -10.425 0.225
-27.825 -10.425 0.675
-27.825 -11.025 1.575
-27.825 -10.275 0.525
-27.825 -11.175 0.675
-27.825 -10.275 2.625
-27.825 -10.275 0.375
-27.825 -11.175 0.375
-27.825 -11.175 1.425
-28.725 -7.875 -3.825
-28.725 -7.875 -1.425
-28.725 -13.575 -1.575
-28.725 -13.575 -0.975
-28.725 -7.875 2.175
-28.725 -13.575 -3.375
-28.275 -12.825 -0.075
-28.275 -12.825 0.075
-29.775 -14.625 -0.375
-30.225 -6.525 0.525
-28.425 -8.325 1.725
-28.425 -8.325 -0.825
-28.425 -8.325 -0.525
-30.225 -14.925 0.825
-27.825 -10.125 0.525
-27.825 -11.325 1.425
-27.825 -10.125 1.575
-27.825 -10.125 0.375
-27.825 -10.125 0.975
-27.825 -10.125 -2.025
-27.825 -11.325 1.275
-27.825 -11.325 0.525
-27.825 -11.325 0.375
-27.825 -11.325 1.125
-27.825 -10.125 0.225
-27.975 -9.375 0.675
-27.975 -9.375 0.825
-27.975 -12.075 0.225
-27.975 -12.075 -0.675
-28.125 -8.925 0.825
-30.825 -15.225 0.675
-28.125 -12.525 -1.275
-28.125 -12.525 -0.075
-31.875 -5.925 2.175
-27.825 -11.475 -0.975
-27.825 -11.475 0.975
-29.925 -6.675 1.875
-29.925 -6.675 1.425
-28.575 -13.425 0.075
-29.325 -7.125 1.125
-27.825 -11.625 2.175
-27.825 -11.625 -0.975
-27.825 -9.825 0.525
-27.825 -9.825 0.375
-29.025 -7.425 0.525
-29.025 -14.025 -1.425
-27.975 -12.225 -0.675
-27.975 -12.225 0.975
-27.975 -9.225 0.675
-27.975 -9.225 1.425
-27.975 -9.225 0.375
-31.125 -6.075 2.625
-31.125 -6.075 0.525
-31.125 -15.375 0.525
-29.475 -6.975 0.675
-29.475 -6.975 0.375
-28.875 -7.575 2.325
-28.875 -7.575 1.725
-28.875 -7.575 -1.275
-28.275 -12.975 0.075
-28.275 -8.475 -0.375
-30.675 -15.225 -0.225
-28.125 -8.775 0.825
-28.125 -12.675 -0.075
-28.425 -8.175 -0.675
-28.425 -8.175 0.675
-28.425 -13.275 0.825
-28.425 -13.275 0.975
-28.425 -13.275 -0.225
-28.425 -13.275 -3.525
-28.425 -13.275 1.275
-31.575 -5.925 0.825
-27.825 -9.675 0.225
-27.825 -9.675 1.875
-27.825 -11.775 0.075
-28.725 -7.725 0.675
-28.725 -7.725 -3.675
-28.725 -7.725 -1.425
-28.725 -13.725 -1.575
-29.625 -6.825 -3.525
-27.975 -12.375 0.225
-27.975 -9.075 0.225
-27.975 -9.075 -0.525
-30.975 -6.075 0.525
-30.975 -6.075 0.225
-30.975 -15.375 0.525
-30.975 -15.375 1.275
-31.425 -5.925 0.825
-27.825 -9.525 0.075
-27.825 -9.525 -0.975
-27.825 -11.925 -2.025
-27.675 -10.725 1.575
-27.675 -10.875 1.575
-27.675 -10.875 -0.225
-27.675 -10.575 -0.825
-27.675 -10.575 -0.975
-27.675 -10.575 1.575
-28.575 -7.875 0.525
-29.775 -6.675 1.125
-27.675 -10.425 2.025
-27.675 -10.425 -1.125
-27.675 -11.025 -2.175
-27.675 -10.425 1.275
-27.675 -10.425 -1.275
-27.675 -11.025 -0.075
-28.125 -12.825 0.075
-30.225 -6.375 0.525
-28.275 -13.125 -0.075
-28.275 -8.325 0.675
-27.675 -10.275 1.125
-27.675 -11.175 0.675
-27.675 -11.175 -0.075
-27.675 -11.175 1.875
-27.975 -8.925 1.725
-27.975 -8.925 0.225
-27.675 -10.125 0.075
-27.675 -10.125 1.425
-27.675 -11.325 1.275
-27.675 -11.325 -2.175
-27.675 -11.325 0.525
-27.825 -9.375 -1.125
-27.825 -12.075 0.975
-27.825 -12.075 1.875
-27.825 -9.375 0.375
-27.825 -9.375 -0.975
-31.275 -5.925 0.525
-27.825 -9.375 0.975
-30.825 -15.375 0.975
-27.825 -12.075 -1.875
-33.225 -15.675 1.275
-28.875 -7.425 3.075
-28.875 -7.425 2.025
-28.875 -7.425 0.525
-28.875 -14.025 -0.375
-28.875 -14.025 0.375
-27.675 -11.475 1.425
-27.675 -9.975 2.475
-27.675 -9.975 1.875
-27.675 -9.975 2.625
-27.675 -11.475 3.525
-33.375 -15.675 2.025
-28.725 -7.575 0.675
-28.725 -7.575 0.225
-29.475 -6.825 0.675
-28.725 -13.875 -0.225
-27.825 -12.225 -2.025
-27.825 -9.225 0.825
-27.825 -12.225 0.075
-27.675 -11.625 4.125
-27.675 -11.625 1.725
-27.675 -9.825 -2.175
-27.675 -9.825 1.875
-28.125 -8.475 0.675
-28.125 -12.975 -0.225
-29.625 -6.675 2.925
-29.625 -6.675 -1.425
-28.575 -7.725 0.525
-28.575 -7.725 1.575
-29.625 -14.775 6.225
-28.575 -7.725 4.875
-28.575 -13.725 1.125
-27.975 -12.675 0.225
-27.975 -12.675 0.075
-30.675 -15.375 0.375
-28.275 -13.275 1.725
-28.275 -13.275 -0.225
-27.675 -9.675 2.625
-31.575 -5.775 2.025
-27.675 -11.775 2.175
-28.425 -7.875 5.175
-29.775 -6.525 2.025
-29.775 -6.525 2.475
-27.825 -9.075 0.075
-27.825 -9.075 -0.525
-27.825 -9.075 0.975
-27.675 -9.525 0.675
-27.675 -9.525 0.825
-27.675 -11.925 -0.225
-27.675 -11.925 2.175
-28.875 -7.275 -6.225
-28.125 -8.325 -0.975
-28.125 -8.325 -1.725
-28.125 -8.325 0.675
-28.125 -13.125 -0.375
-27.525 -10.725 2.175
-27.975 -8.625 -0.225
-27.975 -8.625 -0.825
-27.975 -8.625 0.675
-28.725 -14.025 -1.875
-29.325 -14.625 -0.375
-27.525 -11.025 -0.375
-27.525 -10.425 0.375
-27.525 -11.025 0.225
-27.525 -10.425 0.975
-27.525 -11.025 -0.225
-29.925 -6.375 6.675
-33.075 -15.825 2.175
-27.525 -10.275 0.375
-27.525 -11.175 -2.175
-27.525 -11.175 -0.225
-28.275 -13.425 1.725
-27.825 -12.525 -0.075
-30.825 -15.525 -1.125
-27.675 -9.375 0.825
-27.675 -12.075 1.725
-27.675 -12.075 1.275
-27.675 -12.075 -0.225
-27.675 -9.375 0.975
-31.275 -5.775 0.375
-28.575 -7.575 -0.075
-28.575 -13.875 -0.375
-31.275 -15.675 0.675
-27.525 -11.325 2.475
-27.525 -11.325 -2.325
-27.525 -11.325 2.325
-27.525 -10.125 -6.375
-27.525 -11.325 -2.175
-27.525 -9.975 -3.075
-27.525 -11.475 1.275
-27.525 -11.475 0.675
-27.525 -9.975 1.425
-29.625 -6.525 -1.125
-28.425 -13.725 0.825
-28.425 -13.725 0.975
-29.625 -6.525 2.775
-27.975 -8.475 0.675
-27.975 -8.475 0.975
-27.975 -8.475 0.075
-30.375 -6.075 -3.525
-28.125 -8.175 0.075
-31.125 -5.775 -0.825
-27.675 -9.225 0.225
-27.675 -12.225 1.275
-28.125 -8.175 0.975
-28.125 -13.275 1.875
-31.125 -15.675 0.525
-31.725 -5.625 1.725
-31.725 -5.625 2.175
-27.525 -11.625 1.125
-27.525 -9.825 2.775
-27.525 -11.625 2.025
-27.525 -11.625 1.425
-27.525 -9.825 -2.325
-27.825 -8.775 0.675
-29.025 -14.475 -0.525
-29.775 -15.075 1.425
-28.275 -7.875 3.975
-29.175 -6.825 0.375
-28.725 -14.175 0.225
-31.575 -5.625 -0.225
-31.575 -5.625 2.175
-27.525 -9.675 -3.975
-27.525 -11.775 -2.475
-27.525 -11.775 1.725
-27.675 -9.075 0.825
-27.675 -9.075 0.075
-27.675 -9.075 -1.425
-27.675 -12.375 -0.075
-27.675 -12.375 -0.975
-27.675 -12.375 1.275
-28.575 -7.425 0.675
-28.575 -7.425 0.075
-27.975 -8.325 0.375
-27.975 -8.325 -1.125
-27.975 -8.325 0.075
-27.975 -8.325 0.675
-31.425 -15.825 0.225
-31.425 -5.625 -0.075
-27.825 -8.625 3.675
-27.825 -8.625 2.325
-27.825 -8.625 0.675
-27.825 -8.625 -0.975
-27.825 -12.825 0.975
-27.525 -9.525 2.025
-27.525 -9.525 1.425
-27.525 -11.925 1.275
-28.125 -8.025 0.225
-28.125 -8.025 0.375
-28.125 -8.025 1.125
-28.125 -13.425 -2.325
-29.475 -6.525 2.475
-29.475 -6.525 2.925
-29.475 -6.525 2.775
-28.425 -7.575 -0.975
-28.425 -7.575 0.375
-28.425 -13.875 -0.375
-27.375 -10.875 -1.275
-27.375 -10.875 -1.125
-27.375 -10.575 -0.975
-27.675 -8.925 0.825
-27.675 -8.925 0.975
-27.675 -12.525 -0.975
-30.825 -15.675 0.225
-27.375 -11.175 -2.325
-31.275 -5.625 2.925
-27.525 -12.075 -0.825
-27.375 -11.325 -0.075
-30.375 -5.925 1.875
-27.825 -12.975 0.975
-27.975 -8.175 1.125
-27.975 -8.175 -0.825
-27.975 -8.175 0.075
-27.975 -8.175 0.375
-27.375 -11.475 -0.075
-27.375 -11.475 -2.325
-28.875 -6.975 5.925
-28.875 -6.975 -3.225
-27.375 -9.975 0.675
-27.375 -9.975 1.275
-29.025 -6.825 1.425
-31.125 -15.825 1.125
-31.125 -15.825 0.375
-27.525 -9.225 2.025
-27.525 -12.225 -0.525
-27.525 -12.225 0.375
-27.525 -12.225 0.225
-27.525 -12.225 1.425
-27.525 -12.225 -0.225
-29.175 -6.675 -3.525
-27.675 -12.675 -1.125
-28.575 -7.275 0.675
-28.575 -7.275 -6.525
-28.575 -14.175 0.075
-31.725 -5.475 0.075
-31.725 -5.475 0.675
-28.125 -7.875 0.375
-28.125 -7.875 0.525
-27.375 -11.625 0.825
-27.375 -9.825 1.275
-27.375 -9.825 1.425
-27.375 -11.625 0.225
-27.375 -11.625 0.525
-27.375 -11.625 -1.425
-29.775 -15.225 1.275
-28.425 -7.425 -0.075
-28.425 -7.425 0.375
-29.325 -6.525 2.475
-27.375 -9.675 -2.175
-31.575 -5.475 -0.225
-31.575 -5.475 0.375
-27.375 -11.775 0.375
-30.975 -5.625 -0.225
-30.975 -15.825 0.075
-27.525 -9.075 2.625
-27.525 -12.375 -0.225
-27.525 -12.375 2.025
-27.825 -13.125 -1.125
-27.825 -8.325 2.475
-29.475 -15.075 1.125
-29.475 -15.075 1.425
-29.475 -15.075 0.825
-29.475 -6.375 0.375
-29.475 -6.375 2.325
-29.475 -6.375 1.275
-28.275 -7.575 0.975
-28.275 -13.875 -0.075
-27.975 -8.025 -0.075
-27.975 -8.025 0.075
-27.975 -8.025 0.225
-27.675 -8.625 -0.375
-27.975 -13.425 -2.325
-27.975 -13.425 1.575
-27.675 -8.625 2.175
-27.675 -12.825 -1.125
-30.525 -5.775 1.575
-31.425 -5.475 2.625
-27.375 -9.525 -2.175
-27.375 -11.925 1.275
-27.225 -10.725 1.125
-27.225 -10.725 -2.925
-27.225 -10.725 1.425
-27.225 -10.575 -1.575
-27.225 -10.575 1.125
-27.225 -10.425 1.275
-27.225 -11.025 0.525
-27.225 -10.425 -1.875
-32.325 -5.325 -0.675
-28.125 -13.725 0.975
-28.125 -7.725 0.375
-28.125 -13.725 1.125
-27.525 -8.925 -5.925
-27.525 -8.925 -4.575
-27.525 -8.925 -0.825
-27.525 -8.925 2.475
-27.525 -12.525 1.125
-28.725 -6.975 4.125
-27.225 -11.175 0.525
-27.225 -10.275 1.575
-27.225 -11.175 -1.275
-28.575 -7.125 2.475
-28.575 -7.125 0.675
-29.025 -6.675 1.275
-27.375 -9.375 1.425
-31.275 -5.475 2.475
-31.275 -15.975 0.225
-27.225 -11.325 -2.325
-27.225 -10.125 1.125
-32.025 -5.325 2.175
-28.425 -7.275 -0.225
-28.425 -14.175 -0.075
-27.825 -8.175 2.475
-27.825 -8.175 0.075
-30.075 -5.925 -0.225
-27.675 -8.475 -3.375
-27.225 -11.475 -2.475
-27.225 -11.475 -2.625
-27.225 -11.475 -2.175
-27.225 -9.975 0.075
-27.225 -9.975 -0.075
-27.225 -9.975 1.425
-27.975 -13.575 1.425
-27.975 -7.875 -0.225
-27.975 -7.875 -0.075
-29.775 -6.075 0.075
-30.675 -5.625 -3.225
-30.675 -15.825 1.875
-27.375 -9.225 0.075
-27.375 -9.225 1.425
-27.375 -9.225 0.225
-27.375 -9.225 -8.175
-29.325 -6.375 -4.425
-28.275 -7.425 -0.975
-28.275 -7.425 1.875
-28.275 -14.025 1.425
-28.275 -14.025 -2.625
-27.225 -9.825 0.675
-27.225 -9.825 -3.825
-27.225 -9.825 1.125
-27.225 -11.625 -2.475
-27.225 -11.625 -0.075
-27.225 -11.625 0.825
-31.725 -5.325 1.425
-31.725 -5.325 0.525
-28.125 -7.575 1.575
-28.125 -7.575 2.025
-28.125 -7.575 -5.325
-28.125 -7.575 0.225
-28.125 -7.575 0.825
-27.225 -9.675 1.125
-27.225 -9.675 1.275
-27.225 -11.775 -1.725
-27.225 -11.775 -2.175
-27.225 -11.775 -0.975
-27.675 -13.125 -1.125
-31.575 -5.325 -0.075
-31.575 -5.325 0.975
-27.675 -8.325 -4.575
-30.975 -15.975 -0.075
-27.375 -9.075 1.425
-27.375 -12.375 1.425
-29.925 -5.925 0.525
-29.925 -5.925 1.875
-27.825 -8.025 -2.925
-27.825 -8.025 -0.075
-27.825 -8.025 0.375
-28.725 -6.825 4.725
-30.525 -5.625 1.425
-27.525 -8.625 -0.525
-27.525 -8.625 0.075
-27.525 -8.625 0.225
-27.525 -8.625 -0.675
-27.525 -8.625 -5.475
-27.525 -8.625 0.375
-28.875 -6.675 -5.025
-28.875 -6.675 0.675
-28.875 -14.775 0.375
-28.875 -14.775 0.825
-28.575 -6.975 2.475
-27.225 -11.925 0.375
-31.425 -5.325 2.475
-31.425 -5.325 -0.525
-31.425 -5.325 2.175
-28.425 -7.125 -0.375
-28.425 -7.125 0.225
-29.025 -6.525 1.125
-29.025 -6.525 3.375
-29.025 -14.925 -0.075
-27.975 -13.725 -1.275
-27.975 -13.725 0.675
-27.975 -7.725 -7.275
-27.975 -7.725 1.875
-27.975 -7.725 1.275
-27.975 -7.725 0.825
-29.625 -6.075 0.375
-29.625 -6.075 -0.075
-27.375 -8.925 0.825
-30.825 -5.475 -0.375
-30.825 -15.975 0.525
-27.375 -12.525 -6.525
-27.075 -10.725 1.125
-27.075 -10.575 0.975
-27.075 -10.575 -0.075
-27.075 -10.575 1.425
-27.075 -10.575 -1.275
-27.075 -10.575 -1.875
-27.075 -10.575 -2.025
-27.075 -10.575 0.075
-27.075 -10.575 -3.525
-27.075 -10.875 1.275
-27.075 -10.875 -8.625
-28.275 -7.275 0.525
-28.275 -7.275 0.825
-28.275 -7.275 -6.825
-28.275 -14.175 -2.175
-32.925 -16.275 2.175
-27.075 -10.425 1.425
-27.075 -10.425 -0.525
-27.075 -10.425 0.825
-27.075 -10.425 0.975
-27.225 -12.075 -0.075
-31.275 -5.325 2.925
-27.675 -8.175 -0.675
-27.675 -8.175 1.875
-27.675 -13.275 0.675
-30.075 -5.775 0.075
-27.075 -10.275 0.975
-27.075 -11.175 1.575
-30.075 -15.675 -4.125
-27.525 -8.475 2.775
-27.525 -8.475 -0.675
-27.525 -12.975 -3.075
-28.125 -7.425 4.725
-28.125 -7.425 1.125
-28.125 -7.425 2.025
-28.125 -7.425 1.275
-28.125 -14.025 0.825
-27.825 -13.575 1.725
-27.825 -7.875 2.175
-29.775 -5.925 0.225
-27.075 -10.125 1.725
-27.075 -10.125 1.125
-27.075 -10.125 1.575
-27.075 -11.325 1.575
-27.075 -11.325 -2.325
-27.075 -11.325 -0.375
-31.875 -5.175 0.375
-27.375 -8.775 1.425
-27.075 -9.975 -0.375
-27.075 -9.975 -3.675
-27.075 -11.475 -2.325
-27.225 -9.225 -2.025
-27.225 -9.225 -0.225
-27.225 -9.225 -0.075
-31.125 -5.325 -0.075
-31.125 -16.125 0.375
-27.975 -7.575 0.075
-27.975 -7.575 0.225
-27.975 -7.575 1.425
-27.975 -7.575 0.975
-27.975 -7.575 0.825
-27.975 -7.575 1.275
-33.525 -16.275 1.575
-28.725 -6.675 1.875
-28.725 -6.675 -0.675
-28.725 -6.675 -6.075
-28.725 -6.675 2.025
-31.725 -5.175 2.625
-28.725 -14.775 -0.375
-28.575 -6.825 -5.175
-27.075 -11.625 -0.825
-27.075 -9.825 -0.525
-27.075 -11.625 -2.175
-27.075 -11.625 -0.675
-28.575 -14.625 0.375
-28.425 -14.475 -2.175
-28.425 -14.475 -1.875
-28.425 -14.475 -1.725
-28.425 -14.475 -1.575
-28.425 -14.475 -3.975
-28.425 -6.975 1.425
-28.875 -6.525 0.675
-28.875 -14.925 0.075
-27.525 -13.125 -1.275
-27.525 -13.125 1.125
-29.925 -5.775 0.375
-27.675 -8.025 2.025
-27.675 -8.025 0.675
-27.675 -8.025 0.075
-27.675 -8.025 0.225
-27.675 -13.425 0.975
-27.225 -9.075 -0.225
-27.225 -9.075 -0.375
-30.975 -5.325 -0.375
-30.975 -16.125 0.375
-29.025 -15.075 -0.075
-28.275 -7.125 0.375
-28.275 -7.125 0.075
-28.275 -14.325 -0.525
-33.675 -16.275 1.125
-31.575 -5.175 0.525
-31.575 -5.175 2.325
-31.575 -5.175 0.675
-31.575 -5.175 2.475
-27.075 -9.675 -3.675
-27.075 -9.675 0.975
-27.075 -11.775 0.975
-27.075 -11.775 0.375
-27.075 -11.775 -2.325
-27.375 -12.825 1.275
-30.525 -5.475 0.225
-30.525 -5.475 -0.225
-29.625 -5.925 0.225
-29.625 -5.925 0.075
-29.625 -5.925 0.975
-27.825 -7.725 -7.275
-27.825 -7.725 2.025
-28.125 -7.275 1.875
-28.125 -7.275 -1.425
-28.125 -7.275 0.075
-28.125 -7.275 -1.575
-33.825 -16.275 0.975
-31.425 -5.175 2.175
-27.075 -9.525 0.825
-27.075 -9.525 1.725
-27.075 -11.925 -0.975
-27.075 -11.925 -1.125
-27.225 -8.925 0.675
-27.225 -8.925 -4.125
-27.225 -12.525 1.425
-30.825 -5.325 -0.375
-26.925 -10.725 0.975
-26.925 -10.725 -2.025
-27.975 -7.425 1.425
-27.975 -7.425 0.825
-26.925 -10.575 -0.675
-26.925 -10.575 1.125
-26.925 -10.875 0.675
-30.075 -5.625 0.375
-29.325 -6.075 0.375
-30.075 -5.625 0.225
-27.525 -8.175 1.725
-27.525 -13.275 1.125
-26.925 -10.425 -0.375
-26.925 -10.425 -0.525
-26.925 -10.425 0.975
-26.925 -11.025 -2.025
-27.675 -7.875 2.925
-27.675 -7.875 2.025
-29.775 -5.775 0.675
-29.775 -5.775 0.075
-27.375 -8.475 -0.225
-27.075 -9.375 -1.575
-27.075 -12.075 -0.375
-27.075 -12.075 -0.675
-26.925 -10.275 0.825
-26.925 -11.175 -2.475
-28.575 -6.675 0.975
-28.575 -6.675 0.675
-28.575 -6.675 0.825
-28.575 -14.775 -0.225
-28.575 -14.775 0.225
-28.575 -14.775 -0.375
-28.575 -14.775 -0.075
-28.725 -6.525 0.975
-28.425 -6.825 -0.075
-28.725 -14.925 0.075
-26.925 -10.125 0.975
-26.925 -10.125 1.125
-26.925 -10.125 2.025
-26.925 -11.325 -0.375
-26.925 -11.325 0.825
-28.425 -14.625 -0.375
-28.425 -14.625 0.225
-27.225 -8.775 0.825
-30.675 -5.325 -0.525
-27.225 -12.675 1.275
-27.225 -12.675 -0.375
-29.475 -5.925 -0.525
-29.475 -15.525 3.975
-27.825 -7.575 1.725
-27.825 -7.575 1.125
-27.825 -7.575 1.575
-27.825 -7.575 2.025
-27.825 -13.875 -1.425
-28.875 -15.075 -0.075
-28.875 -6.375 0.675
-28.275 -6.975 0.225
-28.275 -6.975 0.525
-28.275 -6.975 2.475
-26.925 -9.975 -3.825
-26.925 -9.975 -0.375
-26.925 -9.975 -0.675
-26.925 -9.975 1.125
-26.925 -9.975 0.825
-31.875 -5.025 0.675
-26.925 -11.475 1.575
-26.925 -11.475 -2.475
-26.925 -11.475 -5.175
-27.075 -9.225 -0.225
-27.075 -9.225 1.425
-27.075 -9.225 -0.525
-27.075 -12.225 1.575
-28.125 -7.125 0.075
-28.125 -7.125 -1.425
-28.125 -7.125 -0.375
-28.125 -14.325 -0.975
-29.025 -15.225 -0.825
-31.725 -5.025 2.625
-31.725 -5.025 0.375
-31.725 -5.025 0.525
-26.925 -9.825 -0.375
-26.925 -9.825 0.075
-26.925 -9.825 0.825
-26.925 -9.825 1.425
-26.925 -9.825 -3.675
-26.925 -11.625 -0.825
-26.925 -11.625 -0.975
-26.925 -11.625 1.125
-26.925 -11.625 -2.175
-26.925 -11.625 -5.925
-29.925 -5.625 0.225
-29.925 -15.825 1.275
-27.525 -8.025 1.425
-27.525 -8.025 1.575
-27.525 -13.425 0.975
-30.225 -5.475 -4.125
-27.375 -8.325 1.125
-27.375 -13.125 -0.375
-29.625 -5.775 0.225
-29.625 -5.775 0.525
-27.675 -7.725 2.625
-27.675 -7.725 1.575
-27.975 -7.275 -1.425
-29.175 -6.075 1.425
-30.975 -5.175 3.075
-29.175 -15.375 -6.075
-27.075 -9.075 0.525
-27.225 -8.625 1.425
-31.575 -5.025 0.075
-31.575 -5.025 0.975
-26.925 -9.675 0.975
-26.925 -11.775 -2.025
-26.925 -11.775 -2.175
-31.425 -5.025 2.475
-31.425 -5.025 3.075
-26.925 -9.525 2.625
-26.925 -9.525 0.675
-26.925 -11.925 -0.225
-27.825 -7.425 -7.725
-27.825 -7.425 1.575
-27.825 -7.425 0.675
-27.825 -14.025 -0.975
-27.825 -14.025 -0.075
-28.425 -6.675 0.825
-27.075 -8.925 -3.975
-28.575 -6.525 0.375
-28.575 -6.525 -6.525
-28.575 -6.525 0.825
-28.575 -6.525 0.975
-28.425 -14.775 0.225
-28.425 -14.775 0.075
-27.075 -8.925 -4.275
-27.075 -12.525 -0.225
-28.575 -14.925 -1.875
-28.575 -14.925 0.075
-28.575 -14.925 0.225
-27.375 -13.275 -3.075
-27.375 -13.275 1.125
-30.075 -5.475 0.675
-28.725 -15.075 0.075
-28.725 -15.075 -4.425
-28.725 -15.075 0.525
-29.775 -5.625 0.825
-28.275 -6.825 0.375
-27.525 -7.875 2.325
-27.525 -7.875 -1.575
-27.525 -7.875 -7.575
-27.225 -8.475 -0.075
-27.225 -8.475 1.125
-26.775 -10.725 -0.375
-32.775 -4.875 -2.475
-26.775 -10.575 -0.375
-26.775 -10.875 -5.325
-26.925 -9.375 0.975
-26.925 -9.375 -0.075
-26.925 -9.375 -0.225
-26.925 -12.075 1.425
-26.925 -12.075 0.225
-26.925 -12.075 -0.975
-26.925 -12.075 -0.225
-28.125 -6.975 0.225
-28.125 -6.975 -6.825
-28.125 -6.975 0.075
-28.875 -6.225 4.425
-26.775 -10.425 1.125
-26.775 -10.425 0.525
-26.775 -10.425 -4.275
-26.775 -11.025 1.575
-29.475 -5.775 0.375
-27.675 -7.575 0.525
-27.675 -7.575 1.725
-27.675 -7.575 1.125
-32.175 -4.875 2.325
-33.075 -16.575 2.175
-26.775 -10.275 -8.625
-26.775 -10.275 -0.975
-26.775 -11.175 -2.025
-26.775 -11.175 0.225
-27.975 -7.125 0.075
-27.975 -7.125 0.825
-27.975 -7.125 -0.375
-27.975 -14.325 -4.725
-29.025 -6.075 2.025
-26.775 -10.125 -0.375
-26.775 -11.325 -0.225
-26.775 -11.325 -2.025
-26.775 -11.325 0.825
-26.775 -11.325 2.025
-26.775 -11.325 -1.725
-27.075 -8.775 1.425
-27.075 -12.675 -0.225
-26.925 -12.225 -0.225
-26.775 -11.475 0.675
-26.775 -11.475 -2.025
-29.925 -5.475 0.525
-27.375 -13.425 -3.075
-27.375 -13.425 -0.375
-27.375 -13.425 -0.225
-27.375 -13.425 0.075
-27.225 -13.125 1.125
-27.225 -13.125 1.575
-27.225 -13.125 0.975
-29.175 -15.525 -0.075
-27.825 -7.275 1.725
-27.825 -7.275 1.575
-27.825 -7.275 1.125
-27.825 -7.275 0.375
-29.625 -5.625 -4.725
-29.625 -5.625 -0.075
-29.625 -5.625 1.275
-27.525 -7.725 1.125
-33.525 -16.575 1.125
-26.775 -9.825 1.125
-26.775 -9.825 -4.575
-26.775 -11.625 1.575
-26.775 -11.625 -0.825
-26.925 -9.075 1.575
-26.925 -9.075 -4.575
-26.925 -9.075 0.525
-26.925 -12.375 -0.225
-26.925 -12.375 -0.525
-30.525 -5.175 0.375
-30.525 -5.175 0.225
-27.075 -12.825 0.525
-27.075 -12.825 -1.275
-27.075 -8.625 0.075
-27.075 -8.625 1.725
-28.425 -14.925 -0.075
-33.675 -16.575 1.275
-28.575 -6.375 0.075
-28.575 -6.375 0.975
-28.575 -15.075 0.375
-28.575 -15.075 -0.075
-28.575 -15.075 0.075
-28.275 -6.675 -0.075
-26.775 -9.675 1.275
-26.775 -9.675 -2.025
-26.775 -11.775 1.875
-28.275 -14.775 -1.275
-27.675 -7.425 1.275
-27.675 -7.425 1.125
-29.325 -5.775 0.675
-29.325 -5.775 -3.975
-27.675 -14.025 1.575
-27.675 -14.025 0.675
-28.725 -6.225 4.575
-28.725 -15.225 -0.075
-27.225 -8.175 -5.325
-31.425 -4.875 1.275
-30.075 -5.325 0.075
-26.775 -9.525 -0.975
-26.775 -9.525 -1.425
-26.775 -11.925 1.425
-26.775 -11.925 -0.075
-26.775 -11.925 -0.975
-27.975 -6.975 1.425
-27.975 -6.975 -6.975
-27.975 -6.975 0.075
-27.975 -6.975 -0.375
-28.875 -6.075 4.575
-28.875 -15.375 0.075
-28.875 -15.375 0.825
-29.775 -5.475 0.525
-29.775 -5.475 -0.825
-29.775 -15.975 1.125
-26.925 -8.925 1.425
-26.925 -12.525 -0.675
-27.075 -8.475 0.075
-27.075 -8.475 -0.375
-27.075 -12.975 0.975
-27.075 -12.975 0.825
-29.475 -5.625 1.875
-27.525 -7.575 0.375
-27.525 -7.575 2.625
-27.525 -7.575 0.975
-27.825 -7.125 2.775
-27.825 -7.125 -8.475
-26.625 -10.725 1.575
-26.625 -10.725 -0.075
-27.825 -14.325 0.225
-29.025 -15.525 -2.025
-29.025 -15.525 -0.075
-26.625 -10.875 0.075
-26.625 -10.575 0.525
-26.625 -10.425 0.825
-26.625 -10.425 1.425
-26.625 -11.175 -1.725
-26.625 -10.275 0.675
-26.625 -10.275 -4.125
-26.625 -10.275 -1.725
-26.625 -10.275 1.575
-26.925 -12.675 -0.075
-26.625 -11.325 2.925
-26.625 -11.325 -2.925
-32.025 -4.725 0.375
-26.625 -10.125 -4.125
-27.675 -14.175 1.575
-27.675 -14.175 -5.175
-27.225 -13.425 -0.375
-27.225 -13.425 -0.975
-27.225 -13.425 1.125
-29.925 -5.325 -0.225
-29.925 -5.325 0.225
-26.775 -12.225 1.425
-26.775 -12.225 0.075
-26.775 -9.225 -4.275
-26.775 -9.225 0.525
-28.425 -15.075 -0.075
-26.625 -11.475 1.425
-26.625 -11.475 -4.575
-26.625 -11.475 1.575
-26.625 -11.475 -0.675
-29.625 -5.475 -0.225
-29.625 -5.475 0.225
-29.625 -5.475 0.675
-26.625 -9.975 -2.025
-26.625 -9.975 1.725
-26.625 -9.975 1.425
-27.375 -13.725 -5.025
-28.275 -6.525 0.975
-28.125 -6.675 -0.375
-28.125 -6.675 0.375
-28.575 -15.225 0.225
-28.125 -14.775 0.825
-26.625 -9.825 0.525
-26.625 -9.825 -3.975
-26.625 -11.625 1.275
-26.625 -11.625 -5.775
-28.725 -6.075 -1.725
-27.975 -6.825 -0.075
-27.975 -6.825 0.075
-27.975 -6.825 0.675
-27.975 -6.825 0.225
-28.725 -15.375 0.225
-28.725 -15.375 0.675
-27.975 -14.625 -2.175
-26.925 -8.625 -5.175
-26.925 -8.625 0.075
-26.925 -12.825 -0.225
-29.325 -5.625 0.525
-27.525 -7.425 0.975
-27.525 -14.025 0.975
-26.775 -9.075 1.425
-26.625 -9.675 -2.625
-26.625 -11.775 -3.825
-31.575 -4.725 1.725
-28.875 -5.925 0.375
-28.875 -15.525 -0.075
-27.825 -14.475 0.375
-27.225 -7.875 2.475
-27.225 -7.875 -1.275
-27.225 -13.575 1.275
-29.775 -5.325 -0.525
-29.775 -5.325 -0.075
-29.775 -5.325 1.875
-29.775 -5.325 0.525
-29.775 -5.325 1.275
-29.775 -5.325 0.075
-29.775 -5.325 0.825
-30.075 -5.175 0.375
-27.075 -13.275 1.125
-27.075 -13.275 -4.275
-27.075 -13.275 0.375
-26.625 -9.525 0.975
-31.425 -4.725 2.925
-26.625 -11.925 1.125
-27.675 -7.125 0.375
-29.025 -5.775 2.325
-26.775 -8.925 0.675
-26.775 -8.925 -2.625
-26.775 -8.925 -4.425
-26.775 -12.525 1.425
-29.475 -5.475 2.175
-29.475 -5.475 0.075
-29.475 -5.475 0.375
-29.475 -15.975 -0.075
-27.375 -7.575 1.275
-30.375 -5.025 -0.825
-26.925 -12.975 1.125
-26.475 -10.725 0.675
-26.475 -10.725 1.425
-26.625 -9.375 -0.525
-26.625 -9.375 -0.975
-26.625 -9.375 1.125
-26.625 -9.375 1.275
-26.475 -10.575 1.275
-26.475 -10.575 1.575
-26.475 -10.875 -5.625
-26.475 -10.875 -0.675
-26.475 -10.875 -2.625
-32.475 -4.575 1.125
-32.775 -4.575 2.625
-28.275 -6.375 1.875
-28.275 -6.375 -0.375
-28.275 -6.375 0.525
-28.275 -15.075 0.825
-28.275 -15.075 -1.275
-28.125 -6.525 0.225
-28.125 -6.525 0.825
-28.125 -6.525 0.975
-28.425 -6.225 -0.525
-28.425 -6.225 -3.825
-28.425 -15.225 0.825
-28.425 -15.225 0.975
-28.425 -15.225 1.725
-26.475 -10.425 1.575
-26.475 -11.025 -0.825
-29.175 -5.625 -3.225
-29.175 -5.625 0.525
-27.525 -14.175 0.075
-26.475 -10.275 1.275
-26.475 -10.275 -3.075
-26.475 -10.275 -1.575
-26.475 -10.275 0.825
-27.975 -6.675 1.125
-32.175 -4.575 2.625
-28.575 -6.075 0.075
-28.575 -15.375 -0.375
-28.575 -15.375 0.975
-28.575 -15.375 -0.225
-26.775 -8.775 0.375
-29.925 -5.175 -0.375
-29.925 -5.175 0.225
-27.075 -8.025 -5.925
-27.075 -8.025 -1.125
-27.075 -8.025 -0.825
-27.075 -13.425 0.225
-27.075 -13.425 -0.375
-27.225 -7.725 2.775
-29.625 -5.325 0.375
-29.625 -5.325 0.825
-29.625 -5.325 1.125
-29.625 -5.325 0.225
-29.625 -5.325 -0.975
-26.475 -10.125 -0.525
-26.475 -10.125 0.675
-26.475 -11.325 1.875
-26.475 -11.325 -1.275
-32.025 -4.575 2.325
-28.725 -5.925 -0.975
-30.225 -5.025 0.075
-28.725 -15.525 0.525
-28.725 -15.525 -0.075
-27.825 -6.825 1.425
-27.825 -6.825 0.075
-27.825 -6.825 0.375
-26.625 -9.225 0.525
-26.625 -12.225 -1.425
-26.625 -12.225 -1.575
-26.625 -12.225 0.825
-27.825 -6.825 0.525
-26.925 -13.125 -6.225
-26.475 -11.475 -0.975
-26.475 -11.475 0.975
-26.475 -11.475 -2.475
-26.475 -11.475 -2.025
-26.475 -9.975 0.225
-26.475 -9.975 -2.025
-26.475 -9.975 -2.175
-29.325 -5.475 1.275
-27.375 -7.425 -0.075
-27.375 -14.025 0.075
-27.675 -6.975 2.175
-27.675 -6.975 0.525
-27.675 -14.475 0.375
-28.875 -15.675 0.075
-26.475 -11.625 0.675
-26.475 -9.825 -0.375
-30.525 -4.875 1.125
-26.775 -12.825 1.275
-26.625 -9.075 -3.975
-26.625 -9.075 -2.325
-26.625 -9.075 1.425
-26.475 -11.775 -0.825
-26.475 -11.775 2.475
-26.475 -11.775 2.025
-26.475 -9.675 -2.475
-29.775 -5.175 1.875
-29.775 -5.175 0.825
-29.775 -5.175 0.375
-29.775 -5.175 -0.075
-27.075 -7.875 -1.425
-27.075 -7.875 0.525
-29.025 -5.625 1.725
-26.925 -13.275 0.825
-30.075 -5.025 0.525
-30.075 -5.025 0.375
-29.475 -5.325 1.275
-29.475 -5.325 -6.825
-29.475 -5.325 0.525
-27.225 -7.575 -3.375
-27.225 -7.575 0.075
-29.475 -16.125 1.725
-28.125 -6.375 0.525
-28.125 -6.375 -0.975
-28.125 -15.075 0.825
-28.125 -15.075 0.525
-28.125 -15.075 0.975
-28.125 -15.075 1.275
-26.625 -8.925 -0.225
-26.625 -8.925 -0.375
-26.625 -8.925 -2.775
-26.625 -8.925 0.225
-26.625 -12.525 1.125
-27.975 -6.525 0.225
-27.975 -6.525 1.425
-27.975 -6.525 0.975
-27.975 -6.525 0.525
-26.475 -11.925 1.125
-28.425 -6.075 0.225
-28.425 -6.075 0.975
-26.475 -11.925 2.325
-27.975 -14.925 0.825
-30.375 -4.875 -0.375
-30.375 -4.875 -0.825
-26.775 -8.475 0.975
-26.775 -8.475 1.275
-26.775 -12.975 -0.675
-27.825 -6.675 0.525
-27.825 -6.675 0.675
-27.825 -6.675 1.425
-28.575 -15.525 0.825
-28.575 -15.525 0.075
-28.575 -15.525 0.675
-27.825 -14.775 -1.575
-27.825 -14.775 1.875
-29.175 -5.475 1.125
-29.175 -5.475 0.375
-29.175 -5.475 2.325
-29.175 -5.475 1.725
-29.175 -5.475 1.275
-26.475 -12.075 -1.575
-26.475 -12.075 1.275
-26.475 -12.075 -1.425
-26.475 -9.375 1.575
-26.475 -9.375 0.375
-26.325 -10.725 2.325
-26.325 -10.725 3.675
-26.325 -10.725 1.425
-26.325 -10.725 -2.775
-28.725 -5.775 -1.125
-28.725 -5.775 2.775
-28.725 -5.775 -0.375
-27.675 -6.825 0.525
-27.675 -6.825 0.225
-27.675 -6.825 0.975
-28.725 -15.675 -0.075
-28.725 -15.675 -4.725
-28.725 -15.675 0.075
-32.475 -4.425 -0.525
-27.675 -14.625 0.375
-27.675 -14.625 0.825
-26.325 -10.875 -2.775
-26.325 -10.875 -2.175
-26.325 -10.575 0.375
-29.925 -5.025 2.175
-29.925 -5.025 2.025
-29.925 -5.025 0.375
-29.925 -5.025 0.225
-29.925 -5.025 0.825
-29.925 -5.025 -0.075
-26.925 -8.025 -5.325
-26.925 -13.425 -0.225
-26.925 -13.425 0.975
-26.925 -13.425 0.825
-26.925 -13.425 0.375
-26.325 -10.425 -1.875
-26.325 -11.025 -0.975
-26.325 -11.025 -2.775
-26.625 -8.775 1.575
-26.625 -8.775 0.975
-26.625 -8.775 2.325
-29.625 -5.175 1.575
-29.625 -5.175 0.975
-29.625 -5.175 1.425
-26.625 -12.675 1.425
-27.075 -7.725 2.775
-27.075 -7.725 -1.575
-26.325 -11.175 -2.175
-26.325 -11.175 1.875
-26.325 -10.275 -1.425
-26.325 -10.275 -2.925
-26.325 -10.275 -2.325
-30.225 -4.875 -0.675
-30.225 -4.875 0.225
-30.225 -4.875 0.525
-30.225 -4.875 0.375
-30.225 -4.875 -0.375
-26.775 -8.325 -5.325
-26.775 -8.325 0.375
-27.225 -7.425 0.075
-27.225 -14.025 -0.375
-29.325 -5.325 0.375
-26.325 -10.125 -2.925
-26.325 -11.325 2.325
-26.325 -11.325 1.125
-26.325 -11.325 -2.325
-26.475 -9.225 1.125
-26.475 -9.225 1.425
-26.475 -9.225 1.575
-26.475 -12.225 -5.775
-31.125 -4.575 1.425
-28.875 -5.625 0.675
-28.875 -5.625 -0.975
-27.525 -6.975 0.525
-27.525 -6.975 2.175
-27.525 -14.475 0.075
-26.325 -11.475 -3.525
-26.325 -11.475 1.875
-26.325 -11.475 1.725
-26.625 -12.825 -0.225
-26.625 -12.825 -0.075
-28.125 -15.225 1.125
-28.125 -6.225 -0.075
-28.125 -6.225 0.675
-28.125 -15.225 0.825
-28.125 -15.225 -1.575
-28.125 -15.225 -1.125
-26.325 -11.625 2.025
-26.325 -11.625 -1.275
-26.325 -11.625 -7.125
-26.325 -11.625 0.975
-26.325 -11.625 2.775
-26.325 -9.825 1.725
-26.325 -9.825 -2.025
-27.375 -7.125 -5.025
-27.375 -14.325 2.025
-26.475 -9.075 1.275
-26.475 -9.075 1.125
-26.475 -9.075 -0.225
-27.975 -15.075 1.125
-27.975 -15.075 -1.125
-27.975 -6.375 0.225
-27.975 -6.375 0.675
-27.975 -6.375 2.025
-28.275 -6.075 -3.675
-28.275 -15.375 2.025
-26.925 -7.875 -6.675
-26.925 -7.875 0.675
-26.925 -13.575 0.975
-26.925 -13.575 0.225
-26.925 -13.575 1.125
-29.775 -5.025 1.425
-29.775 -5.025 0.375
-29.775 -5.025 0.825
-29.775 -5.025 0.525
-29.775 -5.025 2.475
-29.775 -5.025 2.025
-28.425 -5.925 0.075
-28.425 -5.925 -2.175
-27.825 -6.525 0.675
-27.825 -6.525 0.225
-27.825 -6.525 -0.825
-27.825 -6.525 -5.475
-27.825 -14.925 1.875
-29.475 -16.275 1.725
-29.475 -5.175 -7.275
-29.475 -5.175 2.325
-29.475 -5.175 0.375
-29.475 -5.175 0.075
-30.075 -4.875 2.025
-30.075 -4.875 0.375
-30.075 -4.875 0.525
-30.075 -4.875 0.225
-27.075 -7.575 -0.225
-27.075 -7.575 0.225
-26.775 -8.175 -1.875
-27.075 -13.875 0.825
-27.075 -13.875 -2.925
-27.075 -13.875 -5.925
-26.775 -13.275 0.975
-26.775 -13.275 1.275
-31.575 -4.425 2.025
-26.325 -11.775 0.975
-26.325 -9.675 -2.775
-27.675 -6.675 0.975
-27.675 -6.675 0.525
-28.575 -5.775 -0.825
-28.575 -5.775 -0.075
-28.575 -5.775 2.175
-28.575 -5.775 -0.975
-28.575 -5.775 1.125
-27.675 -14.775 1.875
-28.575 -15.675 -0.075
-26.475 -8.925 -0.525
-27.225 -7.275 -1.275
-29.175 -5.325 -1.425
-29.175 -5.325 -4.125
-27.225 -14.175 -4.575
-27.225 -14.175 -0.375
-30.375 -4.725 0.975
-26.625 -12.975 -1.125
-26.325 -9.525 -3.825
-26.325 -11.925 -0.225
-28.725 -15.825 0.075
-28.725 -5.625 -0.225
-28.725 -5.625 -0.375
-28.725 -5.625 1.125
-27.525 -14.625 0.375
-27.525 -14.625 1.575
-27.525 -14.625 1.425
-26.925 -13.725 0.975
-26.925 -13.725 0.525
-26.925 -13.725 1.575
-29.625 -5.025 0.375
-26.925 -7.725 0.525
-29.625 -5.025 2.325
-29.625 -5.025 0.525
-29.625 -5.025 2.475
-29.625 -5.025 0.975
-29.625 -5.025 -0.075
-26.925 -13.725 1.125
-29.625 -5.025 0.825
-29.625 -16.425 1.875
-29.925 -4.875 -0.075
-29.925 -4.875 0.525
-26.325 -9.375 0.375
-26.325 -9.375 -3.375
-26.775 -8.025 -4.875
-26.775 -8.025 2.025
-26.775 -13.425 1.275
-26.775 -13.425 0.825
-26.775 -13.425 1.125
-26.175 -10.725 -2.625
-26.175 -10.725 1.275
-26.175 -10.725 2.025
-26.475 -8.775 -2.175
-30.675 -4.575 -0.225
-26.175 -10.575 -3.225
-26.175 -10.575 -1.125
-26.175 -10.575 1.275
-26.175 -10.875 -2.775
-26.175 -10.575 0.825
-28.875 -5.475 -0.375
-28.875 -5.475 2.175
-27.375 -6.975 1.425
-28.875 -5.475 0.825
-27.375 -14.475 1.425
-26.175 -10.425 1.425
-26.175 -10.425 -1.575
-26.175 -10.425 -1.275
-26.175 -11.025 -3.375
-29.325 -5.175 0.225
-29.325 -5.175 2.175
-27.075 -14.025 0.825
-27.075 -14.025 -4.875
-27.075 -7.425 -2.475
-27.075 -7.425 0.675
-30.225 -4.725 0.975
-30.225 -4.725 -0.225
-30.225 -4.725 0.225
-26.625 -13.125 1.125
-26.625 -8.325 0.975
-26.175 -10.275 -2.175
-26.175 -11.175 -2.175
-26.175 -11.175 -3.525
-33.075 -4.275 2.775
-26.175 -11.175 -1.425
-26.175 -10.275 -2.325
-26.175 -10.275 1.275
-27.975 -15.225 1.125
-27.975 -15.225 -1.275
-27.975 -6.225 0.825
-27.975 -6.225 0.975
-27.975 -6.225 -3.525
-28.125 -6.075 0.975
-28.125 -15.375 1.125
-31.125 -4.425 2.325
-31.125 -4.425 0.975
-26.325 -9.225 0.975
-26.325 -9.225 -3.825
-26.325 -12.225 0.975
-26.175 -10.125 -3.825
-26.175 -10.125 -1.425
-26.175 -11.325 2.175
-26.175 -11.325 -3.225
-26.175 -11.325 1.575
-26.175 -11.325 -0.075
-26.175 -11.325 -1.275
-26.175 -11.325 0.825
-26.175 -10.125 -3.375
-27.825 -6.375 -0.075
-27.825 -6.375 0.225
-27.825 -6.375 1.275
-28.275 -5.925 0.375
-27.225 -7.125 -3.525
-27.225 -14.325 0.825
-29.025 -5.325 0.225
-27.675 -6.525 0.525
-27.675 -6.525 1.125
-27.675 -6.525 0.375
-28.425 -5.775 -2.475
-28.425 -5.775 0.975
-28.425 -5.775 0.225
-27.675 -14.925 -4.125
-27.675 -14.925 1.275
-28.425 -15.675 1.125
-26.175 -11.475 0.975
-26.175 -11.475 1.275
-26.175 -11.475 -1.425
-26.175 -11.475 0.825
-26.475 -12.825 0.375
-30.525 -4.575 0.825
-30.525 -4.575 2.925
-29.775 -4.875 2.475
-29.775 -4.875 0.975
-29.775 -4.875 0.225
-29.775 -4.875 -0.225
-29.775 -4.875 2.325
-26.775 -13.575 0.975
-26.775 -7.875 -1.725
-26.775 -7.875 -3.075
