# .PCD v0.7 - Point Cloud Data file format
VERSION 0.7
FIELDS x y z
SIZE 4 4 4
TYPE F F F
COUNT 1 1 1
WIDTH 2048
HEIGHT 1
VIEWPOINT 0 0 0 1 0 0 0
POINTS 2048
DATA ascii
-12.525 -62.175 -1.725
-12.675 -61.875 -0.675
-12.675 -61.575 -0.225
-14.025 -63.375 0.675
-13.125 -60.525 1.125
-14.625 -63.375 0.975
-13.575 -60.375 0.375
-14.475 -63.825 0.825
-13.575 -60.225 -0.075
-14.175 -60.375 -0.075
-14.925 -63.525 1.425
-13.725 -60.075 -0.825
-13.875 -60.075 -0.075
-13.875 -60.075 -0.225
-15.075 -63.525 0.225
-13.125 -59.775 0.675
-15.375 -63.075 -3.675
-15.075 -63.825 1.575
-14.175 -64.725 -1.125
-15.225 -63.675 0.525
-15.375 -63.375 1.125
-15.525 -61.575 0.225
-13.575 -65.025 -0.675
-15.375 -63.525 0.375
-15.375 -63.525 -3.675
-15.675 -62.175 0.075
-15.675 -61.875 0.375
-15.675 -61.875 -0.225
-15.675 -61.875 -0.525
-15.525 -63.375 -4.125
-15.675 -61.725 0.675
-14.025 -65.025 -0.825
-14.625 -64.725 0.525
-15.825 -62.475 -0.525
-15.825 -62.625 -0.075
-15.825 -62.025 -0.375
-15.825 -62.775 -0.375
-15.675 -63.525 -3.225
-14.625 -64.875 0.675
-15.975 -62.325 -0.675
-15.975 -62.325 -0.375
-15.975 -62.325 0.675
-15.975 -62.775 0.825
-15.975 -62.925 0.525
-15.675 -60.825 -0.825
-15.975 -63.075 0.225
-15.975 -63.225 0.525
-15.675 -60.675 -1.125
-16.125 -62.025 0.225
-16.125 -61.875 0.075
-14.775 -65.025 -0.375
-15.825 -63.825 -3.825
-14.625 -65.175 0.675
-16.125 -63.075 -2.775
-16.125 -61.575 0.075
-16.275 -62.325 0.525
-13.875 -65.625 -0.675
-13.875 -59.025 1.575
-16.275 -62.775 0.975
-16.275 -61.875 -0.075
-13.725 -65.775 -0.525
-15.825 -64.275 -3.975
-16.275 -63.525 -3.375
-16.575 -62.475 0.675
-16.125 -64.125 0.375
-16.275 -63.825 0.675
-16.275 -63.975 0.225
-16.275 -63.975 1.125
-16.425 -63.675 -2.775
-16.125 -60.225 0.675
-16.575 -61.125 -0.525
-16.425 -63.975 -3.225
-15.975 -59.925 -0.525
-16.275 -60.375 2.475
-16.725 -63.075 1.125
-16.125 -60.075 0.075
-16.125 -60.075 -0.525
-16.725 -63.225 1.275
-15.525 -65.325 1.575
-16.725 -61.275 -0.375
-15.975 -59.775 -0.375
-16.875 -62.025 -0.225
-16.875 -62.025 -0.375
-16.725 -61.125 1.575
-16.725 -61.125 -0.225
-16.125 -59.925 -0.225
-16.875 -61.575 2.025
-16.725 -60.975 -0.375
-16.425 -64.425 1.125
-13.875 -58.275 1.575
-15.225 -58.875 0.825
-13.125 -58.125 0.525
-16.875 -63.525 1.575
-16.575 -60.375 -0.525
-14.475 -58.425 2.625
-16.575 -64.425 0.825
-16.575 -64.425 -3.525
-17.025 -63.375 1.425
-15.975 -65.325 -1.575
-16.725 -60.375 -0.525
-16.575 -60.075 1.125
-15.525 -58.875 -5.475
-16.725 -60.225 -0.525
-16.725 -60.225 -0.375
-13.875 -57.975 -0.075
-16.875 -60.375 -0.675
-15.525 -58.725 1.125
-12.975 -57.825 0.075
-17.325 -62.175 -2.775
-16.875 -60.225 -0.375
-16.875 -60.225 -0.525
-15.825 -58.875 -0.075
-16.425 -59.475 1.425
-16.425 -59.475 1.575
-13.875 -57.825 0.825
-14.775 -58.125 -0.375
-17.475 -62.625 -0.975
-17.475 -62.625 -2.775
-16.125 -65.625 -1.275
-16.275 -65.475 -1.725
-17.475 -63.075 -0.075
-17.475 -63.225 -0.675
-17.325 -60.825 -2.775
-13.875 -57.675 0.375
-15.975 -58.725 -0.975
-12.825 -57.525 -0.525
-17.625 -62.475 -0.975
-17.625 -62.475 -1.125
-17.475 -60.975 0.375
-17.625 -63.075 -0.825
-16.875 -59.625 -1.575
-16.875 -59.625 -1.125
-16.275 -58.875 0.075
-17.625 -63.375 -1.575
-17.025 -59.775 -1.125
-16.725 -59.325 -0.975
-17.625 -61.125 -0.825
-17.775 -62.175 -0.375
-17.775 -62.625 0.075
-17.775 -62.625 -0.975
-17.775 -62.025 -0.525
-17.775 -62.775 -0.075
-16.275 -58.725 -0.525
-17.475 -64.125 -0.075
-14.625 -57.675 -0.675
-15.525 -66.525 1.125
-17.775 -63.075 -0.975
-16.725 -59.175 -0.375
-16.725 -59.175 -2.625
-15.825 -58.275 -1.125
-17.475 -60.375 -0.675
-17.775 -63.375 0.075
-17.775 -63.375 -0.075
-17.625 -63.975 0.825
-17.025 -59.475 -2.925
-15.675 -58.125 -0.225
-16.425 -58.725 -0.375
-17.775 -63.525 -0.225
-17.775 -63.525 -0.675
-16.275 -58.575 -0.375
-16.575 -58.875 0.375
-17.325 -64.725 -0.525
-17.925 -62.325 -1.425
-17.925 -62.325 -0.825
-17.925 -62.475 -0.225
-17.925 -62.175 -0.675
-17.475 -60.225 -0.675
-12.525 -57.225 -0.075
-17.925 -62.025 -0.375
-16.125 -58.425 -0.225
-17.925 -62.775 -0.825
-17.925 -61.875 -0.825
-17.625 -60.525 -0.675
-17.775 -63.675 -0.675
-17.775 -60.975 -0.825
-16.875 -59.175 4.125
-17.925 -63.075 -4.875
-17.925 -63.075 -4.725
-17.925 -63.075 -0.975
-17.925 -63.075 -0.225
-15.825 -58.125 -0.225
-17.775 -63.825 -0.825
-15.375 -57.825 -6.825
-17.925 -63.225 -5.175
-17.925 -63.225 -0.075
-17.925 -63.225 -0.225
-17.925 -61.425 -0.225
-17.625 -64.275 -0.675
-14.775 -57.525 0.675
-16.575 -65.925 -2.925
-16.425 -58.575 -0.525
-16.575 -58.725 -0.375
-16.425 -66.075 -3.225
-16.575 -58.725 -0.525
-15.675 -57.975 -0.675
-17.925 -63.375 -0.225
-17.925 -61.275 -0.075
-16.725 -58.875 -0.375
-16.275 -58.425 -0.675
-17.775 -60.675 -0.525
-17.775 -60.675 -1.725
-16.125 -58.275 -0.375
-16.125 -58.275 -0.525
-17.925 -63.525 -0.225
-17.925 -63.525 -0.825
-17.625 -60.225 -0.675
-17.925 -61.125 -0.525
-17.325 -65.025 -0.675
-17.325 -65.025 -0.375
-17.025 -65.475 2.625
-18.075 -62.325 -1.725
-18.075 -62.325 -0.825
-12.825 -57.075 0.375
-18.075 -62.175 -0.525
-18.075 -62.475 -0.375
-18.075 -62.625 -0.525
-18.075 -62.625 -1.875
-18.075 -62.025 -0.225
-17.775 -64.125 2.025
-17.775 -64.125 1.125
-17.775 -60.525 -0.525
-17.775 -60.525 -0.375
-18.075 -62.775 -0.825
-18.075 -62.775 -0.525
-18.075 -62.775 0.375
-18.075 -61.875 -0.375
-17.925 -63.675 -0.825
-17.925 -63.675 -0.675
-17.925 -60.975 -0.525
-18.075 -62.925 -0.825
-18.075 -62.925 -0.525
-18.075 -61.725 -0.825
-18.075 -61.725 0.225
-17.175 -65.325 -4.425
-17.625 -60.075 -0.675
-18.075 -61.575 0.225
-18.075 -63.075 -1.125
-18.075 -61.575 -0.675
-16.575 -58.575 -0.675
-16.725 -58.725 -0.075
-16.725 -58.725 -0.525
-17.925 -63.825 -0.225
-17.925 -63.825 -0.825
-17.925 -63.825 -1.125
-17.925 -63.825 0.075
-17.925 -63.825 -0.375
-17.925 -60.825 -0.525
-17.775 -64.275 -0.675
-17.775 -60.375 -0.675
-17.775 -60.375 -0.975
-16.875 -58.875 -0.525
-18.075 -63.225 -1.125
-13.725 -57.075 -0.825
-16.125 -58.125 -0.375
-16.125 -58.125 1.125
-18.075 -63.375 -0.825
-18.075 -63.375 -0.225
-18.075 -63.375 -0.525
-18.075 -61.275 -0.825
-17.925 -63.975 -0.675
-14.475 -57.225 2.175
-17.925 -60.675 -0.675
-17.925 -60.675 -0.525
-18.075 -63.525 -0.825
-18.075 -63.525 -5.175
-11.625 -57.075 1.875
-18.075 -61.125 -0.225
-18.075 -61.125 -0.525
-18.225 -62.175 -0.225
-14.625 -57.225 -0.375
-17.925 -60.525 -0.675
-17.925 -60.525 -0.375
-13.125 -56.925 0.675
-16.725 -58.575 -0.525
-16.875 -65.925 -1.725
-16.425 -66.375 -0.825
-16.875 -58.725 -0.675
-16.875 -58.725 -0.225
-18.225 -61.875 0.075
-12.375 -56.925 1.425
-12.375 -56.925 1.725
-18.075 -63.675 -0.825
-18.075 -63.675 -2.325
-18.075 -63.675 -0.525
-18.075 -60.975 0.375
-18.225 -62.925 -5.625
-17.025 -58.875 -0.225
-17.025 -58.875 -0.825
-17.025 -58.875 -0.075
-18.225 -63.075 -0.375
-17.475 -65.175 -1.125
-17.475 -65.175 -0.675
-18.075 -60.825 0.525
-18.075 -60.825 -0.825
-18.075 -60.825 0.225
-18.075 -60.825 -0.075
-18.075 -63.825 -0.225
-18.075 -63.825 0.225
-18.075 -63.825 -0.525
-17.925 -64.275 -0.525
-18.225 -61.425 -0.675
-17.775 -64.725 -0.525
-18.225 -63.375 -0.825
-18.225 -63.375 -0.375
-18.225 -61.275 0.075
-13.875 -56.925 0.375
-18.075 -60.675 -0.675
-18.075 -60.675 0.675
-17.925 -60.225 -1.425
-16.725 -58.425 -0.225
-16.875 -58.575 -0.225
-16.875 -58.575 0.675
-16.875 -58.575 -0.375
-17.025 -58.725 0.075
-17.025 -58.725 -0.225
-16.425 -66.525 -0.375
-18.075 -64.125 -0.375
-18.075 -64.125 -0.525
-18.075 -64.125 0.225
-17.175 -58.875 -0.975
-17.175 -58.875 -0.075
-18.225 -63.675 -3.525
-18.225 -63.675 -3.375
-18.225 -63.675 -3.975
-18.225 -60.975 1.275
-17.775 -64.875 -0.825
-18.375 -62.775 2.025
-18.375 -62.775 0.075
-18.375 -62.775 -0.075
-17.925 -60.075 -1.125
-18.075 -60.375 -0.225
-18.075 -64.275 0.075
-18.375 -63.075 -0.225
-18.075 -64.275 -0.375
-18.075 -64.275 -0.525
-18.225 -63.825 -0.525
-18.225 -63.825 0.525
-11.325 -56.925 1.725
-15.975 -57.675 -0.225
-18.375 -63.225 -0.225
-16.875 -58.425 -0.525
-17.025 -58.575 1.125
-17.025 -58.575 -0.525
-16.575 -66.525 -0.375
-18.225 -63.975 -0.525
-18.225 -63.975 -0.375
-17.175 -58.725 -0.075
-18.375 -63.375 -5.775
-18.375 -61.275 -0.225
-18.075 -64.425 -0.675
-14.925 -57.075 0.375
-15.825 -57.525 -0.225
-16.275 -57.825 0.075
-17.325 -58.875 -0.675
-18.225 -64.125 -0.525
-18.225 -60.525 -0.075
-17.025 -58.425 -1.425
-16.725 -66.525 -0.225
-18.225 -64.275 -0.225
-18.225 -64.275 -0.975
-15.975 -57.525 0.075
-17.175 -58.575 -0.075
-17.175 -58.575 0.075
-17.325 -58.725 -0.675
-17.925 -65.025 -0.375
-17.925 -65.025 -0.075
-17.925 -59.625 -2.475
-18.375 -63.975 -0.225
-17.475 -58.875 -0.975
-18.225 -64.425 -0.375
-18.225 -64.425 -0.675
-17.625 -59.025 -0.675
-17.025 -58.275 -0.975
-14.625 -56.775 1.125
-18.075 -64.875 -0.225
-17.925 -65.175 -0.375
-12.825 -56.475 1.875
-18.225 -64.575 -0.675
-17.325 -58.575 -0.675
-17.775 -65.475 -0.675
-17.475 -58.725 -0.675
-16.425 -57.675 0.375
-18.075 -65.025 -0.525
-18.075 -65.025 -2.775
-18.225 -64.725 -0.675
-17.625 -58.875 -0.675
-18.375 -64.425 -0.675
-18.525 -63.975 -0.675
-18.525 -63.975 0.675
-18.675 -61.275 1.575
-17.775 -59.025 -0.675
-16.125 -57.375 -0.375
-18.225 -64.875 -0.375
-18.225 -64.875 -0.525
-15.675 -67.575 -3.975
-17.925 -65.475 -0.375
-17.625 -58.725 -0.825
-12.675 -56.325 1.875
-18.825 -62.775 -3.375
-17.775 -58.875 -0.825
-9.375 -57.375 0.225
-18.225 -65.025 -0.375
-18.225 -65.025 -0.525
-18.675 -63.825 -1.875
-18.375 -64.725 0.675
-18.075 -65.325 -0.825
-17.325 -66.375 -3.075
-16.725 -57.675 0.225
-17.925 -59.025 0.075
-18.675 -63.975 -2.025
-18.675 -63.975 -2.175
-17.625 -58.575 -0.075
-17.625 -58.575 -0.675
-9.975 -56.925 -1.425
-18.675 -64.125 0.975
-17.775 -58.725 -0.225
-17.775 -58.725 -0.825
-17.775 -58.725 -0.525
-16.425 -57.375 -0.075
-18.075 -65.475 -2.925
-18.075 -59.175 0.225
-18.525 -64.575 -0.075
-17.925 -58.875 0.075
-17.925 -65.775 2.025
-17.475 -66.375 1.575
-17.475 -66.375 1.725
-18.675 -64.275 -0.825
-17.475 -58.275 -0.525
-17.475 -58.275 -0.975
-16.875 -57.675 0.975
-18.375 -65.025 -0.375
-18.375 -65.025 -0.675
-18.375 -65.025 -0.525
-18.225 -65.325 -0.675
-18.525 -64.725 -0.525
-17.625 -58.425 -0.525
-17.625 -58.425 1.725
-17.625 -58.425 -0.825
-18.075 -65.625 -0.525
-17.775 -58.575 -0.375
-9.075 -57.375 -0.375
-18.975 -61.425 -5.025
-11.175 -56.325 0.075
-15.675 -67.875 -0.075
-18.375 -65.175 -0.675
-18.375 -65.175 0.675
-15.975 -67.725 0.075
-18.225 -65.475 -0.675
-18.225 -65.475 -0.375
-18.225 -65.475 1.275
-15.975 -56.925 -1.425
-14.625 -56.325 1.725
-17.475 -58.125 -2.175
-17.475 -58.125 -0.375
-17.475 -58.125 -2.325
-15.075 -68.175 1.575
-18.675 -64.575 -1.575
-17.625 -58.275 -0.075
-17.625 -58.275 -0.675
-18.075 -58.875 0.225
-18.075 -65.775 2.025
-18.075 -65.775 -0.225
-18.525 -65.025 0.075
-18.525 -65.025 -0.525
-15.825 -67.875 1.725
-18.375 -65.325 0.225
-18.375 -65.325 -0.675
-15.825 -56.775 -0.225
-18.225 -65.625 -0.225
-18.225 -65.625 1.425
-18.825 -64.425 -1.125
-18.075 -65.925 -2.175
-16.425 -57.075 -2.775
-18.975 -63.975 -3.525
-17.475 -57.975 -0.375
-17.175 -57.675 -1.425
-17.025 -57.525 0.525
-17.625 -58.125 -0.975
-8.625 -57.525 0.675
-18.375 -65.475 -0.525
-18.375 -65.475 -0.675
-18.375 -65.475 -0.225
-18.375 -65.475 0.375
-18.375 -65.475 -2.925
-18.675 -64.875 -3.525
-15.975 -56.775 -1.425
-18.825 -60.075 -6.075
-18.225 -58.875 -0.525
-18.225 -65.775 1.125
-18.225 -65.775 -0.375
-18.225 -65.775 -0.525
-16.275 -56.925 1.125
-14.625 -56.175 1.575
-14.625 -56.175 1.125
-14.025 -56.025 1.125
-16.725 -57.225 -2.775
-17.925 -58.425 -1.875
-18.675 -65.025 -3.375
-16.575 -57.075 -1.125
-16.575 -57.075 -2.625
-16.575 -57.075 -1.575
-18.075 -66.075 1.725
-18.375 -65.625 -0.675
-18.825 -59.925 -0.975
-18.825 -59.925 -3.075
-19.275 -61.875 1.875
-17.475 -57.825 -0.525
-17.325 -57.675 -1.275
-8.325 -57.675 1.425
-19.275 -62.925 -0.675
-19.275 -62.925 -1.125
-17.625 -57.975 -0.075
-8.475 -57.525 1.125
-17.175 -57.525 0.825
-17.175 -57.525 0.375
-19.275 -63.075 -1.125
-18.975 -60.225 -2.175
-18.675 -65.175 0.075
-18.675 -65.175 1.725
-18.525 -65.475 0.375
-19.275 -63.225 -1.125
-19.125 -60.675 -3.225
-15.975 -68.025 1.875
-14.475 -56.025 0.075
-18.825 -59.775 -1.125
-18.825 -59.775 -0.675
-18.825 -59.775 -0.975
-18.825 -59.775 -3.075
-18.375 -58.875 -0.525
-18.375 -65.775 -0.225
-18.375 -65.775 0.825
-18.375 -65.775 2.775
-18.075 -66.225 -0.225
-18.075 -58.425 -3.375
-14.025 -55.875 -0.375
-18.225 -66.075 -0.375
-17.475 -57.675 -0.525
-17.475 -57.675 -0.225
-18.825 -59.625 -1.125
-17.325 -57.525 0.675
-17.325 -57.525 -0.675
-18.525 -59.025 -0.225
-18.525 -59.025 -0.075
-17.775 -66.675 0.975
-19.275 -60.975 -0.225
-17.775 -57.975 -0.075
-14.175 -55.875 0.975
-17.175 -57.375 -2.475
-19.125 -60.375 -2.175
-19.425 -62.325 -0.825
-19.425 -62.175 -0.525
-19.425 -62.175 -0.825
-18.975 -59.925 -5.925
-18.975 -59.925 -3.375
-18.975 -59.925 -5.775
-17.925 -58.125 -0.225
-18.375 -65.925 0.825
-18.375 -65.925 -0.225
-18.375 -65.925 -0.375
-19.425 -62.775 -1.275
-18.375 -58.725 -0.525
-19.275 -63.825 -0.975
-14.325 -55.875 0.825
-19.425 -62.925 -1.125
-18.075 -66.375 0.375
-16.875 -57.075 -0.525
-18.075 -58.275 -0.375
-18.825 -65.175 2.025
-9.975 -56.325 0.375
-18.825 -59.475 -1.125
-19.425 -61.575 2.175
-15.975 -56.475 -1.275
-19.275 -63.975 -0.975
-18.975 -59.775 -0.975
-18.225 -66.225 -0.225
-18.525 -58.875 0.075
-16.275 -56.625 1.425
-17.625 -66.975 0.675
-17.625 -57.675 0.075
-17.775 -57.825 0.075
-17.775 -66.825 0.675
-19.125 -60.075 -2.325
-19.275 -64.125 -0.975
-19.275 -64.125 4.125
-19.275 -64.125 -0.525
-11.025 -55.875 -0.825
-17.175 -57.225 1.125
-17.175 -57.225 0.525
-17.175 -57.225 0.975
-17.925 -57.975 -0.225
-18.825 -65.325 -0.375
-19.425 -61.125 -0.675
-18.675 -65.625 -2.025
-18.675 -65.625 0.075
-19.425 -60.975 -0.675
-19.275 -64.275 -0.825
-10.875 -55.875 1.125
-10.875 -55.875 1.425
-18.525 -65.925 1.125
-15.225 -68.625 -4.275
-19.125 -64.725 -2.325
-18.225 -66.375 -0.225
-19.575 -62.025 -0.825
-19.425 -60.825 -0.675
-9.975 -56.175 0.375
-18.375 -66.225 -0.375
-19.275 -64.425 -0.825
-17.625 -57.525 0.075
-8.175 -57.375 0.375
-18.675 -65.775 1.425
-18.675 -65.775 0.075
-7.875 -57.675 0.525
-17.775 -57.675 -0.525
-17.775 -57.675 0.225
-17.475 -57.375 -0.075
-15.375 -68.625 -0.225
-19.125 -64.875 1.275
-17.325 -57.225 0.825
-11.175 -55.725 -0.225
-14.475 -55.725 1.575
-18.525 -66.075 1.725
-18.525 -66.075 -0.075
-15.075 -55.875 0.825
-19.425 -64.125 -0.825
-11.025 -55.725 -0.825
-18.975 -65.325 -2.775
-18.825 -65.625 0.525
-19.125 -65.025 1.125
-18.675 -65.925 1.275
-18.675 -65.925 -2.475
-18.675 -65.925 -0.225
-18.675 -58.725 0.225
-16.425 -56.475 0.975
-18.375 -66.375 -0.375
-19.575 -63.675 -2.175
-19.575 -60.975 1.575
-19.575 -60.975 -0.525
-19.575 -60.975 1.725
-17.775 -57.525 0.225
-17.625 -57.375 0.075
-19.725 -62.175 -0.825
-19.725 -62.175 2.325
-17.475 -57.225 -0.525
-18.525 -66.225 1.275
-18.525 -66.225 -0.225
-19.725 -62.625 2.625
-19.725 -62.625 2.925
-19.725 -62.025 2.325
-19.125 -65.175 -2.625
-19.575 -60.825 -0.675
-11.325 -55.575 -0.225
-18.075 -57.825 2.925
-9.975 -56.025 0.525
-19.725 -62.925 2.775
-14.925 -55.725 1.875
-12.225 -55.425 -2.325
-18.225 -66.675 -0.525
-17.175 -56.925 0.975
-12.075 -55.425 -0.525
-19.575 -60.675 1.575
-19.575 -60.675 -0.525
-11.925 -55.425 0.525
-18.975 -65.625 0.525
-18.525 -66.375 -0.225
-19.275 -59.625 -0.825
-19.275 -65.025 1.125
-18.825 -65.925 1.425
-18.825 -58.725 -0.975
-16.425 -56.325 1.725
-17.775 -57.375 0.225
-17.925 -67.125 -0.675
-17.625 -57.225 0.075
-17.625 -57.225 0.675
-11.625 -55.425 1.425
-8.175 -57.075 2.625
-18.225 -66.825 0.525
-17.325 -56.925 -0.975
-17.325 -56.925 0.825
-19.875 -62.325 1.425
-18.375 -66.675 -1.125
-18.375 -66.675 -0.675
-19.875 -62.175 1.425
-18.975 -65.775 0.525
-19.875 -62.775 1.125
-19.875 -62.775 1.275
-18.825 -58.575 -0.975
-18.525 -66.525 -0.075
-11.175 -55.425 2.025
-7.725 -57.375 0.975
-19.275 -65.325 -1.125
-17.625 -57.075 0.225
-9.825 -55.875 0.975
-18.975 -65.925 0.525
-18.225 -57.675 2.925
-17.475 -56.925 -0.375
-11.025 -55.425 0.225
-18.375 -66.825 -0.075
-17.325 -56.775 -0.375
-19.875 -63.525 1.425
-18.825 -58.425 -0.975
-18.825 -58.425 -0.675
-18.525 -66.675 0.225
-18.525 -66.675 -0.975
-10.875 -55.425 1.875
-14.775 -55.425 1.125
-11.475 -55.275 1.875
-16.275 -56.025 1.575
-20.025 -62.475 1.575
-20.025 -62.475 2.175
-12.675 -55.125 0.675
-18.975 -66.075 0.525
-18.975 -58.575 -0.975
-20.025 -62.625 1.575
-14.325 -55.275 0.825
-11.325 -55.275 1.275
-17.925 -57.225 5.475
-20.025 -61.875 -0.525
-12.375 -55.125 0.225
-10.275 -55.575 -1.275
-17.775 -57.075 0.225
-18.075 -67.275 0.225
-18.075 -67.275 -0.525
-20.025 -62.925 1.125
-7.425 -57.525 1.125
-12.225 -55.125 0.075
-12.225 -55.125 -2.625
-20.025 -61.575 -0.525
-20.025 -63.075 0.975
-18.825 -58.275 -1.125
-18.375 -66.975 -2.025
-19.875 -60.675 -0.525
-11.175 -55.275 0.975
-11.175 -55.275 0.525
-17.475 -56.775 -0.825
-17.475 -56.775 -0.975
-9.825 -55.725 0.525
-20.025 -63.225 1.125
-20.025 -61.425 -0.675
-13.725 -55.125 1.125
-10.575 -55.425 0.225
-18.525 -66.825 0.075
-18.525 -66.825 -0.075
-17.325 -56.625 -0.375
-10.125 -55.575 0.375
-20.025 -61.275 -0.525
-19.875 -60.525 -0.675
-11.025 -55.275 0.375
-17.175 -56.475 -0.375
-20.025 -63.525 1.275
-15.225 -55.425 1.575
-10.875 -55.275 1.725
-17.925 -57.075 -0.375
-18.825 -58.125 -1.125
-18.225 -67.275 0.525
-17.775 -56.925 0.375
-17.625 -56.775 0.375
-12.675 -54.975 0.375
-12.975 -54.975 0.375
-14.325 -55.125 0.975
-15.375 -69.225 -4.575
-19.875 -60.225 -2.175
-19.875 -60.225 -2.025
-8.175 -56.625 0.975
-10.725 -55.275 0.825
-17.475 -56.625 -0.825
-10.275 -55.425 -1.275
-20.175 -61.725 -0.525
-20.175 -61.725 -0.675
-9.525 -55.725 -4.125
-17.325 -56.475 0.675
-17.325 -56.475 -5.175
-17.325 -56.475 -5.025
-19.275 -65.925 1.725
-11.175 -55.125 1.875
-11.175 -55.125 0.375
-14.475 -55.125 0.225
-14.475 -55.125 -0.075
-20.175 -61.575 -0.525
-19.875 -60.075 -0.225
-19.875 -60.075 -1.575
-19.875 -60.075 -0.375
-10.575 -55.275 0.375
-13.725 -69.675 3.225
-20.175 -61.425 -0.975
-20.175 -61.425 -1.125
-18.825 -66.675 -2.925
-18.825 -57.975 -0.675
-17.175 -56.325 -0.375
-18.075 -67.575 2.175
-20.175 -61.275 -0.525
-20.175 -61.275 -0.975
-20.175 -61.275 -1.275
-18.225 -67.425 -0.375
-18.225 -67.425 0.525
-18.375 -57.375 -2.625
-18.375 -67.275 -0.375
-18.375 -57.375 -2.775
-19.875 -64.725 -0.825
-20.175 -63.525 -0.075
-20.175 -63.525 1.125
-20.175 -63.525 0.375
-20.175 -61.125 -0.375
-18.525 -67.125 0.075
-18.525 -67.125 -0.075
-8.025 -56.625 1.575
-17.625 -56.625 -0.975
-20.025 -60.375 -1.575
-20.025 -60.375 -0.075
-20.025 -64.275 1.275
-19.725 -65.175 -0.375
-19.725 -65.175 -0.825
-9.975 -55.425 0.225
-20.175 -60.975 -0.375
-19.875 -59.775 0.375
-6.825 -57.825 1.575
-12.825 -54.825 0.375
-17.325 -56.325 0.825
-20.175 -60.825 -0.525
-20.175 -60.825 -0.225
-20.175 -63.825 0.075
-20.325 -62.625 2.025
-13.125 -54.825 -0.375
-13.125 -54.825 1.575
-20.325 -61.725 -1.575
-20.325 -61.725 1.725
-20.325 -61.725 -1.425
-19.725 -65.325 -0.825
-20.175 -63.975 -0.225
-20.175 -60.675 -0.675
-18.975 -57.975 -1.125
-17.175 -56.175 -0.225
-18.375 -67.425 -0.075
-13.575 -54.825 1.275
-8.925 -55.875 2.025
-20.025 -60.075 -0.375
-10.575 -55.125 0.375
-19.875 -59.625 -0.225
-19.875 -65.025 -0.825
-19.875 -59.625 -0.525
-10.125 -55.275 -4.725
-10.125 -55.275 -3.225
-10.125 -55.275 1.275
-15.525 -55.275 1.575
-11.925 -54.825 1.275
-11.925 -54.825 1.875
-11.025 -54.975 0.525
-11.025 -54.975 0.225
-17.625 -56.475 -0.375
-17.625 -56.475 -0.825
-20.175 -60.525 -0.675
-20.325 -61.275 -1.125
-19.725 -65.475 -0.825
-20.025 -59.925 -0.675
-20.025 -59.925 -0.375
-20.025 -59.925 0.375
-10.425 -55.125 -0.525
-17.475 -56.325 -0.375
-10.875 -54.975 1.725
-19.875 -59.475 0.075
-10.875 -54.975 1.875
-19.875 -59.475 -0.075
-15.675 -55.275 1.725
-20.325 -63.675 -0.225
-20.325 -60.975 -0.825
-18.975 -57.825 -0.975
-20.025 -59.775 -0.225
-20.025 -59.775 -0.675
-10.275 -55.125 -0.375
-10.275 -55.125 0.525
-20.175 -60.225 -0.225
-18.525 -67.425 -0.375
-11.325 -54.825 0.825
-7.725 -56.625 0.975
-9.525 -55.425 -0.525
-19.575 -58.725 -0.975
-12.825 -54.675 0.975
-12.675 -54.675 -0.525
-12.675 -54.675 0.675
-12.975 -54.675 1.275
-19.125 -57.975 -0.975
-17.175 -56.025 -0.225
-12.525 -54.675 0.525
-19.875 -59.325 0.075
-19.875 -59.325 -0.375
-9.825 -55.275 0.675
-17.775 -56.475 -0.525
-18.675 -67.275 -0.075
-13.275 -54.675 2.325
-11.175 -54.825 0.675
-20.175 -60.075 -0.225
-10.575 -54.975 0.375
-20.475 -61.575 1.575
-11.925 -54.675 0.975
-11.925 -54.675 1.725
-13.725 -54.675 -0.525
-17.475 -56.175 -0.525
-20.475 -63.375 1.275
-20.475 -61.275 1.425
-20.475 -61.275 -1.425
-19.875 -59.175 0.225
-9.675 -55.275 -3.225
-10.425 -54.975 0.975
-20.175 -59.925 -2.025
-6.525 -57.825 1.725
-19.125 -57.825 -1.125
-17.325 -56.025 0.225
-18.225 -67.875 2.325
-20.025 -59.475 -0.975
-20.025 -59.475 -0.375
-8.775 -55.725 -3.075
-8.775 -55.725 2.475
-9.975 -55.125 1.275
-10.875 -54.825 1.575
-10.875 -54.825 -0.525
-18.525 -67.575 -0.075
-18.525 -67.575 -0.375
-20.325 -60.375 -1.125
-20.325 -60.375 -0.675
-20.325 -64.275 -0.825
-18.675 -67.425 -0.375
-18.675 -67.425 -0.225
-7.725 -56.475 2.325
-7.725 -56.475 0.975
-20.475 -63.675 0.075
-20.475 -60.975 -0.825
-10.275 -54.975 1.275
-10.275 -54.975 0.525
-5.325 -64.425 0.375
-20.325 -64.425 -0.225
-20.475 -63.825 1.425
-20.475 -60.825 -0.975
-20.025 -65.325 -0.675
-9.825 -55.125 0.825
-9.825 -55.125 0.525
-12.975 -54.525 -0.975
-17.625 -56.175 -5.025
-13.125 -54.525 2.025
-13.275 -54.525 0.825
-8.625 -55.725 2.475
-20.475 -63.975 -0.675
-20.475 -63.975 0.075
-19.125 -66.975 0.675
-10.575 -54.825 -0.075
-20.325 -60.075 -0.375
-10.125 -54.975 0.975
-20.175 -59.625 -0.075
-20.175 -59.625 0.375
-20.175 -59.625 -1.725
-17.475 -56.025 1.275
-13.575 -54.525 0.075
-18.375 -67.875 -0.075
-18.525 -67.725 -0.375
-18.525 -67.725 -0.075
-18.525 -56.925 1.425
-11.925 -54.525 0.825
-19.725 -58.575 -0.975
-20.475 -64.125 -0.825
-20.025 -59.175 -0.525
-9.675 -55.125 -0.525
-9.675 -55.125 0.675
-20.475 -60.525 -1.275
-11.025 -54.675 1.725
-18.675 -67.575 -0.225
-13.875 -54.525 -0.225
-20.325 -64.725 -0.825
-10.425 -54.825 0.825
-20.325 -59.925 -2.025
-20.625 -63.525 -0.075
-20.475 -60.375 -0.525
-19.875 -58.725 -0.975
-9.225 -55.275 -1.125
-19.125 -67.125 0.675
-19.125 -67.125 0.525
-19.125 -67.125 -0.225
-20.025 -59.025 -0.525
-5.325 -64.875 -2.925
-20.325 -64.875 1.275
-20.325 -64.875 -0.225
-10.275 -54.825 1.725
-10.275 -54.825 -2.625
-10.275 -54.825 0.375
-20.475 -64.425 -0.825
-20.475 -64.425 -0.375
-20.475 -60.225 -0.675
-9.825 -54.975 -3.675
-20.175 -59.325 0.225
-14.325 -54.525 0.675
-8.625 -55.575 2.025
-19.575 -58.125 -1.125
-12.825 -54.375 -0.075
-19.275 -66.975 0.675
-8.175 -55.875 0.525
-18.525 -67.875 -0.825
-18.375 -68.025 -4.275
-13.125 -54.375 1.425
-13.125 -54.375 -1.425
-18.675 -67.725 -0.075
-5.325 -65.025 1.425
-18.075 -68.325 0.225
-13.425 -54.375 -0.225
-14.475 -54.525 0.225
-20.475 -64.575 -0.225
-20.475 -64.575 -0.825
-20.475 -60.075 -2.325
-10.575 -54.675 1.125
-10.575 -54.675 -0.225
-9.675 -54.975 -0.075
-11.925 -54.375 0.525
-5.175 -64.725 0.975
-20.475 -64.725 -0.825
-10.425 -54.675 0.675
-20.325 -65.175 1.875
-9.975 -54.825 0.525
-20.325 -59.475 -0.075
-19.575 -66.675 -1.725
-19.275 -67.125 0.675
-20.625 -64.275 -0.675
-17.625 -55.875 1.575
-6.375 -57.525 1.575
-19.275 -57.525 4.425
-20.025 -58.725 0.525
-9.225 -55.125 -0.225
-9.225 -55.125 -0.825
-9.525 -54.975 0.525
-9.525 -54.975 0.075
-18.525 -68.025 -0.075
-20.475 -64.875 -0.225
-20.475 -64.875 0.075
-14.175 -54.375 -0.225
-20.475 -59.775 0.225
-18.675 -56.775 0.075
-18.675 -56.775 -5.475
-10.275 -54.675 0.075
-17.475 -55.725 1.725
-5.025 -64.425 -1.575
-5.325 -65.325 0.975
-19.725 -66.525 -1.275
-18.075 -56.175 -0.525
-12.525 -54.225 -2.325
-17.925 -56.025 -0.975
-17.325 -55.575 0.975
-8.325 -55.575 2.325
-12.375 -54.225 -0.525
-20.475 -65.025 0.225
-20.475 -65.025 0.075
-10.125 -54.675 0.375
-20.025 -58.575 -0.525
-9.375 -54.975 -0.375
-20.175 -65.775 2.175
-19.875 -58.275 -0.525
-20.325 -65.475 -0.075
-9.675 -54.825 -0.225
-14.625 -54.375 0.225
-19.725 -66.675 -1.275
-5.925 -57.975 1.425
-19.725 -57.975 -1.125
-19.725 -57.975 -1.275
-20.625 -64.725 0.225
-19.425 -57.525 -0.675
-10.425 -54.525 -3.675
-20.475 -65.175 -0.075
-20.475 -65.175 -0.525
-20.475 -65.175 0.075
-9.975 -54.675 0.525
-18.525 -68.175 -0.225
-18.675 -56.625 -0.525
-18.675 -56.625 -0.075
-18.375 -68.325 0.225
-18.375 -68.325 -4.575
-18.975 -67.725 1.125
-9.225 -54.975 0.075
-9.225 -54.975 1.725
-9.225 -54.975 0.225
-9.225 -54.975 -0.225
-16.425 -54.975 1.275
-20.025 -66.225 -0.225
-9.525 -54.825 -0.975
-9.525 -54.825 0.825
-9.525 -54.825 -3.225
-18.075 -68.625 -0.375
-19.125 -57.075 -3.675
-19.125 -57.075 -2.325
-19.125 -57.075 -2.175
-19.125 -67.575 0.975
-5.025 -64.875 1.425
-5.025 -64.875 1.275
-5.025 -64.875 0.975
-20.475 -65.325 0.225
-17.925 -55.875 -1.275
-17.325 -55.425 1.125
-8.325 -55.425 -0.675
-20.175 -66.075 -1.275
-9.075 -54.975 0.525
-20.625 -65.025 -0.675
-10.125 -54.525 -0.225
-16.275 -54.825 1.425
-20.325 -65.775 -0.225
-20.325 -65.775 -0.075
-12.375 -54.075 -0.675
-10.575 -54.375 -0.375
-18.675 -68.175 -0.225
-20.475 -65.475 0.225
-20.475 -65.475 0.075
-9.675 -54.675 -1.275
-15.975 -54.675 -0.075
-18.525 -68.325 -0.075
-18.525 -68.325 -0.225
-6.825 -56.625 0.975
-18.825 -56.625 -0.375
-19.575 -57.525 -0.675
-19.575 -57.525 -0.525
-18.375 -68.475 0.825
-17.175 -55.275 -1.725
-18.375 -56.175 -2.175
-18.225 -68.625 -4.875
-19.125 -56.925 -5.775
-20.625 -65.175 -0.825
-18.075 -68.775 -5.025
-5.325 -65.925 0.375
-9.225 -54.825 0.225
-16.425 -54.825 1.275
-20.175 -66.225 -0.525
-8.925 -54.975 0.825
-20.175 -58.425 -0.525
-20.475 -65.625 0.075
-20.475 -65.625 -0.225
-20.475 -65.625 -0.075
-8.625 -55.125 1.275
-7.725 -55.725 0.525
-17.925 -55.725 1.575
-17.925 -55.725 -1.125
-15.825 -54.525 0.675
-19.875 -57.825 -0.525
-19.875 -57.825 -1.275
-8.325 -55.275 1.125
-17.325 -55.275 1.275
-18.825 -56.475 -0.375
-18.525 -68.475 1.125
-18.525 -68.475 -4.725
-20.325 -66.075 -0.375
-18.975 -56.625 -0.375
-18.525 -56.175 1.125
-20.175 -66.375 -0.525
-5.175 -65.775 1.425
-20.475 -65.775 0.075
-18.375 -68.625 -0.375
-20.775 -65.025 -1.725
-20.775 -59.625 -0.525
-10.125 -54.375 -0.375
-15.525 -54.375 0.525
-19.725 -57.525 -0.375
-19.725 -57.525 -0.525
-13.125 -53.925 -0.975
-5.025 -65.475 1.125
-9.675 -54.525 1.425
-18.225 -68.775 -0.375
-13.275 -53.925 0.525
-18.075 -68.925 -5.925
-7.575 -55.725 0.225
-18.075 -55.725 1.275
-20.775 -59.475 -0.375
-9.975 -54.375 -0.675
-20.325 -66.225 -0.375
-20.325 -66.225 -0.525
-20.475 -65.925 0.075
-20.475 -65.925 -0.225
-6.075 -57.225 2.025
-17.925 -55.575 -0.825
-19.575 -57.225 2.625
-8.625 -54.975 0.825
-8.625 -54.975 1.425
-20.175 -66.525 -0.525
-9.525 -54.525 -0.825
-6.825 -56.325 0.825
-18.675 -68.475 -4.875
-18.975 -68.175 0.225
-18.975 -68.175 2.925
-18.975 -68.175 -1.725
-6.675 -56.475 0.975
-18.975 -56.475 -0.375
-18.975 -56.475 -4.575
-6.975 -56.175 0.975
-4.725 -64.875 1.275
-17.775 -55.425 -6.675
-18.525 -68.625 0.825
-20.775 -65.325 -1.575
-9.825 -54.375 -0.675
-7.275 -55.875 -0.225
-20.475 -66.075 -0.075
-20.325 -66.375 -0.375
-16.875 -54.825 0.225
-7.425 -55.725 0.375
-8.025 -55.275 1.275
-4.725 -65.025 1.425
-4.725 -65.025 0.825
-8.475 -54.975 0.825
-12.825 -53.775 -0.675
-4.875 -65.475 1.125
-7.575 -55.575 1.425
-7.575 -55.575 1.725
-7.575 -55.575 -4.575
-7.575 -55.575 1.875
-19.575 -57.075 -0.225
-19.575 -57.075 -0.825
-19.575 -57.075 -0.675
-9.675 -54.375 0.225
-12.675 -53.775 -3.375
-12.675 -53.775 -0.525
-20.025 -57.675 -6.225
-8.175 -55.125 1.275
-19.725 -57.225 -0.375
-20.475 -66.225 -0.225
-20.475 -66.225 0.075
-4.725 -65.175 1.725
-16.725 -54.675 0.375
-18.825 -68.475 0.225
-18.975 -56.325 -0.225
-18.975 -68.325 2.775
-18.975 -68.325 0.075
-18.825 -56.175 -2.325
-17.025 -54.825 0.225
-5.325 -58.125 1.425
-19.125 -68.175 3.075
-18.675 -68.625 -0.375
-18.675 -68.625 -1.725
-4.875 -65.625 0.675
-20.775 -65.625 -2.025
-20.775 -65.625 0.675
-18.525 -68.775 -0.375
-9.525 -54.375 0.075
-16.125 -54.375 1.425
-19.875 -67.275 -0.825
-19.875 -57.375 -0.825
-7.275 -55.725 1.275
-7.275 -55.725 -0.075
-7.275 -55.725 0.675
-10.875 -53.925 0.975
-20.025 -67.125 -5.025
-20.025 -57.525 -0.525
-17.625 -55.125 1.425
-20.475 -66.375 -0.525
-16.875 -54.675 0.375
-10.725 -53.925 -1.125
-9.375 -54.375 -0.075
-20.325 -66.675 -0.975
-20.325 -66.675 -1.275
-5.325 -57.975 1.575
-7.575 -55.425 0.675
-15.525 -54.075 -0.675
-4.575 -65.025 1.425
-9.675 -54.225 0.675
-18.975 -68.475 0.825
-8.175 -54.975 1.575
-8.175 -54.975 1.875
-8.175 -54.975 0.225
-8.175 -54.975 0.525
-17.475 -54.975 1.125
-18.975 -56.175 -3.225
-19.125 -56.325 0.975
-21.525 -62.475 -1.725
-19.875 -57.225 2.475
-18.675 -68.775 -0.525
-18.675 -68.775 -5.175
-18.675 -55.875 1.125
-18.525 -68.925 1.125
-18.525 -68.925 -0.525
-20.625 -66.225 -0.375
-7.125 -55.725 0.525
-19.425 -56.625 -0.225
-9.225 -54.375 -4.725
-13.575 -53.625 0.075
-10.425 -53.925 -0.975
-20.025 -57.375 -0.375
-7.275 -55.575 1.125
-7.275 -55.575 -0.525
-18.375 -55.575 0.225
-18.375 -55.575 0.375
-19.575 -56.775 2.325
-9.525 -54.225 0.525
-9.525 -54.225 -0.075
-7.425 -55.425 1.125
-7.425 -55.425 2.025
-7.425 -55.425 0.225
-19.725 -56.925 -0.825
-19.725 -56.925 0.225
-14.775 -53.775 0.825
-14.775 -53.775 2.325
-9.825 -54.075 0.525
-8.025 -54.975 1.725
-21.225 -64.875 0.225
-4.125 -63.525 0.225
-20.625 -66.375 0.825
-20.625 -66.375 -0.375
-20.775 -66.075 1.725
-5.775 -57.075 1.875
-19.875 -57.075 -0.675
-7.575 -55.275 3.225
-16.575 -54.375 -0.825
-18.075 -55.275 1.275
-20.475 -66.675 0.075
-20.475 -66.675 -0.375
-8.475 -54.675 2.475
-18.975 -68.625 0.225
-19.275 -56.325 1.275
-18.675 -68.925 -1.875
-6.975 -55.725 0.375
-20.025 -67.425 -0.225
-20.025 -67.425 -0.825
-20.025 -57.225 2.175
-7.725 -55.125 1.875
-7.725 -55.125 0.675
-21.225 -59.625 -0.225
-8.175 -54.825 0.375
-17.475 -54.825 1.125
-18.525 -69.075 -5.175
-4.875 -66.225 1.575
-7.275 -55.425 -3.225
-7.275 -55.425 2.025
-16.725 -54.375 -0.675
-19.725 -56.775 0.075
-19.725 -56.775 -0.675
-18.375 -55.425 -0.075
-17.025 -54.525 0.825
-17.025 -54.525 1.425
-7.875 -54.975 1.275
-4.725 -65.925 1.875
-15.675 -53.925 -0.525
-15.675 -53.925 1.875
-17.325 -54.675 0.975
-17.325 -54.675 0.225
-7.425 -55.275 0.225
-7.425 -55.275 1.275
-7.425 -55.275 0.375
-11.025 -53.625 -0.075
-21.075 -65.625 0.375
-13.725 -53.475 -0.375
-17.625 -54.825 0.075
-19.125 -68.625 1.275
-19.125 -68.625 1.425
-19.125 -68.625 1.125
-20.025 -67.575 -0.675
-18.975 -68.775 0.225
-18.975 -68.775 0.825
-18.975 -55.875 0.825
-19.425 -68.325 1.125
-18.825 -55.725 0.975
-20.775 -66.375 1.425
-16.875 -54.375 0.525
-16.575 -70.425 -2.925
-16.575 -70.425 -2.775
-16.575 -54.225 -0.075
-14.025 -53.475 0.225
-8.475 -54.525 -0.675
-6.975 -55.575 0.525
-18.675 -69.075 -0.525
-19.575 -56.475 -0.225
-19.575 -56.475 -0.075
-16.275 -54.075 1.575
-20.175 -67.425 -0.225
-7.725 -54.975 1.875
-19.725 -56.625 -0.225
-19.725 -56.625 -0.525
-14.925 -53.625 -5.475
-18.525 -55.425 -0.075
-17.475 -54.675 -0.375
-7.275 -55.275 0.525
-19.875 -56.775 -0.525
-17.775 -54.825 -0.525
-17.775 -54.825 -0.675
-17.025 -54.375 0.075
-20.025 -67.725 -0.675
-20.025 -67.725 2.325
-7.425 -55.125 0.075
-9.225 -54.075 0.825
-14.475 -53.475 0.525
-5.025 -57.825 1.725
-20.625 -66.825 0.225
-17.325 -54.525 -0.375
-19.275 -68.625 0.825
-6.375 -56.025 -0.525
-19.125 -68.775 1.425
-18.975 -68.925 0.825
-18.975 -68.925 0.225
-18.975 -55.725 0.825
-19.425 -56.175 0.975
-10.425 -53.625 0.225
-18.825 -55.575 0.975
-18.825 -55.575 -1.575
-7.575 -54.975 0.675
-20.175 -67.575 -0.225
-20.175 -67.575 -0.675
-5.925 -56.475 -0.375
-6.975 -55.425 1.125
-6.975 -55.425 0.375
-18.675 -55.425 -0.075
-21.825 -63.375 2.025
-20.775 -66.675 0.225
-16.575 -54.075 -0.075
-17.175 -54.375 -0.075
-19.875 -56.625 -0.675
-18.525 -55.275 -0.075
-20.325 -67.425 -0.675
-7.725 -54.825 1.725
-20.625 -66.975 0.225
-17.475 -54.525 2.325
-7.275 -55.125 0.675
-14.925 -53.475 0.825
-21.525 -65.025 0.075
-15.975 -53.775 3.675
-17.775 -54.675 0.225
-7.875 -54.675 2.625
-7.425 -54.975 0.675
-18.225 -54.975 0.375
-18.225 -54.975 1.125
-6.375 -55.875 -0.675
-19.275 -68.775 0.825
-19.275 -68.775 0.675
-6.525 -55.725 2.025
-17.025 -54.225 -0.525
-19.125 -55.725 1.275
-6.225 -56.025 0.075
-21.075 -66.225 -2.475
-18.975 -55.575 -1.125
-10.575 -53.475 0.225
-21.675 -64.575 1.725
-19.575 -56.175 0.975
-17.325 -54.375 1.275
-17.325 -54.375 1.125
-17.325 -54.375 -0.225
-17.325 -54.375 0.825
-17.325 -54.375 -0.525
-18.825 -55.425 0.975
-18.075 -54.825 0.075
-9.975 -53.625 -0.675
-15.675 -53.625 -0.375
-20.625 -67.125 0.225
-17.625 -54.525 0.075
-18.675 -69.375 0.225
-19.875 -56.475 -0.675
-6.975 -55.275 0.825
-18.675 -55.275 0.075
-16.125 -53.775 -0.975
-10.425 -53.475 0.225
-7.125 -55.125 0.075
-8.475 -54.225 0.375
-7.725 -54.675 0.825
-16.575 -70.725 -2.775
-10.875 -53.325 0.675
-20.175 -67.875 2.025
-20.175 -67.875 1.575
-18.375 -54.975 0.825
-4.875 -57.675 1.125
-17.475 -54.375 -0.375
-16.275 -53.775 1.275
-19.275 -68.925 1.275
-6.375 -55.725 1.575
-19.425 -68.775 0.225
-19.425 -55.875 1.275
-19.575 -68.625 3.225
-6.525 -55.575 1.725
-19.125 -55.575 3.525
-6.075 -56.025 -0.375
-6.075 -56.025 1.125
-6.075 -56.025 -0.525
-19.575 -56.025 1.125
-7.875 -54.525 -0.075
-20.325 -67.725 -0.525
-10.725 -53.325 -2.925
-10.725 -53.325 1.425
-10.725 -53.325 0.075
-18.225 -54.825 1.725
-5.925 -56.175 0.825
-18.975 -55.425 -1.125
-18.975 -55.425 1.275
-10.125 -53.475 -0.675
-17.025 -70.575 -2.775
-6.825 -55.275 0.675
-6.825 -55.275 0.225
-18.825 -55.275 0.975
-10.575 -53.325 -0.675
-20.475 -67.575 -3.675
-8.025 -54.375 0.075
-11.175 -53.175 0.675
-18.525 -69.675 0.675
-3.525 -62.175 -3.375
-7.125 -54.975 0.675
-21.825 -64.725 0.075
-20.625 -67.425 -0.075
-8.475 -54.075 0.375
-17.175 -54.075 -0.075
-6.075 -55.875 -1.275
-19.575 -55.875 1.725
-19.575 -55.875 1.125
-17.475 -54.225 -0.225
-17.475 -54.225 -0.825
-4.725 -57.675 2.175
-19.125 -55.425 1.275
-3.975 -65.325 5.475
-3.825 -59.775 -3.225
-18.975 -55.275 1.125
-20.475 -56.925 0.375
-20.775 -67.275 -0.075
-18.825 -55.125 0.075
-18.825 -69.525 0.075
-3.675 -60.225 0.675
-21.225 -66.525 0.825
-21.225 -66.525 -2.475
-18.675 -69.675 -0.525
-6.975 -54.975 1.725
-21.075 -66.825 -2.025
-11.475 -53.025 1.425
-20.625 -67.575 -0.375
-20.625 -67.575 -0.225
-8.025 -54.225 0.075
-3.525 -63.825 6.675
-10.575 -53.175 1.425
-19.425 -55.575 0.675
-19.425 -55.575 0.525
-19.575 -55.725 1.125
-9.525 -53.475 2.775
-4.875 -57.225 1.875
-16.125 -53.475 1.575
-5.925 -55.875 -1.125
-19.275 -55.425 1.125
-19.275 -55.425 1.575
-19.725 -68.775 -0.525
-19.725 -68.775 -0.075
-6.375 -55.425 0.525
-11.175 -53.025 -3.075
-11.175 -53.025 0.375
-19.875 -68.625 -0.525
-5.775 -56.025 0.225
-12.525 -52.875 0.525
-3.675 -59.925 0.075
-8.475 -53.925 0.375
-17.175 -53.925 0.525
-16.875 -70.875 -2.925
-12.225 -52.875 -2.025
-18.975 -55.125 1.275
-8.175 -54.075 -0.075
-17.475 -54.075 -0.075
-17.475 -54.075 2.175
-20.625 -67.725 -0.525
-18.825 -69.675 0.225
-6.825 -54.975 1.275
-20.325 -68.175 1.575
-18.675 -54.825 -0.375
-18.075 -54.375 2.775
-17.325 -53.925 0.075
-17.325 -53.925 -0.075
-8.025 -54.075 0.225
-17.625 -54.075 0.975
-19.725 -68.925 -0.525
-5.925 -55.725 -1.125
-19.425 -55.425 0.675
-5.775 -55.875 -0.375
-6.375 -55.275 0.525
-19.275 -55.275 0.975
-20.025 -56.025 -1.875
-19.125 -55.125 0.975
-19.125 -55.125 1.275
-3.525 -64.575 1.575
-15.075 -53.025 2.025
-7.725 -54.225 -0.375
-18.975 -54.975 1.125
-9.525 -53.325 -0.225
-16.125 -53.325 -1.275
-11.175 -52.875 -2.925
-17.175 -53.775 0.375
-3.225 -62.475 0.375
-18.825 -69.825 -3.975
-18.825 -69.825 -0.375
-20.325 -56.325 1.425
-3.225 -61.875 1.875
-18.225 -54.375 1.425
-3.975 -58.575 1.575
-3.225 -62.925 1.275
-12.225 -52.725 0.825
-22.275 -64.125 2.175
-11.025 -52.875 0.975
-7.875 -54.075 0.075
-21.975 -65.325 -3.675
-9.825 -53.175 2.625
-13.725 -52.725 0.525
-14.775 -52.875 2.325
-5.925 -55.575 -0.675
-19.425 -55.275 1.125
-17.025 -53.625 0.225
-18.525 -54.525 2.175
-17.325 -53.775 1.725
-6.375 -55.125 0.825
-6.375 -55.125 0.225
-6.375 -55.125 0.375
-6.375 -55.125 1.125
-6.375 -55.125 0.675
-5.625 -55.875 0.675
-19.275 -69.525 0.225
-3.225 -63.525 0.825
-19.125 -69.675 0.225
-3.375 -64.425 0.975
-6.525 -54.975 -0.225
-6.525 -54.975 2.325
-5.475 -56.025 1.125
-22.125 -65.025 0.675
-3.225 -60.975 -0.525
-20.775 -67.875 -0.225
-4.875 -67.875 -0.525
-7.725 -54.075 0.825
-17.925 -54.075 1.575
-17.925 -54.075 -0.525
-18.975 -69.825 0.075
-18.975 -69.825 0.225
-20.325 -56.175 0.825
-11.325 -52.725 0.525
-5.175 -68.325 1.875
-22.125 -65.175 -0.225
-8.775 -53.475 0.075
-16.875 -53.475 1.425
-17.475 -53.775 1.725
-4.725 -67.725 1.725
-4.725 -67.725 1.875
-18.225 -54.225 -1.575
-22.425 -63.975 0.225
-17.775 -70.725 -3.375
-3.075 -62.325 0.375
-16.575 -53.325 1.575
-3.375 -59.925 -0.075
-18.675 -54.525 1.275
-18.675 -54.525 2.025
-12.675 -52.575 1.125
-3.075 -62.175 0.375
-3.075 -62.625 0.375
-5.925 -55.425 0.675
-12.375 -52.575 0.825
-13.275 -52.575 0.375
-20.025 -68.925 -0.525
-3.225 -64.125 1.425
-11.025 -52.725 0.975
-22.425 -64.125 0.225
-6.225 -55.125 -2.925
-6.225 -55.125 -2.775
-6.225 -55.125 0.375
-19.425 -55.125 1.125
-13.425 -52.575 0.375
-22.125 -65.325 -0.375
-19.275 -69.675 0.225
-3.075 -63.075 0.375
-18.075 -54.075 -1.275
-13.575 -52.575 0.525
-6.375 -54.975 0.225
-20.775 -68.025 -0.225
-7.125 -54.375 -0.675
-3.075 -63.225 0.975
-19.125 -69.825 0.225
-17.325 -53.625 0.675
-17.325 -53.625 1.875
-17.325 -71.025 0.975
-8.625 -53.475 0.225
-10.875 -52.725 0.825
-3.075 -63.375 0.825
-16.725 -53.325 2.625
-18.975 -69.975 0.825
-18.975 -69.975 0.075
-5.175 -56.175 -0.975
-20.475 -56.175 0.825
-4.725 -67.875 2.175
-3.225 -64.425 0.975
-14.925 -52.725 -5.325
-14.925 -52.725 2.025
-7.725 -53.925 -3.675
-7.725 -53.925 0.675
-17.925 -53.925 1.425
-17.925 -53.925 2.175
-5.025 -68.325 -3.975
-20.625 -68.325 -0.525
-4.575 -67.725 1.725
-7.425 -54.075 -1.575
-18.225 -54.075 2.025
-18.225 -54.075 0.075
-15.075 -52.725 2.025
-3.075 -63.825 0.975
-4.125 -57.675 1.575
-5.925 -55.275 0.975
-5.925 -55.275 2.475
-5.775 -55.425 0.825
-19.875 -55.425 2.325
-8.775 -53.325 1.125
-20.775 -68.175 -0.375
-9.975 -52.875 0.225
-9.975 -52.875 1.725
-17.775 -53.775 -0.675
-17.775 -53.775 -0.375
-19.275 -69.825 0.225
-19.275 -69.825 0.375
-20.325 -55.875 1.275
-2.925 -62.325 0.375
-12.975 -52.425 0.975
-7.125 -54.225 -5.175
-13.125 -52.425 0.375
-4.425 -57.075 0.825
-18.075 -53.925 0.975
-18.075 -53.925 2.325
-18.075 -53.925 -0.675
-5.175 -68.625 0.825
-2.925 -62.775 1.425
-22.725 -61.875 -0.375
-5.175 -56.025 -1.125
-12.375 -52.425 0.825
-13.275 -52.425 0.375
-3.075 -64.125 0.975
-11.025 -52.575 0.225
-11.025 -52.575 0.975
-11.025 -52.575 -0.225
-14.625 -52.575 0.975
-12.225 -52.425 -2.325
-12.225 -52.425 0.225
-17.325 -71.175 1.125
-2.925 -63.075 0.375
-17.325 -53.475 0.675
-17.325 -53.475 0.225
-12.075 -52.425 0.225
-18.975 -70.125 0.675
-10.275 -52.725 -1.575
-10.275 -52.725 1.425
-3.225 -59.775 0.075
-18.975 -54.525 1.425
-17.625 -53.625 -0.825
-2.925 -63.225 0.525
-2.925 -63.225 0.375
-4.575 -67.875 1.875
-18.375 -54.075 0.525
-2.925 -63.375 0.675
-4.275 -57.225 -0.525
-7.725 -53.775 0.675
-18.825 -54.375 2.025
-9.675 -52.875 -0.675
-5.775 -69.375 -0.075
-2.925 -63.525 0.675
-10.125 -52.725 1.575
-10.125 -52.725 1.275
-5.925 -55.125 0.525
-5.925 -55.125 0.675
-9.225 -53.025 0.075
-11.625 -52.425 -0.225
-3.075 -64.425 0.825
-10.725 -52.575 0.675
-10.725 -52.575 -1.875
-10.725 -52.575 -3.375
-10.725 -52.575 1.875
-14.925 -52.575 0.975
-5.475 -55.575 0.675
-19.575 -54.975 -0.375
-19.575 -54.975 1.125
-4.425 -56.925 0.975
-18.225 -53.925 2.325
-5.325 -55.725 4.125
-19.425 -69.825 0.225
-19.425 -69.825 0.975
-4.725 -68.175 1.425
-18.675 -70.425 -6.525
-2.925 -63.675 0.375
-6.975 -54.225 -0.375
-18.675 -54.225 1.875
-8.475 -53.325 0.225
-8.175 -53.475 0.525
-17.475 -53.475 3.525
-17.475 -53.475 -0.825
-17.475 -53.475 -0.975
-17.475 -53.475 1.425
-10.575 -52.575 0.525
-10.575 -52.575 -0.375
-5.175 -55.875 2.775
-19.275 -54.675 1.125
-8.775 -53.175 0.525
-9.975 -52.725 -0.525
-9.975 -52.725 0.525
-5.025 -56.025 1.575
-18.525 -54.075 0.225
-18.525 -70.575 -0.675
-22.125 -58.575 0.075
-4.575 -68.025 1.725
-21.075 -68.025 0.075
-18.075 -53.775 0.675
-18.075 -53.775 0.075
-18.075 -53.775 1.275
-2.925 -63.975 -0.525
-10.425 -52.575 0.525
-2.775 -62.325 0.375
-12.825 -52.275 4.575
-12.825 -52.275 0.675
-6.675 -54.375 0.375
-18.975 -54.375 2.175
-20.775 -56.175 -0.675
-12.975 -52.275 0.225
-13.125 -52.275 0.225
-12.525 -52.275 0.075
-12.525 -52.275 -0.375
-9.825 -52.725 -0.225
-13.275 -52.275 0.225
-12.375 -52.275 -1.725
-8.325 -53.325 0.525
-17.325 -53.325 2.175
-17.325 -53.325 -0.825
-17.325 -53.325 0.675
-17.325 -53.325 1.575
-11.025 -52.425 0.075
-11.025 -52.425 -0.225
-14.625 -52.425 -0.375
-18.375 -70.725 -0.825
-21.225 -67.875 0.075
-17.625 -53.475 -0.825
-12.225 -52.275 0.225
-8.625 -53.175 0.525
-18.375 -53.925 0.675
-18.375 -53.925 0.225
-5.775 -55.125 0.375
-5.775 -55.125 2.025
-5.775 -55.125 2.175
-5.775 -55.125 0.975
-20.025 -55.275 -6.075
-2.775 -63.075 0.375
-10.275 -52.575 0.975
-12.075 -52.275 0.525
-19.725 -54.975 4.575
-19.725 -54.975 -0.225
-16.725 -53.025 -1.125
-2.925 -64.275 0.975
-5.325 -69.075 0.825
-10.875 -52.425 -2.175
-10.875 -52.425 -0.375
-10.875 -52.425 -3.525
-10.875 -52.425 -1.875
-14.775 -52.425 0.675
-22.425 -65.475 3.225
-9.675 -52.725 -0.675
-5.175 -55.725 -0.825
-20.475 -55.725 1.275
-22.425 -59.175 0.675
-6.225 -54.675 2.775
-19.425 -54.675 -0.825
-11.775 -52.275 0.075
-13.875 -52.275 0.675
-21.375 -67.725 0.525
-18.225 -53.775 1.125
-18.225 -53.775 -0.225
-18.225 -53.775 0.825
-6.975 -54.075 -0.225
-10.125 -52.575 -0.525
-10.125 -52.575 0.675
-10.125 -52.575 0.975
-10.125 -52.575 0.825
-3.075 -65.025 0.975
-3.075 -65.025 4.125
-22.575 -65.025 0.225
-22.575 -65.025 0.075
-3.075 -65.025 0.525
-2.925 -60.225 0.525
-10.725 -52.425 1.875
-19.275 -70.125 1.875
-2.775 -63.525 0.075
-11.625 -52.275 0.675
-17.475 -53.325 -0.675
-17.475 -53.325 1.275
-8.475 -53.175 0.675
-8.475 -53.175 0.225
-8.475 -53.175 0.375
-17.775 -53.475 0.375
-6.525 -54.375 0.225
-19.125 -54.375 0.825
-8.775 -53.025 0.675
-21.225 -68.025 0.075
-7.125 -53.925 0.825
-2.925 -60.075 0.075
-2.925 -60.075 0.225
-2.925 -60.075 0.675
-10.575 -52.425 -1.575
-10.575 -52.425 1.425
-10.575 -52.425 2.025
-10.575 -52.425 -0.375
-3.075 -65.175 0.675
-9.975 -52.575 0.525
-9.975 -52.575 -0.525
-22.575 -59.475 -3.825
-2.775 -63.825 -0.525
-7.575 -53.625 0.075
-18.075 -53.625 0.825
-18.075 -53.625 0.975
-18.075 -53.625 -0.075
-18.075 -53.625 0.375
-18.075 -53.625 0.075
-22.275 -66.075 1.725
-9.075 -52.875 0.225
-16.575 -52.875 -0.975
-16.575 -52.875 5.025
-4.725 -68.475 2.325
-18.975 -54.225 1.125
-18.975 -54.225 2.325
-5.625 -55.125 0.375
-20.025 -55.125 1.125
-11.175 -52.275 -0.225
-19.725 -54.825 -0.825
-21.375 -67.875 0.825
-21.375 -67.875 0.525
-3.675 -66.825 -0.375
-17.325 -53.175 2.025
-17.325 -53.175 -0.975
-8.025 -53.325 -0.375
-17.625 -53.325 3.375
-12.825 -52.125 -0.825
-2.625 -62.475 0.525
-4.575 -68.325 2.175
-9.825 -52.575 1.125
-9.825 -52.575 -0.075
-18.825 -54.075 0.975
-18.825 -54.075 1.575
-18.825 -54.075 2.025
-9.825 -52.575 0.825
-9.825 -52.575 -0.225
-9.825 -52.575 0.225
-9.375 -52.725 0.375
-12.975 -52.125 0.675
-12.675 -52.125 0.075
-12.975 -52.125 0.225
-13.125 -52.125 -1.425
-12.525 -52.125 0.075
-17.025 -53.025 0.825
-13.275 -52.125 0.075
-11.025 -52.275 2.175
-11.025 -52.275 0.375
-11.025 -52.275 0.075
-14.625 -52.275 -0.375
-6.225 -54.525 0.825
-13.425 -52.125 0.375
-12.225 -52.125 0.225
-3.375 -66.225 0.675
-16.725 -52.875 -1.125
-10.275 -52.425 0.075
-2.625 -63.075 0.525
-12.075 -52.125 0.225
-12.075 -52.125 -0.525
-18.675 -70.725 -0.675
-21.225 -68.175 0.675
-2.775 -64.275 0.825
-2.775 -64.275 0.975
-4.875 -55.875 1.125
-4.875 -55.875 1.425
-19.275 -70.275 0.225
-19.275 -70.275 0.075
-6.375 -54.375 0.225
-10.875 -52.275 0.525
-10.875 -52.275 0.825
-10.875 -52.275 0.225
-14.775 -52.275 0.525
-21.525 -67.725 -2.175
-2.625 -61.425 4.275
-11.925 -52.125 0.225
-18.225 -71.025 -0.975
-18.225 -71.025 0.525
-18.225 -53.625 -0.525
-18.225 -53.625 -0.225
-9.675 -52.575 0.675
-9.675 -52.575 0.375
-9.225 -52.725 -0.075
-9.225 -52.725 0.375
-2.625 -63.375 0.825
-2.625 -63.375 0.525
-11.775 -52.125 0.375
-13.875 -52.125 1.875
-2.925 -65.025 0.675
-2.925 -65.025 0.375
-19.125 -54.225 -0.675
-4.725 -56.025 0.675
-10.125 -52.425 -0.525
-15.525 -52.425 -1.875
-2.775 -64.425 0.975
-10.725 -52.275 0.825
-10.725 -52.275 0.075
-17.175 -53.025 -1.275
-17.175 -53.025 -1.125
-14.925 -52.275 -0.225
-14.925 -52.275 0.675
-4.275 -56.625 -0.375
-21.375 -68.025 0.675
-18.525 -53.775 0.225
-8.775 -52.875 -0.375
-8.775 -52.875 0.375
-16.875 -52.875 0.675
-20.025 -69.675 3.225
-20.025 -54.975 1.575
-5.625 -54.975 -4.125
-20.025 -54.975 -0.675
-20.025 -54.975 0.825
-14.175 -52.125 0.075
-14.175 -52.125 0.225
-14.175 -52.125 -2.475
-11.475 -52.125 0.675
-11.475 -52.125 0.075
-18.075 -71.175 0.675
-21.075 -68.475 0.075
-18.075 -53.475 1.875
-18.975 -70.575 0.675
-18.075 -53.475 0.075
-18.075 -53.475 0.525
-5.325 -69.375 1.125
-5.325 -69.375 0.675
-9.525 -52.575 1.425
-9.525 -52.575 1.725
-22.575 -65.625 -1.125
-19.875 -54.825 -0.075
-19.875 -54.825 -0.225
-10.575 -52.275 0.225
-2.925 -65.175 0.975
-5.925 -54.675 -0.975
-9.975 -52.425 -0.525
-9.975 -52.425 0.825
-9.975 -52.425 1.275
-3.225 -66.075 0.975
-16.575 -52.725 -0.525
-9.075 -52.725 0.525
-9.075 -52.725 -0.225
-2.625 -63.825 -0.375
-14.325 -52.125 0.375
-5.025 -69.075 1.725
-5.025 -69.075 1.875
-18.375 -53.625 0.075
-18.375 -71.025 -0.825
-18.825 -70.725 0.225
-18.825 -53.925 0.975
-8.325 -53.025 0.225
-2.625 -63.975 0.675
-14.475 -52.125 -0.075
-14.475 -52.125 -0.825
-11.175 -52.125 0.525
-11.175 -52.125 0.825
-10.425 -52.275 0.075
-10.425 -52.275 0.525
-3.375 -66.525 0.075
-8.625 -52.875 0.675
-9.375 -52.575 0.975
-9.375 -52.575 0.525
-9.825 -52.425 0.975
-9.825 -52.425 -0.375
-9.825 -52.425 -0.075
-9.825 -52.425 0.375
-12.825 -51.975 0.675
-12.825 -51.975 0.075
-2.475 -62.625 0.675
-13.125 -51.975 0.225
