# .PCD v0.7 - Point Cloud Data file format
VERSION 0.7
FIELDS x y z
SIZE 4 4 4
TYPE F F F
COUNT 1 1 1
WIDTH 2048
HEIGHT 1
VIEWPOINT 0 0 0 1 0 0 0
POINTS 2048
DATA ascii
-35.925 -64.425 -0.825
-34.425 -63.075 -5.775
-34.425 -62.475 -0.375
-34.425 -62.175 0.675
-34.575 -61.875 -0.525
-35.475 -61.575 1.425
-33.975 -62.025 -0.525
-34.275 -61.725 -1.125
-34.275 -61.725 -1.275
-33.975 -61.725 -1.125
-33.975 -61.425 1.725
-33.975 -61.425 -1.275
-34.575 -61.125 2.325
-33.825 -61.425 1.425
-34.275 -61.125 1.875
-34.875 -60.825 1.275
-34.875 -60.675 0.975
-33.975 -60.975 1.725
-34.725 -60.675 1.125
-35.625 -60.375 1.275
-34.575 -60.525 0.825
-33.375 -60.975 -2.475
-35.925 -60.225 1.425
-35.625 -60.225 1.875
-35.025 -59.925 1.125
-35.325 -59.775 1.425
-32.625 -60.825 -2.325
-32.775 -60.675 -1.275
-35.325 -59.625 1.425
-32.475 -60.825 -2.325
-34.725 -59.625 1.125
-35.625 -59.475 1.275
-35.475 -59.475 -2.475
-35.325 -59.475 1.425
-35.775 -59.325 1.725
-35.325 -59.325 1.275
-35.325 -59.175 1.125
-33.975 -59.475 1.425
-35.175 -59.175 0.975
-35.175 -59.175 -2.625
-34.875 -59.175 -2.775
-34.875 -59.175 -2.625
-35.175 -59.025 0.975
-34.875 -59.025 -2.925
-33.375 -59.475 1.725
-34.725 -59.025 0.225
-33.825 -59.175 1.725
-34.875 -58.875 0.225
-33.675 -59.175 1.425
-34.575 -58.875 -2.775
-30.975 -61.125 1.275
-30.975 -61.125 1.425
-30.525 -61.725 1.275
-38.475 -59.175 0.525
-30.525 -61.575 -0.825
-34.425 -58.725 -0.075
-30.525 -61.425 -0.825
-30.975 -60.825 2.175
-32.775 -59.325 -2.775
-32.775 -59.325 -2.625
-32.775 -59.325 -2.925
-33.675 -58.875 -6.075
-30.525 -61.275 -0.825
-30.825 -60.825 0.675
-32.325 -59.475 0.375
-38.475 -58.875 0.675
-38.625 -58.875 0.675
-37.875 -58.575 0.975
-37.875 -58.575 1.425
-38.325 -58.725 0.225
-35.775 -58.275 -1.275
-35.775 -58.275 -0.975
-35.625 -58.275 1.575
-32.775 -59.025 -1.875
-38.475 -58.725 0.975
-38.175 -58.575 0.375
-38.175 -58.575 1.425
-33.675 -58.575 1.125
-34.875 -58.275 -2.325
-34.875 -58.275 -2.175
-34.875 -58.275 -2.025
-38.625 -58.725 0.525
-35.775 -58.125 1.425
-35.775 -58.125 -0.975
-35.775 -58.125 -1.125
-35.625 -58.125 -3.075
-35.625 -58.125 -0.675
-34.425 -58.275 -2.025
-34.425 -58.275 -2.925
-38.025 -58.425 0.825
-30.525 -60.675 1.725
-30.525 -60.675 -0.525
-30.075 -61.275 -0.975
-34.875 -58.125 -2.175
-34.875 -58.125 -2.025
-33.525 -58.425 1.425
-33.525 -58.425 1.125
-38.325 -58.425 0.825
-33.975 -58.275 -1.575
-35.625 -57.975 -1.125
-34.425 -58.125 -1.125
-35.475 -57.975 -1.125
-33.825 -58.275 -1.575
-33.825 -58.275 -2.775
-38.025 -58.275 0.825
-35.325 -57.975 -0.375
-35.325 -57.975 -1.425
-30.225 -60.825 1.425
-34.275 -58.125 -1.275
-34.275 -58.125 -1.125
-35.025 -57.975 -1.725
-38.175 -58.275 1.125
-34.125 -58.125 -1.275
-33.225 -58.425 -1.275
-30.375 -60.525 -0.225
-33.525 -58.275 0.075
-33.525 -58.275 0.975
-33.975 -58.125 -2.475
-33.975 -58.125 -1.575
-32.775 -58.575 -0.975
-34.575 -57.975 -2.025
-34.425 -57.975 -1.875
-33.825 -58.125 -1.575
-30.525 -60.225 1.425
-35.325 -57.825 -1.275
-35.175 -57.825 -3.225
-35.175 -57.825 -1.275
-35.175 -57.825 -1.425
-35.175 -57.825 -1.725
-35.175 -57.825 -0.975
-34.275 -57.975 -1.275
-32.625 -58.575 -1.125
-32.925 -58.425 1.275
-35.025 -57.825 -1.875
-35.025 -57.825 -2.175
-35.025 -57.825 -1.725
-38.175 -58.125 0.525
-33.675 -58.125 -1.575
-30.225 -60.525 -0.075
-34.875 -57.825 -3.375
-34.125 -57.975 0.975
-33.525 -58.125 -1.575
-32.775 -58.425 -1.275
-33.975 -57.975 1.275
-33.975 -57.975 -1.125
-37.875 -57.975 0.225
-30.375 -60.225 -0.675
-30.375 -60.225 -0.525
-34.425 -57.825 -2.325
-33.825 -57.975 -1.125
-33.825 -57.975 -1.275
-33.375 -58.125 1.575
-38.025 -57.975 1.125
-33.375 -58.125 -1.725
-35.325 -57.675 -1.425
-35.325 -57.675 -1.275
-32.625 -58.425 1.275
-32.325 -58.575 -1.575
-34.275 -57.825 -1.875
-34.275 -57.825 3.825
-35.175 -57.675 -0.825
-33.675 -57.975 0.825
-33.675 -57.975 -1.275
-38.175 -57.975 -0.075
-33.675 -57.975 -1.875
-38.175 -57.975 0.375
-35.025 -57.675 -1.425
-33.225 -58.125 -1.725
-33.225 -58.125 -1.425
-34.125 -57.825 -1.725
-34.125 -57.825 -1.425
-34.875 -57.675 -2.025
-30.525 -59.925 -0.525
-33.525 -57.975 -1.725
-32.475 -58.425 -0.825
-34.725 -57.675 -2.025
-32.775 -58.275 -0.825
-32.775 -58.275 -1.275
-30.225 -60.225 0.975
-33.075 -58.125 -1.425
-34.575 -57.675 -1.725
-33.825 -57.825 0.525
-38.025 -57.825 0.225
-38.025 -57.825 0.375
-34.425 -57.675 -2.025
-32.625 -58.275 -1.275
-35.475 -57.525 -0.975
-35.325 -57.525 -0.975
-35.325 -57.525 -1.425
-35.325 -57.525 1.275
-31.575 -58.875 -2.025
-30.375 -59.925 -0.675
-35.175 -57.525 -1.875
-35.175 -57.525 -0.375
-35.175 -57.525 -0.525
-35.175 -57.525 -1.275
-30.975 -59.325 -0.825
-33.225 -57.975 -1.425
-35.025 -57.525 -1.725
-35.025 -57.525 -0.675
-35.025 -57.525 -0.825
-35.025 -57.525 -1.425
-30.075 -60.225 1.725
-33.525 -57.825 -0.675
-33.525 -57.825 -0.975
-29.925 -60.375 0.825
-34.725 -57.525 -1.875
-33.975 -57.675 -2.625
-33.975 -57.675 -1.425
-33.975 -57.675 -1.275
-33.975 -57.675 -3.525
-29.775 -60.525 2.025
-34.575 -57.525 -2.025
-33.375 -57.825 -1.425
-33.825 -57.675 -3.075
-38.025 -57.675 0.525
-34.425 -57.525 -1.875
-34.425 -57.525 -3.375
-32.925 -57.975 -1.575
-32.925 -57.975 -1.425
-35.475 -57.375 -0.825
-35.325 -57.375 -1.425
-35.325 -57.375 -2.325
-34.275 -57.525 -3.225
-35.175 -57.375 -0.975
-35.025 -57.375 -0.975
-35.025 -57.375 -1.425
-35.025 -57.375 0.225
-34.875 -57.375 -0.675
-34.875 -57.375 0.375
-34.875 -57.375 -0.975
-34.725 -57.375 -3.375
-30.225 -59.775 -0.375
-29.925 -60.075 0.975
-30.975 -59.025 -0.975
-33.375 -57.675 -1.425
-32.625 -57.975 -0.975
-32.025 -58.275 -0.375
-32.925 -57.825 -1.275
-31.125 -58.875 -1.125
-35.325 -57.225 -1.425
-35.325 -57.225 -2.175
-33.225 -57.675 -1.275
-38.175 -57.525 0.375
-30.525 -59.325 -0.825
-35.025 -57.225 -1.425
-32.175 -58.125 0.375
-32.775 -57.825 -1.125
-32.775 -57.825 1.575
-32.775 -57.825 1.875
-31.425 -58.575 0.375
-29.475 -60.525 -1.425
-33.075 -57.675 -1.425
-34.725 -57.225 -1.425
-32.625 -57.825 -1.125
-33.825 -57.375 -2.025
-34.425 -57.225 -2.325
-30.375 -59.325 -0.225
-30.075 -59.625 -0.375
-30.525 -59.175 -0.825
-35.325 -57.075 -1.425
-34.275 -57.225 -2.175
-33.675 -57.375 -2.025
-38.175 -57.375 0.225
-38.175 -57.375 0.825
-38.175 -57.375 0.675
-35.175 -57.075 -1.575
-35.175 -57.075 -1.425
-31.425 -58.425 1.425
-32.775 -57.675 -2.025
-35.025 -57.075 -2.175
-35.025 -57.075 -2.025
-33.525 -57.375 -2.025
-34.875 -57.075 -2.025
-34.875 -57.075 -1.875
-34.725 -57.075 -1.125
-34.725 -57.075 -2.025
-33.975 -57.225 -2.025
-33.975 -57.225 0.525
-33.975 -57.225 -1.425
-32.325 -57.825 1.425
-32.025 -57.975 1.275
-34.575 -57.075 -2.325
-33.375 -57.375 0.225
-29.925 -59.625 0.075
-30.525 -59.025 -0.675
-30.525 -59.025 -0.825
-38.025 -57.225 0.075
-32.925 -57.525 -1.725
-35.475 -56.925 0.825
-36.375 -56.925 1.275
-32.175 -57.825 1.425
-33.675 -57.225 -0.975
-38.175 -57.225 0.525
-34.275 -57.075 0.075
-32.475 -57.675 2.025
-32.775 -57.525 -1.875
-35.175 -56.925 1.575
-35.175 -56.925 -1.575
-35.175 -56.925 -3.225
-35.175 -56.925 -2.625
-34.125 -57.075 -0.075
-34.125 -57.075 -0.525
-31.575 -58.125 0.975
-32.625 -57.525 -0.525
-32.625 -57.525 -0.675
-30.675 -58.725 -1.575
-34.575 -56.925 -2.175
-30.825 -58.575 -1.575
-33.825 -57.075 0.225
-33.825 -57.075 0.675
-38.025 -57.075 0.525
-38.025 -57.075 0.675
-34.425 -56.925 0.675
-32.175 -57.675 -0.225
-32.475 -57.525 1.125
-33.675 -57.075 0.675
-38.175 -57.075 0.075
-35.475 -56.775 0.525
-34.275 -56.925 -1.575
-35.325 -56.775 0.675
-35.325 -56.775 0.975
-29.925 -59.325 0.975
-35.175 -56.775 0.975
-30.525 -58.725 -1.425
-34.125 -56.925 0.075
-35.025 -56.775 1.275
-35.025 -56.775 0.975
-39.525 -57.525 -0.375
-32.025 -57.675 1.575
-33.975 -56.925 -0.975
-30.825 -58.425 1.725
-33.375 -57.075 -1.575
-31.425 -57.975 1.425
-33.825 -56.925 0.675
-38.025 -56.925 0.225
-29.775 -59.325 0.825
-34.425 -56.775 0.375
-31.875 -57.675 1.725
-31.875 -57.675 1.575
-35.625 -56.625 1.125
-38.175 -56.925 0.675
-33.675 -56.925 -1.875
-30.525 -58.575 0.825
-31.575 -57.825 1.575
-34.275 -56.775 -2.775
-34.275 -56.775 -1.725
-35.325 -56.625 0.525
-35.325 -56.625 1.575
-35.325 -56.625 -2.025
-35.325 -56.625 0.975
-34.125 -56.775 -1.425
-34.125 -56.775 -2.175
-35.025 -56.625 -2.475
-33.525 -56.925 -1.875
-32.325 -57.375 2.025
-30.825 -58.275 1.425
-32.625 -57.225 -0.825
-33.975 -56.775 -1.425
-29.925 -59.025 0.675
-34.725 -56.625 -1.725
-34.725 -56.625 -2.625
-32.925 -57.075 0.825
-33.825 -56.775 -2.325
-38.025 -56.775 0.525
-32.175 -57.375 1.275
-34.425 -56.625 -2.025
-38.175 -56.775 0.225
-34.275 -56.625 -2.025
-35.325 -56.475 -2.175
-35.325 -56.475 0.525
-30.825 -58.125 0.225
-32.025 -57.375 1.725
-33.075 -56.925 0.675
-34.125 -56.625 -1.575
-34.125 -56.625 0.975
-33.525 -56.775 0.825
-30.075 -58.725 -1.725
-34.875 -56.475 0.375
-33.975 -56.625 -2.175
-33.975 -56.625 -1.725
-33.975 -56.625 -1.125
-33.975 -56.625 -1.575
-34.725 -56.475 0.525
-34.725 -56.475 -1.875
-34.725 -56.475 0.375
-33.375 -56.775 -1.725
-32.175 -57.225 2.325
-32.475 -57.075 -0.825
-34.425 -56.475 -2.175
-33.225 -56.775 0.825
-33.225 -56.775 -1.575
-38.175 -56.625 0.075
-35.925 -56.325 0.675
-35.625 -56.325 0.975
-35.625 -56.325 0.825
-30.075 -58.575 0.675
-30.075 -58.575 1.575
-34.275 -56.475 -2.175
-35.475 -56.325 0.525
-36.525 -56.325 2.775
-35.175 -56.325 -0.825
-35.175 -56.325 0.225
-34.125 -56.475 -1.575
-35.025 -56.325 -1.125
-30.525 -58.125 1.275
-30.675 -57.975 -0.075
-32.175 -57.075 0.675
-34.575 -56.325 -2.025
-33.825 -56.475 -1.875
-29.925 -58.575 0.825
-33.225 -56.625 -1.725
-31.275 -57.525 0.825
-34.425 -56.325 -1.275
-34.425 -56.325 -1.425
-30.225 -58.275 1.275
-38.175 -56.475 0.825
-38.175 -56.475 0.675
-35.775 -56.175 0.675
-34.275 -56.325 -1.425
-35.625 -56.175 0.675
-40.125 -57.225 0.975
-35.475 -56.175 -2.175
-35.475 -56.175 0.525
-35.475 -56.175 0.675
-30.525 -57.975 -0.375
-33.525 -56.475 -1.275
-35.175 -56.175 0.225
-35.175 -56.175 -0.825
-34.125 -56.325 -1.575
-35.025 -56.175 -0.375
-35.025 -56.175 -0.825
-29.625 -58.725 -0.525
-34.875 -56.175 0.375
-34.875 -56.175 -0.375
-34.875 -56.175 -0.825
-31.875 -57.075 0.525
-31.875 -57.075 1.425
-33.375 -56.475 -1.425
-34.725 -56.175 -1.725
-33.825 -56.325 -1.875
-33.825 -56.325 -2.175
-34.575 -56.175 -2.025
-34.575 -56.175 -1.275
-34.575 -56.175 -1.875
-34.425 -56.175 -1.275
-33.675 -56.325 -1.875
-30.975 -57.525 0.675
-40.125 -57.075 0.675
-30.525 -57.825 1.275
-35.775 -56.025 0.675
-40.425 -57.225 1.125
-38.775 -56.475 -0.525
-36.525 -56.025 -0.525
-33.525 -56.325 -1.425
-34.125 -56.175 -0.675
-35.025 -56.025 -1.725
-35.025 -56.025 -2.475
-31.875 -56.925 0.825
-34.875 -56.025 -1.425
-34.875 -56.025 -1.125
-34.875 -56.025 -1.575
-30.225 -57.975 0.825
-30.225 -57.975 1.275
-33.375 -56.325 -1.425
-33.375 -56.325 -1.725
-30.825 -57.525 0.675
-34.725 -56.025 -0.525
-34.725 -56.025 -0.975
-34.725 -56.025 -0.825
-34.725 -56.025 -1.275
-34.575 -56.025 -2.025
-34.575 -56.025 -0.825
-33.225 -56.325 -1.725
-34.425 -56.025 -1.875
-37.425 -56.025 0.825
-33.675 -56.175 -2.025
-38.175 -56.175 0.825
-31.425 -57.075 2.475
-29.925 -58.125 1.575
-37.575 -56.025 0.825
-35.625 -55.875 0.675
-35.475 -55.875 -1.575
-35.475 -55.875 -2.325
-36.525 -55.875 2.775
-35.325 -55.875 -1.725
-35.325 -55.875 0.675
-33.525 -56.175 -1.575
-34.125 -56.025 0.375
-34.125 -56.025 -2.325
-34.125 -56.025 -1.125
-35.175 -55.875 -1.425
-35.175 -55.875 -1.875
-38.925 -56.325 -0.675
-32.925 -56.325 0.975
-33.975 -56.025 -1.725
-31.275 -57.075 0.825
-30.375 -57.675 -0.525
-33.375 -56.175 -1.125
-33.375 -56.175 -0.975
-33.375 -56.175 -2.025
-33.375 -56.175 -1.875
-34.725 -55.875 -2.475
-34.725 -55.875 0.525
-34.725 -55.875 -1.875
-30.525 -57.525 -0.375
-30.525 -57.525 1.425
-33.825 -56.025 -1.875
-38.025 -56.025 0.525
-38.625 -56.175 -0.825
-37.425 -55.875 0.825
-33.675 -56.025 -1.575
-38.175 -56.025 0.525
-34.275 -55.875 -1.725
-32.625 -56.325 0.825
-38.325 -56.025 0.525
-35.325 -55.725 0.525
-35.325 -55.725 0.825
-35.325 -55.725 -1.275
-36.525 -55.725 3.075
-35.325 -55.725 -1.725
-34.125 -55.875 0.375
-35.025 -55.725 -2.325
-35.025 -55.725 -1.575
-33.375 -56.025 -3.375
-30.525 -57.375 0.675
-30.525 -57.375 0.975
-33.825 -55.875 0.375
-31.725 -56.625 0.525
-30.075 -57.675 0.675
-30.075 -57.675 1.725
-30.075 -57.675 1.125
-32.775 -56.175 0.825
-34.575 -55.725 -1.725
-37.275 -55.725 0.975
-30.675 -57.225 0.525
-30.675 -57.225 -0.375
-33.675 -55.875 -2.025
-30.825 -57.075 0.675
-34.275 -55.725 -2.025
-34.275 -55.725 0.375
-36.375 -55.575 -0.525
-35.475 -55.575 0.525
-34.125 -55.725 -0.825
-34.125 -55.725 -2.025
-35.175 -55.575 -0.675
-35.025 -55.575 -0.225
-35.025 -55.575 -0.975
-35.025 -55.575 -0.375
-35.025 -55.575 -0.825
-33.975 -55.725 -1.725
-33.975 -55.725 -0.975
-34.875 -55.575 -0.825
-30.075 -57.525 2.025
-34.725 -55.575 0.825
-33.825 -55.725 -1.875
-38.025 -55.725 0.825
-32.775 -56.025 -0.825
-30.225 -57.375 0.075
-34.425 -55.575 1.275
-33.675 -55.725 0.975
-38.175 -55.725 1.125
-30.825 -56.925 -1.275
-30.375 -57.225 -0.525
-30.375 -57.225 -1.125
-30.375 -57.225 -1.725
-30.375 -57.225 -3.675
-30.375 -57.225 -0.375
-32.625 -56.025 -0.675
-34.275 -55.575 0.225
-33.525 -55.725 -1.725
-33.525 -55.725 -1.425
-30.525 -57.075 -0.825
-30.525 -57.075 -2.325
-35.475 -55.425 0.525
-35.325 -55.425 -1.275
-30.975 -56.775 0.375
-32.925 -55.875 -7.725
-35.175 -55.425 0.675
-35.175 -55.425 -0.675
-30.075 -57.375 1.725
-32.475 -56.025 -0.825
-35.025 -55.425 -0.675
-33.375 -55.725 -1.425
-33.975 -55.575 0.675
-30.675 -56.925 -1.575
-30.225 -57.225 -1.875
-30.225 -57.225 1.275
-31.425 -56.475 1.575
-34.725 -55.425 -0.675
-33.825 -55.575 0.825
-33.225 -55.725 0.525
-34.575 -55.425 -0.675
-30.375 -57.075 -2.325
-30.825 -56.775 -0.675
-30.825 -56.775 -0.525
-33.675 -55.575 0.825
-38.175 -55.575 0.375
-34.425 -55.425 0.375
-33.075 -55.725 -2.025
-33.075 -55.725 0.525
-32.625 -55.875 -1.875
-34.275 -55.425 -1.125
-34.275 -55.425 0.375
-34.275 -55.425 -0.825
-34.275 -55.425 0.225
-34.275 -55.425 -0.975
-33.525 -55.575 -1.575
-30.075 -57.225 1.275
-30.075 -57.225 -2.475
-30.975 -56.625 0.225
-38.325 -55.575 0.675
-38.325 -55.575 1.125
-35.775 -55.275 0.375
-36.075 -55.275 0.825
-36.075 -55.275 -3.375
-35.325 -55.275 0.525
-35.325 -55.275 -1.125
-35.325 -55.275 0.675
-38.925 -55.725 -0.975
-32.925 -55.725 0.975
-30.675 -56.775 -0.825
-36.825 -55.275 -0.825
-36.975 -55.275 0.675
-36.975 -55.275 -1.575
-30.825 -56.625 -0.225
-33.225 -55.575 -1.875
-38.175 -55.425 0.675
-38.175 -55.425 0.375
-32.625 -55.725 0.975
-30.075 -57.075 0.825
-33.525 -55.425 0.975
-33.525 -55.425 -1.425
-33.525 -55.425 -2.025
-38.325 -55.425 0.825
-35.925 -55.125 0.525
-35.775 -55.125 0.375
-30.225 -56.925 -1.875
-36.225 -55.125 0.675
-35.475 -55.125 0.675
-32.925 -55.575 0.975
-38.925 -55.575 -1.575
-34.125 -55.275 -0.975
-35.325 -55.125 -0.375
-32.475 -55.725 0.825
-33.375 -55.425 1.125
-33.375 -55.425 0.975
-35.025 -55.125 0.075
-36.825 -55.125 -0.675
-33.975 -55.275 -0.375
-34.875 -55.125 0.075
-32.325 -55.725 1.125
-33.225 -55.425 -1.875
-33.825 -55.275 -1.125
-38.025 -55.275 0.525
-29.325 -57.525 0.525
-33.675 -55.275 0.975
-38.175 -55.275 0.675
-34.425 -55.125 0.525
-32.175 -55.725 -3.525
-30.675 -56.475 -1.125
-34.275 -55.125 -0.675
-33.525 -55.275 0.975
-35.925 -54.975 1.125
-35.925 -54.975 0.825
-35.775 -54.975 0.675
-36.075 -54.975 0.225
-35.625 -54.975 0.525
-38.925 -55.425 -0.525
-35.475 -54.975 0.675
-31.425 -56.025 -2.175
-31.425 -56.025 1.275
-36.525 -54.975 -0.525
-35.325 -54.975 -0.675
-35.325 -54.975 -0.075
-35.325 -54.975 -0.525
-35.175 -54.975 0.825
-30.825 -56.325 -0.375
-35.025 -54.975 -0.525
-33.975 -55.125 -1.125
-34.875 -54.975 -0.525
-38.025 -55.125 0.225
-38.025 -55.125 0.675
-34.725 -54.975 -1.125
-31.575 -55.875 -2.025
-31.575 -55.875 -1.575
-34.575 -54.975 -2.025
-30.975 -56.175 -1.275
-33.075 -55.275 -1.125
-31.425 -55.875 -1.125
-35.925 -54.825 -1.725
-35.775 -54.825 0.525
-35.775 -54.825 1.125
-32.925 -55.275 1.125
-35.625 -54.825 0.525
-35.475 -54.825 -0.525
-35.475 -54.825 0.525
-34.125 -54.975 -1.125
-35.175 -54.825 -1.275
-35.175 -54.825 0.075
-35.175 -54.825 -0.525
-30.525 -56.325 0.225
-36.825 -54.825 -1.575
-32.775 -55.275 -2.025
-32.775 -55.275 -1.725
-34.875 -54.825 -7.875
-36.975 -54.825 -1.425
-33.225 -55.125 -1.875
-31.275 -55.875 -0.675
-38.025 -54.975 0.375
-34.725 -54.825 -1.125
-30.675 -56.175 -0.975
-32.625 -55.275 1.125
-33.075 -55.125 -0.975
-37.425 -54.825 -2.175
-30.375 -56.325 1.125
-31.425 -55.725 -0.675
-31.125 -55.875 -0.525
-38.325 -54.975 0.675
-32.475 -55.275 -1.425
-30.825 -56.025 -1.125
-36.075 -54.675 -0.075
-35.625 -54.675 0.375
-34.125 -54.825 0.525
-34.125 -54.825 -1.125
-35.475 -54.675 0.675
-30.525 -56.175 0.975
-30.525 -56.175 -1.275
-35.325 -54.675 -1.125
-35.325 -54.675 -0.375
-33.375 -54.975 -0.825
-36.675 -54.675 -1.425
-35.175 -54.675 0.225
-32.775 -55.125 1.125
-32.775 -55.125 -1.725
-35.025 -54.675 -1.725
-31.275 -55.725 -1.425
-30.225 -56.325 -2.775
-31.575 -55.575 -2.625
-30.975 -55.875 1.125
-33.225 -54.975 -0.525
-33.225 -54.975 -1.875
-30.675 -56.025 0.825
-37.125 -54.675 -1.275
-32.625 -55.125 -1.875
-32.625 -55.125 -1.275
-34.575 -54.675 -0.975
-34.575 -54.675 -0.075
-37.275 -54.675 -1.725
-29.925 -56.475 0.675
-38.175 -54.825 0.825
-33.075 -54.975 1.125
-30.375 -56.175 0.975
-30.375 -56.175 1.575
-29.325 -56.925 -2.175
-34.425 -54.675 -0.525
-30.825 -55.875 0.975
-33.525 -54.825 0.375
-34.275 -54.675 -0.825
-34.275 -54.675 0.675
-37.575 -54.675 1.125
-32.475 -55.125 -1.425
-32.475 -55.125 -1.575
-30.525 -56.025 -1.125
-29.625 -56.625 -4.275
-35.925 -54.525 0.975
-35.925 -54.525 -0.975
-32.025 -55.275 -1.275
-36.525 -54.525 -1.875
-30.225 -56.175 -0.225
-30.225 -56.175 0.975
-32.775 -54.975 -1.725
-33.975 -54.675 -1.425
-32.325 -55.125 -1.575
-32.325 -55.125 -1.275
-36.825 -54.525 -1.875
-34.725 -54.525 -1.275
-30.375 -56.025 -1.425
-30.375 -56.025 -2.025
-32.625 -54.975 -1.725
-32.175 -55.125 -1.425
-29.475 -56.625 -2.025
-29.475 -56.625 -1.875
-38.175 -54.675 0.675
-30.825 -55.725 1.275
-34.425 -54.525 -0.375
-37.425 -54.525 1.125
-30.075 -56.175 0.975
-29.625 -56.475 -2.475
-29.625 -56.475 -1.875
-29.625 -56.475 0.375
-32.475 -54.975 -1.425
-32.475 -54.975 -0.975
-32.025 -55.125 -2.025
-35.925 -54.375 -0.975
-35.775 -54.375 -0.675
-30.225 -56.025 -1.875
-30.225 -56.025 1.125
-35.625 -54.375 0.975
-35.325 -54.375 0.675
-32.775 -54.825 0.525
-32.775 -54.825 -1.875
-31.575 -55.275 1.425
-31.575 -55.275 -1.275
-35.175 -54.375 0.975
-30.675 -55.725 -1.125
-29.925 -56.175 0.825
-31.875 -55.125 0.225
-30.375 -55.875 -1.275
-30.375 -55.875 -0.975
-29.475 -56.475 2.025
-32.625 -54.825 -1.425
-32.625 -54.825 0.525
-34.575 -54.375 -1.425
-30.825 -55.575 -1.275
-31.425 -55.275 1.425
-31.425 -55.275 -2.325
-38.175 -54.525 0.825
-29.625 -56.325 -2.175
-30.525 -55.725 -1.725
-30.525 -55.725 -1.125
-30.525 -55.725 -0.375
-31.725 -55.125 0.975
-31.725 -55.125 0.825
-32.475 -54.825 -0.825
-32.475 -54.825 -1.725
-32.475 -54.825 -1.425
-29.775 -56.175 2.175
-34.275 -54.375 -1.575
-34.275 -54.375 -0.975
-30.225 -55.875 -0.975
-35.925 -54.225 0.675
-35.925 -54.225 1.425
-29.325 -56.475 -5.025
-35.775 -54.225 -0.675
-35.475 -54.225 0.675
-35.475 -54.225 0.525
-36.375 -54.225 0.975
-30.675 -55.575 0.975
-32.325 -54.825 -1.575
-32.325 -54.825 -1.875
-35.325 -54.225 1.125
-35.325 -54.225 -0.975
-32.775 -54.675 0.375
-36.825 -54.225 -1.125
-33.225 -54.525 -1.725
-38.025 -54.375 1.125
-30.075 -55.875 -0.675
-29.625 -56.175 -0.675
-29.625 -56.175 0.525
-32.625 -54.675 -1.575
-37.125 -54.225 -1.125
-32.175 -54.825 -1.875
-31.125 -55.275 1.275
-33.075 -54.525 -1.725
-38.175 -54.375 0.975
-30.225 -55.725 -0.825
-32.475 -54.675 0.525
-33.525 -54.375 0.675
-31.275 -55.125 1.275
-31.275 -55.125 -0.075
-29.925 -55.875 -0.675
-29.925 -55.875 0.975
-35.925 -54.075 1.425
-36.075 -54.075 -5.775
-35.625 -54.075 0.675
-35.625 -54.075 0.525
-32.325 -54.675 0.975
-36.375 -54.075 0.825
-32.775 -54.525 0.525
-32.775 -54.525 -1.425
-35.325 -54.075 -0.375
-36.525 -54.075 -1.125
-36.825 -54.075 -1.725
-33.225 -54.375 -1.725
-31.125 -55.125 1.425
-38.025 -54.225 0.525
-38.025 -54.225 0.825
-32.625 -54.525 -1.725
-32.625 -54.525 -3.975
-32.175 -54.675 -1.725
-32.175 -54.675 -3.075
-29.775 -55.875 1.125
-29.775 -55.875 0.975
-33.675 -54.225 0.825
-38.175 -54.225 0.525
-29.325 -56.175 -0.225
-32.475 -54.525 -1.725
-32.475 -54.525 -0.825
-39.375 -54.525 -0.075
-32.025 -54.675 0.975
-32.925 -54.375 0.375
-29.925 -55.725 -0.075
-34.275 -54.075 0.375
-31.275 -54.975 -1.875
-30.675 -55.275 0.975
-31.575 -54.825 -7.425
-31.575 -54.825 -2.925
-31.575 -54.825 -3.075
-33.375 -54.225 0.675
-36.075 -53.925 0.975
-35.625 -53.925 -0.225
-35.625 -53.925 -0.525
-32.775 -54.375 -1.875
-32.775 -54.375 0.225
-35.475 -53.925 -0.225
-35.475 -53.925 0.225
-31.875 -54.675 0.825
-35.325 -53.925 0.675
-35.325 -53.925 -0.225
-36.675 -53.925 -0.675
-30.825 -55.125 0.225
-36.825 -53.925 -2.025
-31.425 -54.825 0.225
-32.625 -54.375 0.375
-32.625 -54.375 0.975
-32.175 -54.525 -1.425
-36.975 -53.925 -1.425
-30.225 -55.425 -0.675
-33.075 -54.225 -0.825
-38.175 -54.075 0.075
-38.175 -54.075 0.525
-32.475 -54.375 -1.875
-28.875 -56.325 -2.025
-30.675 -55.125 -0.675
-32.925 -54.225 -1.725
-32.925 -54.225 -0.075
-38.325 -54.075 -1.275
-34.275 -53.925 0.675
-31.575 -54.675 -7.575
-40.275 -54.675 0.825
-32.325 -54.375 -2.025
-30.075 -55.425 0.075
-35.775 -53.775 0.375
-35.625 -53.775 0.675
-35.475 -53.775 -0.225
-35.475 -53.775 0.525
-35.325 -53.775 0.675
-30.525 -55.125 -0.975
-30.525 -55.125 -0.675
-35.025 -53.775 -0.525
-36.975 -53.775 -1.725
-33.075 -54.075 0.675
-29.925 -55.425 -0.075
-38.175 -53.925 -0.225
-38.175 -53.925 -0.825
-34.575 -53.775 1.725
-34.575 -53.775 1.875
-30.375 -55.125 -1.125
-32.925 -54.075 -0.675
-32.925 -54.075 1.275
-33.525 -53.925 -5.925
-30.075 -55.275 -1.425
-34.275 -53.775 0.675
-28.575 -56.325 -1.725
-38.475 -53.925 -0.975
-37.725 -53.775 -1.575
-35.775 -53.625 0.975
-35.625 -53.625 0.675
-35.475 -53.625 0.525
-36.375 -53.625 0.825
-36.525 -53.625 0.825
-36.525 -53.625 -0.975
-33.975 -53.775 0.525
-30.225 -55.125 -0.975
-39.675 -54.225 2.175
-38.025 -53.775 0.975
-34.875 -53.625 1.875
-34.725 -53.625 0.675
-34.725 -53.625 0.825
-30.675 -54.825 -0.225
-39.825 -54.225 2.175
-38.325 -53.775 0.075
-34.275 -53.625 0.675
-32.325 -54.075 -1.575
-29.775 -55.275 0.525
-31.875 -54.225 2.175
-33.375 -53.775 -0.975
-32.775 -53.925 -1.725
-40.725 -54.525 1.275
-30.225 -54.975 0.075
-35.625 -53.475 0.525
-36.375 -53.475 -0.525
-35.325 -53.475 0.525
-36.525 -53.475 -0.525
-33.225 -53.775 -0.825
-33.225 -53.775 0.525
-32.175 -54.075 -1.575
-32.175 -54.075 -1.275
-32.625 -53.925 -1.725
-36.825 -53.475 -1.725
-40.125 -54.225 2.025
-38.025 -53.625 0.825
-36.975 -53.475 -1.425
-30.675 -54.675 -0.375
-30.675 -54.675 -3.825
-30.975 -54.525 -0.525
-30.975 -54.525 -1.425
-30.975 -54.525 -0.225
-34.725 -53.475 0.675
-34.725 -53.475 -7.125
-31.275 -54.375 -1.425
-31.275 -54.375 1.575
-32.025 -54.075 -1.275
-32.025 -54.075 -1.575
-30.075 -54.975 -1.125
-31.575 -54.225 -0.375
-31.575 -54.225 1.275
-34.275 -53.475 0.825
-34.275 -53.475 1.575
-32.325 -53.925 -1.725
-30.825 -54.525 -1.425
-30.525 -54.675 -0.675
-31.125 -54.375 -1.425
-33.375 -53.625 -0.375
-33.375 -53.625 -1.275
-30.225 -54.825 -1.425
-34.125 -53.475 0.675
-37.725 -53.475 -0.375
-36.075 -53.325 -0.975
-36.225 -53.325 -0.375
-29.925 -54.975 -1.275
-36.375 -53.325 -0.525
-37.875 -53.475 0.975
-36.525 -53.325 -0.975
-32.175 -53.925 -1.275
-32.175 -53.925 -1.725
-32.175 -53.925 -1.875
-32.625 -53.775 -1.575
-31.725 -54.075 -0.825
-29.625 -55.125 3.075
-38.025 -53.475 0.375
-38.025 -53.475 0.675
-30.675 -54.525 -0.825
-30.675 -54.525 -1.425
-30.675 -54.525 -1.125
-30.975 -54.375 -0.075
-34.875 -53.325 0.675
-36.975 -53.325 -1.125
-33.075 -53.625 -0.675
-30.075 -54.825 -1.575
-32.025 -53.925 -1.275
-38.175 -53.475 0.975
-40.275 -54.075 1.425
-32.925 -53.625 -0.375
-30.525 -54.525 -1.425
-30.825 -54.375 -1.125
-32.325 -53.775 -5.175
-30.225 -54.675 -0.975
-30.225 -54.675 -0.675
-33.375 -53.475 -1.275
-33.375 -53.475 -1.125
-29.925 -54.825 -1.575
-31.425 -54.075 1.875
-35.925 -53.175 -1.275
-36.075 -53.175 -0.975
-32.175 -53.775 -1.725
-32.175 -53.775 0.675
-32.175 -53.775 -0.075
-33.225 -53.475 -1.125
-37.875 -53.325 -0.225
-32.625 -53.625 0.825
-32.625 -53.625 -1.725
-30.675 -54.375 -0.525
-30.675 -54.375 -1.125
-30.675 -54.375 -2.625
-35.175 -53.175 -0.225
-30.375 -54.525 -1.425
-30.975 -54.225 0.975
-30.975 -54.225 -0.975
-36.825 -53.175 -1.725
-38.025 -53.325 0.675
-30.075 -54.675 -0.975
-31.275 -54.075 0.975
-32.025 -53.775 -1.875
-37.125 -53.175 -1.725
-34.725 -53.175 0.675
-38.175 -53.325 1.125
-37.275 -53.175 -4.275
-34.575 -53.175 -6.825
-32.925 -53.475 0.975
-38.925 -53.475 -0.225
-32.925 -53.475 -1.575
-30.525 -54.375 -1.125
-30.525 -54.375 0.825
-30.525 -54.375 -1.425
-33.525 -53.325 -0.225
-38.325 -53.325 -1.125
-30.225 -54.525 1.125
-31.875 -53.775 -0.975
-31.875 -53.775 0.075
-32.775 -53.475 -0.375
-32.775 -53.475 -0.075
-39.075 -53.475 -0.375
-33.375 -53.325 -0.525
-27.525 -56.475 0.825
-29.625 -54.825 -6.975
-35.925 -53.025 -0.975
-32.175 -53.625 0.225
-32.175 -53.625 -0.675
-36.075 -53.025 -1.125
-35.625 -53.025 0.375
-33.225 -53.325 -1.125
-31.725 -53.775 1.425
-31.725 -53.775 -0.375
-40.125 -53.775 1.275
-30.375 -54.375 -0.825
-30.375 -54.375 -1.425
-35.325 -53.025 -0.225
-35.325 -53.025 0.375
-30.975 -54.075 0.525
-35.175 -53.025 0.825
-36.975 -53.025 1.275
-31.575 -53.775 1.575
-31.575 -53.775 -1.875
-38.175 -53.175 0.975
-29.475 -54.825 -2.475
-30.525 -54.225 -0.975
-37.275 -53.025 1.125
-30.825 -54.075 -1.425
-30.825 -54.075 -1.275
-30.225 -54.375 0.525
-29.925 -54.525 -0.225
-29.925 -54.525 -1.275
-39.975 -53.625 1.425
-33.375 -53.175 -0.975
-30.675 -54.075 -2.625
-30.675 -54.075 -1.575
-40.125 -53.625 1.575
-30.075 -54.375 -1.275
-35.775 -52.875 0.225
-35.775 -52.875 -1.425
-35.625 -52.875 0.225
-33.225 -53.175 -0.825
-32.625 -53.325 -1.275
-39.225 -53.325 -0.075
-35.475 -52.875 -0.225
-35.475 -52.875 -0.525
-36.375 -52.875 -0.825
-35.325 -52.875 -0.225
-35.325 -52.875 0.225
-36.675 -52.875 -1.725
-36.675 -52.875 -0.525
-35.175 -52.875 0.675
-31.275 -53.775 -1.125
-33.825 -53.025 -1.575
-34.875 -52.875 1.125
-30.525 -54.075 -1.275
-30.525 -54.075 -2.925
-30.525 -54.075 -1.575
-30.525 -54.075 -1.425
-34.725 -52.875 0.825
-30.225 -54.225 -0.825
-30.825 -53.925 -1.125
-29.925 -54.375 -0.975
-29.925 -54.375 0.675
-37.275 -52.875 0.975
-34.575 -52.875 0.675
-33.525 -53.025 -0.675
-37.425 -52.875 1.125
-37.425 -52.875 -1.275
-29.625 -54.525 -0.225
-40.425 -53.625 1.125
-28.875 -54.975 -5.025
-30.375 -54.075 -0.375
-30.375 -54.075 -0.075
-30.375 -54.075 -1.275
-30.675 -53.925 -0.525
-30.675 -53.925 -1.275
-30.075 -54.225 -0.975
-30.075 -54.225 0.225
-33.225 -53.025 -0.675
-38.625 -53.025 -1.575
-35.775 -52.725 -0.975
-36.075 -52.725 -0.825
-35.625 -52.725 -0.375
-33.975 -52.875 -1.575
-33.975 -52.875 -0.975
-35.475 -52.725 0.825
-35.475 -52.725 -0.225
-35.325 -52.725 0.825
-35.325 -52.725 -0.075
-35.175 -52.725 0.525
-35.175 -52.725 0.675
-35.175 -52.725 1.125
-35.025 -52.725 1.125
-33.075 -53.025 -1.275
-33.075 -53.025 -1.125
-33.075 -53.025 -0.675
-31.575 -53.475 -0.075
-30.525 -53.925 -1.125
-30.525 -53.925 -2.775
-30.225 -54.075 -0.975
-30.825 -53.775 -0.225
-30.825 -53.775 -0.525
-30.825 -53.775 -0.825
-29.925 -54.225 -1.275
-29.925 -54.225 -0.825
-29.925 -54.225 -1.125
-33.675 -52.875 -1.275
-33.675 -52.875 -0.525
-38.175 -52.875 0.525
-37.125 -52.725 1.125
-31.125 -53.625 -6.675
-37.275 -52.725 1.125
-29.625 -54.375 -0.225
-33.525 -52.875 -0.675
-38.325 -52.875 0.675
-34.425 -52.725 0.675
-28.275 -55.275 -4.425
-34.275 -52.725 0.825
-37.575 -52.725 0.975
-30.375 -53.925 0.375
-30.675 -53.775 -1.275
-38.475 -52.875 -0.525
-32.175 -53.175 0.525
-31.725 -53.325 -2.025
-31.725 -53.325 -0.075
-34.125 -52.725 -1.125
-35.625 -52.575 0.225
-33.975 -52.725 -0.825
-35.175 -52.575 0.525
-36.675 -52.575 -0.675
-32.025 -53.175 -0.075
-30.225 -53.925 0.225
-30.225 -53.925 -0.675
-31.575 -53.325 -1.575
-30.825 -53.625 -0.825
-30.825 -53.625 0.225
-34.875 -52.575 0.675
-36.975 -52.575 -1.125
-33.675 -52.725 -1.275
-38.175 -52.725 0.975
-38.175 -52.725 0.675
-37.125 -52.575 1.125
-31.875 -53.175 -6.075
-31.875 -53.175 -0.075
-33.525 -52.725 -1.275
-33.525 -52.725 0.075
-38.325 -52.725 0.675
-31.425 -53.325 -1.725
-37.425 -52.575 1.125
-30.375 -53.775 -1.125
-30.075 -53.925 -0.525
-30.075 -53.925 -0.675
-29.775 -54.075 -1.425
-29.775 -54.075 -1.575
-34.275 -52.575 0.675
-37.575 -52.575 1.125
-33.375 -52.725 0.375
-30.975 -53.475 -1.725
-30.975 -53.475 -1.425
-28.575 -54.825 -0.525
-31.725 -53.175 -0.525
-40.125 -53.175 1.425
-27.975 -55.275 -1.275
-32.625 -52.875 2.175
-33.225 -52.725 0.825
-33.975 -52.575 -0.675
-33.975 -52.575 -6.525
-36.225 -52.425 0.825
-30.225 -53.775 0.225
-30.525 -53.625 -3.075
-30.525 -53.625 0.075
-30.525 -53.625 -0.975
-29.925 -53.925 -1.275
-31.575 -53.175 -0.075
-31.575 -53.175 -0.525
-31.575 -53.175 -0.225
-38.025 -52.575 0.525
-38.025 -52.575 0.675
-30.825 -53.475 0.225
-33.075 -52.725 -0.825
-38.775 -52.725 -0.375
-34.875 -52.425 0.675
-34.875 -52.425 0.525
-38.175 -52.575 0.525
-38.175 -52.575 1.275
-33.675 -52.575 -5.325
-37.125 -52.425 1.125
-31.875 -53.025 1.125
-37.275 -52.425 1.125
-34.575 -52.425 -6.075
-33.525 -52.575 -1.125
-30.375 -53.625 0.825
-30.075 -53.775 0.075
-30.075 -53.775 -4.275
-30.675 -53.475 -1.125
-28.575 -54.675 -0.375
-34.275 -52.425 0.675
-34.125 -52.425 -0.675
-37.725 -52.425 -3.075
-30.225 -53.625 -1.125
-30.225 -53.625 -3.975
-37.875 -52.425 0.825
-36.225 -52.275 -1.275
-35.625 -52.275 0.975
-35.625 -52.275 0.525
-35.475 -52.275 0.525
-36.375 -52.275 -1.275
-30.825 -53.325 -1.275
-29.625 -53.925 -0.675
-31.575 -53.025 -0.075
-33.075 -52.575 0.825
-38.025 -52.425 0.525
-34.875 -52.275 0.375
-38.175 -52.425 0.825
-38.175 -52.425 -0.525
-30.075 -53.625 -1.425
-30.075 -53.625 -0.075
-30.075 -53.625 -0.525
-30.675 -53.325 -2.475
-41.175 -53.325 0.675
-38.325 -52.425 0.675
-37.425 -52.275 -0.525
-34.425 -52.275 0.675
-30.975 -53.175 -0.525
-31.725 -52.875 1.425
-33.375 -52.425 0.675
-34.275 -52.275 0.525
-37.575 -52.275 -0.225
-27.525 -55.275 1.275
-31.275 -53.025 0.225
-40.575 -53.025 -0.375
-40.575 -53.025 0.525
-37.725 -52.275 -6.075
-30.525 -53.325 -0.975
-41.325 -53.325 0.675
-35.625 -52.125 2.475
-31.575 -52.875 0.975
-27.825 -54.975 -0.375
-35.475 -52.125 -1.125
-33.075 -52.425 -4.425
-38.025 -52.275 0.975
-31.125 -53.025 -0.825
-31.125 -53.025 -0.225
-40.725 -53.025 0.525
-35.025 -52.125 3.075
-36.825 -52.125 -0.975
-26.775 -55.875 1.275
-30.075 -53.475 -1.125
-38.175 -52.275 0.825
-33.675 -52.275 -1.125
-30.675 -53.175 -1.125
-30.675 -53.175 -0.825
-37.275 -52.125 -0.675
-28.725 -54.225 0.225
-30.975 -53.025 -0.975
-34.425 -52.125 0.525
-34.425 -52.125 -5.625
-31.275 -52.875 -0.825
-30.525 -53.175 -0.525
-29.625 -53.625 -5.025
-37.725 -52.125 0.075
-30.825 -53.025 -1.575
-28.575 -54.225 -2.325
-31.125 -52.875 -0.975
-38.775 -52.275 2.625
-38.775 -52.275 0.075
-30.075 -53.325 -0.525
-30.075 -53.325 -2.175
-30.075 -53.325 -1.575
-28.725 -54.075 0.225
-37.125 -51.975 0.225
-30.975 -52.875 -1.125
-30.975 -52.875 -1.275
-34.425 -51.975 0.375
-37.575 -51.975 -0.675
-30.825 -52.875 -1.425
-30.825 -52.875 -0.375
-30.825 -52.875 -1.125
-33.225 -52.125 0.975
-28.575 -54.075 0.225
-35.925 -51.825 0.825
-35.775 -51.825 0.525
-31.125 -52.725 -0.525
-35.475 -51.825 -1.425
-36.375 -51.825 0.675
-36.525 -51.825 -0.825
-30.075 -53.175 -1.725
-38.025 -51.975 0.525
-36.675 -51.825 0.525
-30.675 -52.875 -1.125
-30.675 -52.875 -0.825
-36.975 -51.825 -0.675
-38.175 -51.975 0.525
-38.175 -51.975 -1.725
-29.175 -53.625 0.675
-34.725 -51.825 -0.375
-30.975 -52.725 -1.125
-30.975 -52.725 -0.825
-37.275 -51.825 -0.525
-38.325 -51.975 0.975
-31.725 -52.425 0.675
-29.925 -53.175 -1.875
-34.425 -51.825 0.525
-29.625 -53.325 1.125
-30.525 -52.875 -0.825
-30.525 -52.875 -0.375
-29.325 -53.475 2.025
-37.575 -51.825 1.425
-27.375 -54.825 -0.075
-30.825 -52.725 -1.425
-39.225 -52.125 0.525
-34.125 -51.825 -0.675
-37.725 -51.825 0.675
-40.275 -52.425 0.225
-37.875 -51.825 0.675
-35.925 -51.675 0.825
-35.925 -51.675 0.675
-35.925 -51.675 0.525
-35.925 -51.675 0.075
-29.775 -53.175 1.425
-36.075 -51.675 0.675
-36.225 -51.675 0.675
-30.375 -52.875 -4.125
-35.475 -51.675 0.225
-35.325 -51.675 0.225
-38.025 -51.825 1.275
-35.175 -51.675 -0.825
-35.175 -51.675 -0.975
-35.175 -51.675 -1.125
-35.175 -51.675 -0.675
-30.675 -52.725 -1.575
-40.425 -52.425 0.225
-40.425 -52.425 0.375
-36.825 -51.675 -0.675
-38.175 -51.825 1.125
-33.675 -51.825 0.525
-28.425 -53.925 2.625
-30.975 -52.575 -1.125
-34.725 -51.675 -0.375
-27.975 -54.225 1.575
-33.525 -51.825 0.525
-38.325 -51.825 0.975
-31.275 -52.425 2.325
-31.275 -52.425 0.225
-30.525 -52.725 -1.125
-34.425 -51.675 0.525
-37.425 -51.675 1.125
-28.575 -53.775 0.375
-38.475 -51.825 -0.675
-30.825 -52.575 -0.675
-29.025 -53.475 -4.575
-37.725 -51.675 0.975
-31.575 -52.275 -1.725
-30.075 -52.875 -1.425
-37.875 -51.675 1.275
-37.875 -51.675 1.125
-30.375 -52.725 2.475
-30.375 -52.725 -0.375
-35.925 -51.525 0.525
-35.775 -51.525 0.525
-35.625 -51.525 0.525
-35.625 -51.525 -2.325
-35.625 -51.525 -2.025
-29.175 -53.325 1.125
-30.675 -52.575 -0.075
-35.325 -51.525 -2.025
-38.025 -51.675 1.125
-28.425 -53.775 -0.525
-31.425 -52.275 -1.125
-35.175 -51.525 -0.975
-35.175 -51.525 0.375
-35.175 -51.525 -0.675
-35.175 -51.525 -0.825
-35.175 -51.525 0.225
-35.025 -51.525 -0.675
-28.875 -53.475 -4.425
-38.175 -51.675 1.125
-33.675 -51.675 -0.525
-34.875 -51.525 -0.525
-34.875 -51.525 -0.225
-34.875 -51.525 0.075
-29.925 -52.875 3.225
-34.725 -51.525 -0.225
-34.725 -51.525 0.525
-34.725 -51.525 0.675
-30.225 -52.725 -0.825
-30.225 -52.725 -0.675
-30.225 -52.725 -1.275
-28.575 -53.625 0.375
-28.575 -53.625 -0.375
-33.525 -51.675 0.525
-38.325 -51.675 0.675
-31.725 -52.125 -5.325
-34.425 -51.525 0.525
-30.825 -52.425 -0.225
-34.275 -51.525 -1.575
-37.575 -51.525 0.975
-37.725 -51.525 1.125
-37.725 -51.525 0.675
-30.075 -52.725 1.875
-30.075 -52.725 -1.125
-32.025 -51.975 -1.425
-29.475 -53.025 0.375
-29.475 -53.025 -2.025
-29.475 -53.025 0.525
-31.125 -52.275 -0.975
-30.375 -52.575 2.475
-30.375 -52.575 3.375
-33.975 -51.525 0.975
-35.775 -51.375 0.975
-35.475 -51.375 0.525
-31.425 -52.125 -0.225
-31.425 -52.125 -1.725
-36.525 -51.375 0.825
-35.175 -51.375 -0.825
-35.175 -51.375 0.525
-35.025 -51.375 -0.825
-29.925 -52.725 -1.575
-34.875 -51.375 -0.225
-34.875 -51.375 -0.975
-30.225 -52.575 -0.975
-30.225 -52.575 -0.525
-26.775 -54.825 0.975
-34.725 -51.375 -0.225
-30.525 -52.425 -0.975
-31.725 -51.975 -2.475
-33.525 -51.525 0.525
-31.275 -52.125 -0.975
-31.275 -52.125 -0.825
-29.025 -53.175 3.825
-40.575 -52.125 0.375
-34.425 -51.375 0.375
-38.475 -51.525 0.825
-32.625 -51.675 -1.125
-31.575 -51.975 -1.125
-37.725 -51.375 0.975
-27.975 -53.775 -0.825
-32.475 -51.675 -1.125
-32.475 -51.675 -1.275
-27.525 -54.075 1.125
-35.625 -51.225 0.525
-35.475 -51.225 0.825
-36.375 -51.225 0.825
-33.825 -51.375 -3.375
-35.325 -51.225 -1.275
-35.025 -51.225 -0.225
-32.925 -51.525 2.325
-33.675 -51.375 0.525
-29.025 -53.025 -0.525
-30.525 -52.275 -0.975
-31.725 -51.825 0.075
-33.525 -51.375 0.525
-32.775 -51.525 -1.275
-34.575 -51.225 -0.975
-28.725 -53.175 -0.675
-30.825 -52.125 -0.225
-32.625 -51.525 -1.125
-29.175 -52.875 1.425
-30.375 -52.275 -0.975
-30.675 -52.125 -0.675
-30.675 -52.125 -0.225
-32.475 -51.525 -0.525
-32.475 -51.525 -1.425
-32.475 -51.525 -0.825
-37.875 -51.225 2.925
-31.425 -51.825 -1.125
-35.925 -51.075 0.675
-35.925 -51.075 1.275
-36.075 -51.075 0.825
-31.875 -51.675 1.125
-29.625 -52.575 2.325
-35.625 -51.075 0.525
-30.975 -51.975 -1.725
-33.825 -51.225 0.375
-38.025 -51.225 0.675
-35.325 -51.075 0.675
-35.325 -51.075 0.375
-35.175 -51.075 -1.275
-32.925 -51.375 -1.275
-35.025 -51.075 -1.125
-35.025 -51.075 -0.375
-36.825 -51.075 1.725
-28.725 -53.025 0.225
-26.325 -54.825 1.425
-32.775 -51.375 -1.275
-30.825 -51.975 -0.975
-34.575 -51.075 -0.825
-29.775 -52.425 3.075
-30.075 -52.275 -1.425
-29.175 -52.725 0.675
-34.425 -51.075 -0.375
-27.525 -53.775 1.125
-40.275 -51.675 0.075
-37.725 -51.075 2.025
-30.675 -51.975 -0.975
-30.675 -51.975 -0.825
-31.425 -51.675 -1.575
-29.325 -52.575 0.825
-33.075 -51.225 -1.275
-29.925 -52.275 -1.875
-35.775 -50.925 0.675
-35.775 -50.925 0.525
-27.225 -53.925 0.825
-28.275 -53.175 0.675
-38.025 -51.075 0.375
-38.025 -51.075 0.225
-35.475 -50.925 0.525
-30.525 -51.975 -0.525
-30.525 -51.975 0.675
-30.525 -51.975 -0.075
-38.175 -51.075 -0.825
-34.875 -50.925 -0.675
-30.825 -51.825 -0.525
-34.725 -50.925 -0.675
-34.725 -50.925 -0.525
-32.775 -51.225 1.125
-34.575 -50.925 -0.525
-34.575 -50.925 -0.825
-34.575 -50.925 0.225
-37.275 -50.925 0.825
-28.875 -52.725 0.675
-34.425 -50.925 -3.075
-34.425 -50.925 0.075
-34.425 -50.925 -0.225
-34.425 -50.925 0.525
-30.375 -51.975 -1.275
-30.375 -51.975 3.825
-28.125 -53.175 0.525
-32.625 -51.225 -0.675
-30.675 -51.825 -0.975
-37.725 -50.925 -0.525
-37.725 -50.925 -0.375
-37.725 -50.925 0.525
-29.625 -52.275 -1.575
-29.625 -52.275 3.075
-29.925 -52.125 0.225
-25.425 -55.425 -1.275
-31.425 -51.525 -1.575
-37.875 -50.925 0.525
-37.875 -50.925 0.225
-37.875 -50.925 -0.525
-30.975 -51.675 -0.525
-30.225 -51.975 0.975
-30.225 -51.975 0.825
-35.925 -50.775 0.675
-36.075 -50.775 0.675
-28.725 -52.725 -3.225
-30.525 -51.825 0.825
-30.525 -51.825 0.375
-30.525 -51.825 -0.825
-32.325 -51.225 -3.375
-35.175 -50.775 0.525
-36.675 -50.775 -0.225
-28.425 -52.875 0.825
-29.775 -52.125 3.075
-30.825 -51.675 -0.525
-37.125 -50.775 0.525
-32.775 -51.075 2.475
-32.775 -51.075 0.975
-33.525 -50.925 -2.775
-37.275 -50.775 0.675
-30.375 -51.825 -0.975
-30.375 -51.825 -0.225
-30.375 -51.825 -0.825
-31.125 -51.525 0.675
-31.125 -51.525 -0.975
-34.425 -50.775 -0.225
-32.625 -51.075 -3.075
-32.025 -51.225 0.525
-32.025 -51.225 -2.475
-34.275 -50.775 -0.225
-29.925 -51.975 -1.425
-29.925 -51.975 -0.075
-37.725 -50.775 0.525
-39.375 -51.075 1.575
-31.425 -51.375 1.425
-30.975 -51.525 -0.825
-30.975 -51.525 -0.375
-33.075 -50.925 -4.425
-35.925 -50.625 0.525
-35.775 -50.625 0.675
-30.525 -51.675 -1.425
-35.625 -50.625 1.275
-32.325 -51.075 -2.925
-35.475 -50.625 0.675
-29.775 -51.975 -0.075
-38.175 -50.775 0.975
-30.825 -51.525 -0.075
-30.825 -51.525 -0.525
-30.075 -51.825 -1.425
-30.075 -51.825 -0.975
-28.125 -52.875 0.975
-32.175 -51.075 -1.875
-32.775 -50.925 -1.275
-38.325 -50.775 0.825
-30.375 -51.675 -0.975
-30.375 -51.675 -1.125
-34.575 -50.625 -1.125
-32.025 -51.075 -2.175
-29.325 -52.125 4.125
-29.625 -51.975 -1.425
-37.575 -50.625 1.125
-29.925 -51.825 -0.375
-29.925 -51.825 -1.275
-37.725 -50.625 1.275
-30.225 -51.675 -1.575
-30.225 -51.675 -0.375
-30.975 -51.375 0.225
-33.075 -50.775 -1.125
-35.925 -50.475 0.075
-38.025 -50.625 0.075
-38.025 -50.625 1.125
-32.325 -50.925 1.725
-29.175 -52.125 -0.525
-29.775 -51.825 -1.125
-29.775 -51.825 -3.975
-35.175 -50.475 0.825
-30.825 -51.375 -0.375
-30.075 -51.675 -0.975
-30.075 -51.675 -0.825
-27.225 -53.325 0.675
-34.875 -50.475 1.125
-32.175 -50.925 0.675
-26.625 -53.775 1.575
-30.375 -51.525 -1.425
-34.575 -50.475 -1.425
-34.575 -50.475 0.675
-33.375 -50.625 0.375
-29.625 -51.825 0.525
-32.625 -50.775 -2.775
-32.625 -50.775 -2.925
-32.625 -50.775 -3.075
-32.025 -50.925 -1.875
-29.925 -51.675 -0.675
-30.225 -51.525 -0.375
-30.225 -51.525 -0.525
-30.225 -51.525 -0.225
-37.725 -50.475 0.825
-28.425 -52.425 -4.425
-33.075 -50.625 -3.375
-30.525 -51.375 -0.825
-30.525 -51.375 -0.375
-33.975 -50.475 -1.125
-33.975 -50.475 0.225
-37.875 -50.475 1.275
-37.875 -50.475 0.825
-29.475 -51.825 3.825
-29.475 -51.825 0.675
-32.325 -50.775 -0.525
-35.775 -50.325 -0.375
-33.825 -50.475 -1.725
-38.025 -50.475 -0.825
-38.025 -50.475 1.275
-35.625 -50.325 0.375
-36.375 -50.325 2.025
-35.325 -50.325 0.975
-30.825 -51.225 -1.275
-30.825 -51.225 -0.675
-35.175 -50.325 0.675
-35.025 -50.325 0.675
-26.775 -53.475 1.275
-30.375 -51.375 0.075
-34.875 -50.325 0.825
-25.425 -54.675 0.675
-33.525 -50.475 -0.375
-33.525 -50.475 -1.725
-34.725 -50.325 1.125
-34.725 -50.325 0.825
-31.125 -51.075 -0.675
-26.925 -53.325 0.375
-27.525 -52.875 0.225
-33.375 -50.475 0.675
-29.925 -51.525 -0.525
-29.925 -51.525 -0.375
-29.925 -51.525 -0.675
-34.275 -50.325 0.675
-30.225 -51.375 -0.375
-31.425 -50.925 2.025
-30.975 -51.075 -1.125
-27.675 -52.725 1.275
-30.525 -51.225 -0.375
-27.225 -53.025 0.675
-33.975 -50.325 3.675
-33.975 -50.325 0.225
-28.875 -51.975 -0.675
-29.775 -51.525 -0.225
-32.325 -50.625 -3.075
-32.325 -50.625 -0.675
-30.075 -51.375 -0.375
-30.075 -51.375 -0.225
-30.075 -51.375 -0.825
-30.825 -51.075 -0.825
-27.375 -52.875 0.075
-30.375 -51.225 -0.375
-30.375 -51.225 -0.975
-32.175 -50.625 -0.675
-32.175 -50.625 -0.975
-32.775 -50.475 -0.825
-29.025 -51.825 0.225
-27.525 -52.725 0.225
-31.125 -50.925 1.875
-29.625 -51.525 -1.575
-29.625 -51.525 -1.125
-29.625 -51.525 -0.525
-29.625 -51.525 -0.975
-34.725 -50.175 0.375
-34.725 -50.175 0.525
-30.675 -51.075 -0.825
-29.925 -51.375 -4.275
-29.925 -51.375 -1.125
-29.925 -51.375 -0.675
-29.925 -51.375 -1.875
-29.925 -51.375 -1.575
-32.025 -50.625 -2.475
-33.375 -50.325 0.525
-32.625 -50.475 -0.825
-30.225 -51.225 -4.725
-30.225 -51.225 -1.575
-30.225 -51.225 -0.075
-34.275 -50.175 0.675
-31.425 -50.775 2.175
-32.475 -50.475 -0.825
-25.125 -54.675 -3.675
-34.125 -50.175 -0.375
-34.125 -50.175 -0.525
-29.475 -51.525 0.675
-29.475 -51.525 -1.575
-28.875 -51.825 0.225
-29.775 -51.375 0.075
-33.075 -50.325 -1.725
-30.075 -51.225 -3.375
-32.325 -50.475 -0.075
-30.075 -51.225 -1.425
-30.075 -51.225 -1.875
-30.075 -51.225 -0.375
-30.075 -51.225 -0.225
-32.325 -50.475 -0.375
-32.325 -50.475 -2.475
-32.325 -50.475 -0.225
-30.825 -50.925 0.975
-33.825 -50.175 -0.075
-38.025 -50.175 -1.125
-32.925 -50.325 -2.025
-32.925 -50.325 -1.725
-36.375 -50.025 -1.725
-30.375 -51.075 -0.375
-35.175 -50.025 1.125
-32.175 -50.475 -2.025
-32.175 -50.475 -1.875
-35.025 -50.025 -0.525
-32.775 -50.325 -0.825
-29.625 -51.375 -0.075
-29.625 -51.375 1.425
-29.625 -51.375 0.375
-33.525 -50.175 0.975
-30.675 -50.925 -0.675
-29.925 -51.225 -1.725
-29.925 -51.225 -0.975
-29.925 -51.225 -0.375
-37.125 -50.025 1.125
-32.025 -50.475 -0.225
-27.225 -52.725 0.975
-32.625 -50.325 -1.275
-24.975 -54.675 -2.925
-30.225 -51.075 -1.425
-30.225 -51.075 -0.225
-31.425 -50.625 0.825
-29.175 -51.525 1.575
-33.225 -50.175 -0.075
-29.475 -51.375 -1.575
-29.475 -51.375 -0.525
-30.525 -50.925 -0.675
-30.525 -50.925 1.125
-32.475 -50.325 -2.925
-32.475 -50.325 0.675
-27.375 -52.575 0.075
-34.125 -50.025 0.675
-29.775 -51.225 -0.375
-29.775 -51.225 0.075
-33.975 -50.025 -1.575
-33.975 -50.025 -0.525
-30.075 -51.075 -1.425
-30.075 -51.075 -0.225
-26.325 -53.325 2.475
-32.325 -50.325 -2.175
-32.325 -50.325 0.075
-30.825 -50.775 1.875
-33.825 -50.025 0.375
-33.825 -50.025 -1.425
-35.925 -49.875 1.125
-32.925 -50.175 -1.725
-36.075 -49.875 0.975
-36.075 -49.875 1.125
-35.625 -49.875 0.825
-26.475 -53.175 -2.775
-35.475 -49.875 0.975
-35.325 -49.875 0.975
-36.525 -49.875 0.975
-28.725 -51.675 -3.675
-33.675 -50.025 -0.075
-33.675 -50.025 -1.425
-33.675 -50.025 1.725
-35.175 -49.875 0.825
-35.175 -49.875 0.975
-36.675 -49.875 0.975
-29.625 -51.225 -0.375
-29.625 -51.225 -2.475
-32.175 -50.325 1.125
-35.025 -49.875 0.825
-36.825 -49.875 0.975
-31.125 -50.625 -1.875
-32.775 -50.175 -1.725
-26.625 -53.025 0.675
-29.925 -51.075 0.075
-29.925 -51.075 -0.075
-29.925 -51.075 -0.225
-29.925 -51.075 -0.525
-30.675 -50.775 -1.125
-30.675 -50.775 -0.075
-30.675 -50.775 -1.275
-27.225 -52.575 -0.225
-33.525 -50.025 -1.275
-26.775 -52.875 0.525
-37.275 -49.875 1.125
-32.625 -50.175 -1.275
-29.175 -51.375 0.375
-31.425 -50.475 -1.425
-31.425 -50.475 2.025
-31.425 -50.475 1.575
-29.475 -51.225 -1.575
-30.525 -50.775 1.725
-26.925 -52.725 1.575
-33.225 -50.025 -0.825
-29.775 -51.075 -1.125
-32.475 -50.175 -0.225
-32.475 -50.175 -2.175
-34.125 -49.875 -1.425
-30.075 -50.925 -0.375
-30.075 -50.925 -1.125
-30.075 -50.925 0.825
-27.075 -52.575 0.075
-25.275 -54.075 0.075
-33.975 -49.875 0.675
-30.825 -50.625 -0.825
-30.825 -50.625 -0.975
-30.825 -50.625 -1.275
-25.425 -53.925 0.225
-31.725 -50.325 -1.875
-30.375 -50.775 -0.825
-30.375 -50.775 0.225
-33.825 -49.875 0.525
-33.825 -49.875 -0.225
-29.325 -51.225 1.425
-29.325 -51.225 0.075
-35.775 -49.725 1.125
-29.625 -51.075 -1.425
-29.625 -51.075 1.275
-27.225 -52.425 0.225
-27.675 -52.125 -1.725
-28.425 -51.675 1.425
-33.675 -49.875 0.075
-32.175 -50.175 0.075
-32.175 -50.175 1.875
-31.125 -50.475 -0.375
-29.925 -50.925 -0.975
-30.675 -50.625 -1.725
-30.675 -50.625 0.675
-26.775 -52.725 0.375
-34.875 -49.725 0.525
-34.875 -49.725 0.825
-33.525 -49.875 0.075
-33.525 -49.875 -1.425
-34.725 -49.725 0.825
-34.725 -49.725 0.525
-30.225 -50.775 0.225
-30.225 -50.775 0.075
-32.025 -50.175 -1.875
-32.625 -50.025 -0.375
-34.575 -49.725 0.675
-34.575 -49.725 -0.825
-26.925 -52.575 0.075
-28.875 -51.375 2.025
-33.375 -49.875 0.525
-29.475 -51.075 -1.575
-29.475 -51.075 -0.375
-30.975 -50.475 -1.125
-30.975 -50.475 -0.375
-31.425 -50.325 0.075
-34.425 -49.725 1.275
-34.425 -49.725 0.825
-29.775 -50.925 -0.075
-29.775 -50.925 -1.575
-29.775 -50.925 -0.225
-29.775 -50.925 0.375
-29.775 -50.925 -0.375
-29.775 -50.925 0.675
-24.675 -54.525 -3.075
-33.225 -49.875 0.675
-32.475 -50.025 -1.425
-32.475 -50.025 -2.025
-32.475 -50.025 -0.675
-26.475 -52.875 -0.225
-27.075 -52.425 -0.525
-30.075 -50.775 -0.825
-30.075 -50.775 -0.525
-27.975 -51.825 -0.075
-27.975 -51.825 0.225
-33.975 -49.725 -0.375
-33.975 -49.725 -0.225
-29.025 -51.225 -2.175
-29.325 -51.075 -0.675
-29.325 -51.075 -0.225
-29.325 -51.075 1.275
-30.375 -50.625 -0.975
-27.225 -52.275 0.375
-27.675 -51.975 -0.225
-33.825 -49.725 0.675
-29.625 -50.925 -0.375
-29.625 -50.925 1.725
-29.625 -50.925 -0.975
-29.625 -50.925 0.525
-29.625 -50.925 -0.225
-29.625 -50.925 -0.675
-29.625 -50.925 -1.725
-26.775 -52.575 -0.225
-26.775 -52.575 0.375
-35.625 -49.575 0.825
-36.225 -49.575 2.475
-35.475 -49.575 0.825
-36.375 -49.575 1.425
-29.925 -50.775 -0.375
-29.925 -50.775 -2.475
-29.925 -50.775 -0.525
-29.925 -50.775 -0.075
-31.125 -50.325 -0.225
-30.675 -50.475 -1.425
-26.925 -52.425 -0.225
-26.925 -52.425 -0.825
-26.325 -52.875 -0.375
-34.875 -49.575 0.675
-27.825 -51.825 -0.225
-33.525 -49.725 1.425
-28.875 -51.225 -2.175
-34.725 -49.575 0.675
-32.025 -50.025 -1.575
-32.025 -50.025 0.225
-28.575 -51.375 0.375
-29.475 -50.925 -0.225
-29.475 -50.925 0.375
-34.575 -49.575 0.675
-26.475 -52.725 0.675
-28.275 -51.525 1.425
-31.425 -50.175 0.975
-27.525 -51.975 0.225
-27.525 -51.975 0.375
