# .PCD v0.7 - Point Cloud Data file format
VERSION 0.7
FIELDS x y z
SIZE 4 4 4
TYPE F F F
COUNT 1 1 1
WIDTH 2048
HEIGHT 1
VIEWPOINT 0 0 0 1 0 0 0
POINTS 2048
DATA ascii
-6.975 -50.775 1.875
-6.975 -50.625 1.125
-6.975 -50.625 0.975
-7.125 -50.925 2.625
-7.125 -50.925 -1.575
-7.125 -50.925 -1.425
-6.975 -50.475 0.225
-6.675 -50.775 3.825
-7.275 -50.775 0.825
-7.275 -50.775 2.625
-7.125 -50.475 1.125
-7.125 -50.475 0.525
-7.275 -50.625 0.525
-7.125 -51.075 1.425
-7.275 -50.475 0.375
-6.975 -50.325 -0.075
-7.425 -50.625 -0.075
-6.525 -50.475 3.375
-7.425 -50.475 0.375
-7.425 -50.475 0.525
-6.375 -50.775 0.075
-7.575 -50.775 -0.075
-6.975 -50.175 0.075
-6.375 -50.625 -5.325
-7.575 -50.625 0.075
-7.125 -50.175 1.275
-6.525 -50.325 -0.075
-7.575 -50.475 0.075
-6.675 -51.375 -0.225
-7.275 -50.175 0.075
-6.375 -50.325 -0.075
-7.575 -50.325 0.825
-6.525 -50.175 3.525
-7.575 -51.225 -0.075
-6.225 -50.925 0.525
-7.725 -50.925 -0.075
-6.825 -50.025 0.375
-7.125 -50.025 0.975
-6.225 -50.475 -0.075
-6.225 -50.475 -0.225
-6.675 -51.525 -1.125
-6.675 -51.525 -0.225
-6.675 -51.525 0.225
-7.275 -51.525 1.575
-7.275 -50.025 0.525
-7.725 -51.075 -0.225
-7.575 -51.375 -0.375
-7.725 -50.325 2.475
-7.725 -50.325 0.825
-6.525 -51.525 -0.225
-7.425 -50.025 4.575
-7.725 -51.225 -0.225
-6.975 -51.675 -4.575
-6.675 -51.675 -0.225
-6.075 -50.475 0.225
-7.275 -49.875 -0.225
-6.075 -51.075 2.475
-7.875 -51.075 -0.225
-6.375 -51.525 -0.075
-7.725 -51.375 -0.225
-7.725 -50.175 -0.675
-7.875 -50.325 2.625
-8.025 -50.775 -0.225
-5.925 -50.625 0.375
-6.225 -51.525 -0.075
-8.025 -50.925 -0.225
-7.575 -49.875 0.975
-6.075 -51.375 -0.225
-7.875 -51.375 5.175
-6.675 -49.725 0.375
-8.025 -50.475 1.875
-6.525 -49.725 0.375
-7.425 -49.725 -0.225
-5.925 -50.325 -0.075
-8.025 -50.325 0.675
-7.425 -51.825 -0.075
-7.725 -49.875 -0.075
-6.225 -49.875 -0.375
-6.075 -51.525 0.225
-6.375 -49.725 -0.075
-5.775 -50.625 -0.225
-5.775 -50.625 -0.075
-5.925 -51.375 -0.225
-8.175 -50.625 0.375
-7.575 -51.825 -0.225
-7.275 -49.575 -0.225
-7.275 -51.975 -4.275
-6.075 -51.675 -0.225
-6.075 -49.875 -0.375
-6.225 -49.725 -0.075
-5.925 -51.525 -0.225
-7.725 -51.825 0.825
-8.325 -50.625 0.225
-7.125 -49.425 1.275
-6.075 -49.725 -0.375
-8.025 -51.675 0.675
-7.275 -52.125 0.375
-6.075 -51.825 0.675
-6.075 -51.825 -0.225
-7.875 -51.825 0.375
-7.725 -49.575 -0.375
-5.625 -50.325 -0.825
-5.625 -51.225 -1.125
-5.625 -51.225 0.225
-6.525 -52.125 -1.725
-5.625 -50.175 0.075
-5.625 -51.375 2.325
-7.575 -52.125 0.075
-5.925 -49.725 -0.525
-8.025 -51.825 0.225
-5.775 -51.675 -0.075
-5.475 -50.775 0.075
-8.475 -50.775 0.375
-6.975 -52.275 0.075
-5.475 -50.775 0.675
-7.875 -51.975 0.975
-5.475 -50.925 1.125
-8.475 -50.625 -0.225
-7.125 -52.275 0.075
-6.675 -49.275 1.875
-6.675 -52.275 0.075
-6.675 -52.275 0.225
-7.725 -52.125 0.075
-6.225 -52.125 0.375
-7.425 -52.275 0.075
-5.925 -49.575 -0.375
-5.775 -49.725 -0.675
-8.175 -49.725 -0.075
-5.925 -51.975 0.375
-8.175 -51.825 0.225
-7.575 -52.275 -0.225
-6.075 -49.425 -0.225
-6.975 -52.425 0.375
-6.975 -52.425 -0.225
-5.325 -50.775 0.825
-5.325 -50.775 -0.525
-6.825 -52.425 0.075
-7.125 -52.425 0.075
-8.625 -50.625 -0.225
-6.675 -52.425 0.975
-7.275 -52.425 0.225
-5.325 -50.475 0.375
-8.625 -50.475 -0.075
-5.775 -49.575 0.075
-8.325 -49.725 -0.075
-6.525 -52.425 0.675
-6.525 -49.125 0.225
-7.425 -49.125 -0.075
-5.925 -52.125 0.375
-8.625 -51.225 2.175
-5.925 -49.425 0.075
-8.025 -52.125 -1.125
-8.025 -52.125 0.075
-8.025 -52.125 -0.975
-8.025 -52.125 0.375
-8.325 -51.825 -0.075
-8.325 -51.825 0.225
-6.075 -52.275 0.225
-6.075 -52.275 0.075
-6.075 -49.275 -0.675
-7.875 -52.275 -0.225
-7.575 -52.425 0.975
-7.575 -52.425 -0.225
-8.625 -51.375 0.825
-5.175 -50.775 1.875
-5.175 -50.775 0.825
-8.775 -50.775 0.225
-6.975 -52.575 0.525
-5.625 -49.575 0.075
-8.775 -50.625 -0.225
-5.775 -52.125 0.225
-8.175 -52.125 -0.075
-6.825 -52.575 0.075
-7.125 -52.575 0.225
-7.125 -52.575 0.075
-6.225 -49.125 0.525
-6.225 -52.425 4.275
-5.325 -50.025 -0.675
-6.675 -48.975 0.375
-5.175 -51.075 -5.325
-6.675 -52.575 -0.075
-6.675 -52.575 0.525
-6.675 -52.575 0.225
-7.275 -52.575 0.075
-5.925 -52.275 0.525
-8.475 -51.825 0.225
-5.175 -51.225 1.875
-8.775 -51.225 1.425
-6.525 -52.575 -1.575
-6.525 -52.575 -0.075
-7.425 -52.575 -1.125
-6.075 -52.425 0.075
-6.075 -49.125 -1.725
-7.875 -52.425 0.225
-7.875 -52.425 0.075
-7.875 -52.425 -0.075
-6.375 -48.975 3.225
-6.375 -48.975 0.225
-6.375 -52.575 0.375
-7.575 -52.575 1.275
-7.575 -52.575 0.075
-7.575 -52.575 0.225
-5.775 -52.275 0.375
-8.175 -52.275 0.075
-8.175 -52.275 0.225
-5.475 -51.975 0.375
-8.475 -51.975 0.075
-7.725 -48.975 -0.075
-6.225 -48.975 0.375
-5.025 -50.775 1.875
-7.725 -52.575 0.075
-7.725 -52.575 0.225
-6.225 -52.575 0.375
-6.225 -52.575 0.225
-5.325 -49.725 0.375
-5.025 -50.625 0.825
-5.025 -50.925 0.375
-8.925 -50.625 -0.225
-8.925 -50.925 1.275
-5.325 -51.825 0.525
-8.625 -51.825 0.525
-7.125 -52.725 0.375
-6.825 -52.725 -5.175
-6.825 -52.725 0.225
-7.125 -52.725 1.125
-7.125 -52.725 0.225
-7.125 -52.725 -0.075
-5.025 -51.075 0.525
-6.675 -52.725 -0.075
-6.675 -52.725 0.525
-6.675 -52.725 0.075
-7.275 -52.725 0.225
-5.025 -51.225 1.875
-6.525 -52.725 -0.075
-7.425 -52.725 0.075
-7.425 -52.725 0.375
-6.075 -52.575 0.525
-7.875 -52.575 -0.075
-8.325 -52.275 -0.075
-5.625 -52.275 0.075
-8.325 -52.275 0.075
-5.775 -49.125 0.525
-8.175 -52.425 0.075
-5.025 -51.375 0.825
-8.925 -51.375 1.125
-6.375 -52.725 -0.075
-7.575 -52.725 -0.975
-7.575 -52.725 0.225
-8.775 -51.825 0.525
-5.925 -52.575 0.225
-8.025 -52.575 0.225
-6.225 -52.725 -0.225
-7.725 -52.725 0.225
-7.725 -52.725 0.075
-6.225 -52.725 0.075
-6.975 -52.875 -2.775
-6.975 -52.875 -2.475
-9.075 -50.625 0.525
-7.125 -48.675 0.375
-7.125 -52.875 0.375
-7.125 -52.875 0.525
-7.125 -52.875 0.825
-7.125 -52.875 0.225
-6.825 -52.875 -0.525
-7.125 -52.875 -3.975
-8.475 -52.275 0.225
-5.475 -52.275 -0.075
-6.675 -52.875 0.075
-6.675 -52.875 -2.175
-6.675 -52.875 -0.075
-7.275 -52.875 0.225
-7.275 -52.875 0.375
-8.325 -52.425 0.075
-5.325 -49.425 2.475
-8.625 -52.125 0.075
-6.525 -52.875 -0.075
-7.875 -52.725 0.075
-7.875 -52.725 0.225
-7.875 -52.725 -0.075
-5.775 -48.975 0.525
-8.775 -49.575 -0.075
-5.775 -52.575 0.075
-6.375 -52.875 -0.225
-6.375 -52.875 0.075
-5.925 -52.725 0.525
-8.025 -52.725 0.225
-8.925 -51.825 0.525
-8.475 -52.425 0.225
-8.475 -49.125 3.675
-5.475 -52.425 -4.275
-9.075 -51.525 2.925
-8.625 -52.275 0.075
-8.625 -52.275 -0.075
-6.225 -52.875 -3.075
-6.975 -53.025 -0.075
-8.325 -52.575 0.075
-8.325 -52.575 0.525
-8.325 -52.575 0.225
-6.825 -53.025 -4.575
-9.225 -50.625 2.175
-4.725 -50.625 1.575
-7.125 -53.025 0.975
-6.825 -48.525 -1.725
-7.125 -53.025 0.825
-6.825 -53.025 0.375
-6.675 -53.025 -0.975
-6.675 -53.025 0.075
-6.675 -53.025 -0.225
-7.275 -53.025 0.225
-6.075 -52.875 -0.075
-6.075 -52.875 -0.225
-7.875 -52.875 0.075
-7.875 -52.875 0.825
-7.875 -52.875 0.975
-5.025 -49.575 0.225
-5.025 -49.575 0.375
-5.775 -52.725 -0.375
-8.175 -52.725 0.225
-8.175 -52.725 0.675
-8.175 -52.725 0.825
-6.525 -53.025 0.375
-6.525 -53.025 -0.075
-6.525 -53.025 -0.975
-7.425 -53.025 0.375
-7.425 -53.025 -0.225
-7.425 -53.025 0.675
-6.375 -53.025 0.075
-6.375 -53.025 0.375
-6.375 -53.025 -1.275
-7.575 -53.025 0.375
-8.625 -52.425 -0.075
-5.175 -52.275 0.225
-8.475 -52.575 0.375
-8.475 -52.575 0.225
-5.925 -52.875 -0.225
-5.925 -52.875 -0.075
-9.075 -51.825 0.525
-4.725 -50.025 -1.125
-7.725 -53.025 0.375
-5.625 -52.725 0.075
-5.625 -52.725 0.825
-6.975 -53.175 0.525
-4.575 -50.775 0.375
-6.825 -53.175 -0.075
-6.825 -53.175 0.375
-7.125 -53.175 0.525
-7.125 -53.175 0.675
-6.825 -53.175 0.225
-4.575 -50.925 0.075
-9.375 -50.625 2.775
-6.675 -53.175 0.825
-6.675 -53.175 0.075
-7.275 -53.175 0.675
-4.575 -51.075 -0.225
-9.375 -50.475 -0.525
-5.775 -52.875 0.075
-4.725 -51.675 0.075
-6.075 -53.025 -0.375
-6.075 -53.025 0.525
-6.075 -53.025 -0.075
-7.875 -53.025 -0.675
-6.525 -53.175 0.225
-6.525 -53.175 0.525
-7.425 -53.175 -3.075
-7.425 -53.175 -0.825
-8.775 -52.425 -0.075
-8.775 -52.425 0.075
-8.625 -52.575 0.075
-8.625 -52.575 -0.075
-5.025 -49.275 0.375
-5.025 -52.275 -0.075
-8.475 -52.725 0.225
-8.475 -52.725 0.375
-6.375 -53.175 0.525
-7.575 -53.175 0.675
-7.575 -53.175 -0.075
-4.575 -51.375 -0.375
-4.575 -50.175 -1.275
-4.725 -49.725 -0.975
-9.225 -51.825 0.525
-4.875 -52.125 2.175
-4.875 -52.125 2.025
-8.325 -52.875 -0.075
-7.725 -53.175 0.525
-6.225 -53.175 0.075
-4.575 -51.525 -0.375
-9.375 -51.525 0.975
-9.375 -51.525 2.475
-8.775 -52.575 0.225
-8.775 -52.575 -0.075
-9.225 -49.575 2.175
-9.225 -51.975 0.075
-9.525 -50.625 -0.225
-9.525 -50.625 -0.525
-5.325 -52.725 -0.075
-8.625 -52.725 -4.275
-6.825 -53.325 0.375
-7.125 -53.325 -0.225
-6.825 -53.325 1.725
-6.075 -53.175 0.525
-6.075 -53.175 -4.125
-7.875 -53.175 0.225
-4.575 -51.675 -0.375
-9.375 -51.675 0.675
-4.425 -51.075 -0.675
-9.525 -50.475 -0.525
-6.675 -53.325 1.425
-6.675 -53.325 0.375
-6.675 -53.325 -0.075
-6.675 -53.325 -0.225
-7.275 -53.325 -0.675
-9.075 -52.275 0.075
-5.475 -52.875 -0.075
-9.525 -50.325 -0.525
-6.525 -53.325 0.225
-9.375 -51.825 2.325
-6.375 -53.325 -0.225
-8.325 -53.025 0.225
-9.225 -52.125 -0.075
-9.225 -49.425 2.025
-9.225 -49.425 0.225
-8.775 -52.725 0.075
-8.925 -52.575 -0.075
-9.525 -50.025 0.375
-9.075 -52.425 0.225
-8.625 -52.875 0.675
-5.775 -53.175 0.075
-5.775 -53.175 0.225
-6.975 -53.475 0.525
-4.425 -51.675 -0.375
-5.475 -53.025 -0.075
-9.225 -52.275 0.075
-5.475 -53.025 0.075
-4.725 -52.275 0.525
-5.475 -53.025 -3.975
-5.475 -53.025 -3.825
-9.675 -50.625 -0.525
-6.825 -53.475 -4.125
-6.675 -53.475 -0.225
-6.525 -53.475 -3.825
-5.625 -53.175 0.075
-5.625 -53.175 0.525
-5.625 -53.175 -3.975
-4.575 -49.425 1.275
-4.575 -52.125 0.375
-9.375 -49.425 2.175
-5.025 -52.725 -4.575
-5.025 -52.725 -0.375
-8.925 -52.725 -0.075
-8.925 -52.725 0.375
-5.925 -53.325 -0.375
-5.925 -53.325 -3.975
-8.025 -53.325 -0.375
-5.175 -52.875 -4.275
-5.175 -52.875 -0.375
-8.775 -52.875 -0.375
-8.775 -52.875 0.375
-9.075 -52.575 0.375
-9.225 -52.425 0.075
-9.525 -49.575 -0.975
-9.525 -49.575 0.225
-9.525 -51.975 0.375
-9.525 -51.975 -5.325
-8.475 -53.175 0.375
-8.475 -53.175 0.675
-8.475 -53.175 0.225
-4.575 -52.275 0.675
-9.375 -52.275 0.225
-4.275 -49.875 0.225
-9.675 -49.875 0.525
-6.075 -53.475 -3.225
-6.075 -53.475 0.075
-6.825 -53.625 -2.475
-6.675 -53.625 1.275
-9.075 -52.725 -0.225
-9.075 -52.725 0.525
-5.175 -53.025 -0.375
-8.775 -53.025 0.675
-9.225 -52.575 0.075
-4.725 -52.575 -0.225
-9.825 -51.225 -5.625
-4.425 -52.125 1.575
-4.425 -52.125 1.125
-4.425 -49.425 0.675
-6.525 -53.625 -2.775
-5.625 -53.325 0.675
-5.625 -53.325 0.525
-8.325 -53.325 0.525
-9.675 -49.725 0.375
-9.675 -51.825 0.525
-5.925 -53.475 -0.075
-5.325 -53.175 0.375
-5.325 -53.175 0.225
-5.325 -53.175 -0.225
-8.625 -53.175 0.525
-9.375 -52.425 0.375
-9.375 -52.425 0.225
-9.375 -52.425 0.075
-9.825 -50.175 3.075
-9.825 -51.375 -2.775
-7.575 -53.625 0.075
-9.825 -50.025 1.125
-9.675 -49.575 1.875
-5.775 -53.475 -3.675
-9.675 -51.975 0.525
-5.775 -53.475 -2.175
-8.175 -53.475 0.525
-5.475 -53.325 0.375
-8.475 -53.325 0.225
-9.075 -52.875 0.225
-9.225 -52.725 -0.075
-9.225 -52.725 0.375
-4.725 -52.725 -0.225
-9.825 -49.875 0.525
-9.825 -49.875 1.425
-9.825 -49.875 1.275
-9.825 -49.875 1.575
-8.775 -53.175 0.525
-6.975 -53.775 -3.375
-9.375 -52.575 0.525
-9.375 -52.575 0.975
-6.675 -53.775 -1.425
-9.975 -51.075 -2.625
-4.275 -49.425 0.075
-9.675 -52.125 -0.525
-9.675 -49.425 -0.525
-9.675 -49.425 0.375
-5.625 -53.475 -3.675
-9.975 -51.225 -2.775
-9.825 -49.725 2.175
-9.825 -49.725 1.725
-9.825 -49.725 0.375
-9.825 -49.725 -0.525
-4.425 -52.425 -0.525
-9.525 -52.425 0.825
-9.525 -52.425 -0.225
-9.825 -51.825 -0.825
-5.325 -53.325 -0.225
-4.875 -53.025 -0.375
-4.875 -53.025 0.075
-4.875 -53.025 -0.225
-4.725 -52.875 -0.225
-4.275 -49.275 -0.375
-9.675 -52.275 0.075
-9.825 -49.575 1.725
-5.025 -53.175 0.225
-5.025 -53.175 0.825
-7.725 -47.775 0.375
-7.725 -53.775 0.675
-9.975 -50.025 0.975
-4.125 -51.975 1.275
-9.375 -52.725 0.375
-9.525 -52.575 1.425
-9.525 -52.575 1.725
-8.775 -53.325 1.125
-9.975 -49.875 0.525
-3.825 -50.775 -0.825
-7.125 -53.925 0.825
-9.825 -49.425 0.075
-4.275 -49.125 -0.975
-9.675 -52.425 0.075
-9.675 -52.425 1.125
-9.675 -52.425 0.675
-9.675 -52.425 -0.225
-8.625 -53.475 0.225
-9.975 -49.725 0.525
-9.975 -49.725 2.625
-9.975 -51.825 1.275
-9.225 -53.025 0.075
-4.875 -53.175 -0.225
-4.425 -52.725 -0.825
-5.025 -53.325 0.375
-9.825 -52.275 0.825
-9.825 -52.275 0.675
-9.825 -52.275 -0.375
-5.475 -53.625 -3.975
-7.725 -53.925 0.675
-7.725 -53.925 -3.675
-6.225 -53.925 0.075
-10.125 -50.025 0.675
-8.775 -53.475 0.075
-9.675 -52.575 0.375
-9.675 -52.575 0.675
-3.825 -51.675 -0.075
-4.725 -53.175 0.075
-4.575 -53.025 0.225
-9.975 -52.125 0.675
-9.825 -52.425 -0.375
-9.825 -52.425 -0.075
-9.825 -52.425 0.375
-9.825 -52.425 0.975
-10.275 -50.775 1.425
-6.975 -54.075 -0.225
-3.675 -50.925 0.075
-4.875 -53.325 -0.225
-4.875 -53.325 0.225
-3.825 -49.725 0.975
-3.825 -51.825 -0.075
-5.025 -53.475 -0.075
-9.675 -52.725 -0.675
-7.425 -54.075 -1.575
-3.975 -52.275 0.975
-9.975 -49.275 0.075
-9.975 -52.275 -0.525
-9.825 -52.575 0.825
-9.825 -52.575 -0.075
-9.825 -52.575 -0.225
-9.825 -52.575 0.225
-9.825 -52.575 1.125
-10.275 -51.525 -0.525
-7.725 -54.075 0.825
-6.225 -54.075 0.225
-4.575 -53.175 0.225
-4.425 -53.025 0.225
-4.425 -53.025 0.075
-4.725 -53.325 0.075
-4.725 -53.325 -0.375
-4.275 -52.875 -4.275
-4.275 -52.875 0.225
-9.675 -52.875 -0.675
-4.875 -53.475 0.225
-6.075 -54.075 -5.775
-7.875 -54.075 0.075
-9.975 -52.425 -0.525
-9.975 -52.425 0.825
-9.975 -52.425 1.275
-3.825 -52.125 0.675
-10.125 -52.125 0.675
-10.425 -50.775 1.725
-6.975 -54.225 -0.375
-9.825 -52.725 -0.225
-7.125 -54.225 -5.175
-3.675 -51.825 1.275
-8.025 -54.075 0.225
-3.525 -51.225 -0.675
-5.475 -53.925 -3.525
-8.475 -53.925 0.375
-5.175 -53.775 -3.525
-9.975 -52.575 0.525
-9.975 -52.575 -0.525
-4.425 -53.175 0.675
-4.425 -53.175 0.225
-3.525 -50.175 2.175
-4.575 -53.325 -0.075
-4.575 -53.325 0.075
-8.175 -54.075 -0.075
-4.275 -53.025 0.225
-4.725 -53.475 -0.525
-4.725 -53.475 -0.225
-6.225 -54.225 0.225
-6.225 -54.225 -0.225
-7.725 -54.225 -0.375
-10.125 -52.425 -0.525
-10.275 -49.425 0.375
-10.275 -52.125 2.025
-9.975 -52.725 -0.525
-9.975 -52.725 0.525
-10.575 -50.775 3.075
-3.375 -50.925 0.225
-10.575 -50.625 1.575
-7.125 -54.375 -0.675
-4.425 -53.325 0.075
-4.425 -53.325 -4.275
-8.025 -54.225 0.075
-9.525 -53.325 -0.225
-3.375 -51.075 0.225
-6.675 -54.375 0.375
-10.275 -52.275 -0.075
-8.475 -54.075 0.375
-6.525 -54.375 0.225
-10.125 -52.575 -0.525
-10.125 -52.575 0.675
-10.125 -52.575 0.975
-10.125 -52.575 0.825
-4.725 -53.625 -0.525
-6.375 -54.375 0.225
-4.875 -53.775 -3.375
-3.975 -52.875 -1.425
-3.975 -52.875 0.225
-3.975 -52.875 0.375
-9.975 -52.875 0.225
-9.975 -52.875 1.725
-10.275 -52.425 0.075
-5.025 -53.925 -0.375
-3.825 -52.725 -1.425
-10.425 -52.125 0.825
-10.425 -52.125 1.875
-10.125 -52.725 1.275
-10.125 -52.725 1.575
-9.525 -53.475 2.775
-9.825 -53.175 2.625
-3.375 -49.725 -0.075
-3.975 -53.025 0.225
-3.975 -53.025 -1.575
-10.725 -50.775 3.075
-10.575 -51.825 0.975
-8.025 -54.375 0.075
-3.225 -50.925 0.525
-3.225 -50.925 2.025
-7.125 -47.025 0.525
-10.275 -52.575 0.975
-3.225 -51.075 -0.825
-10.425 -52.275 0.525
-10.425 -49.275 -0.075
-10.425 -52.275 0.075
-8.475 -54.225 0.375
-10.725 -50.325 0.375
-3.825 -52.875 0.225
-3.825 -52.875 0.675
-3.375 -49.575 -0.075
-10.575 -49.575 0.375
-10.575 -51.975 0.675
-3.375 -51.975 1.425
-4.275 -53.475 0.075
-3.225 -51.525 2.325
-6.225 -54.525 0.825
-5.325 -54.225 -2.325
-4.125 -53.325 0.075
-10.275 -52.725 -1.575
-10.275 -52.725 1.425
-3.975 -53.175 0.075
-3.975 -53.175 0.225
-10.575 -52.125 2.025
-10.575 -52.125 0.825
-10.575 -52.125 0.525
-3.225 -51.675 2.325
-3.225 -49.875 2.025
-7.875 -54.525 -0.075
-5.175 -47.325 1.275
-3.525 -52.575 -1.125
-10.425 -52.575 0.525
-10.725 -49.725 2.175
-10.725 -51.825 -2.175
-3.075 -50.775 -1.125
-10.575 -49.275 0.375
-10.575 -52.275 0.225
-10.875 -50.775 -0.675
-3.075 -50.925 -0.525
-3.075 -50.925 2.625
-10.875 -50.625 -0.675
-3.075 -51.075 0.525
-10.875 -50.475 -0.675
-4.275 -53.625 0.375
-4.125 -53.475 -3.675
-3.975 -48.225 0.675
-4.425 -53.775 -3.375
-3.975 -53.325 -0.075
-10.875 -51.375 0.675
-10.875 -51.375 0.825
-10.875 -50.175 2.175
-3.825 -53.175 0.075
-3.825 -48.375 -3.825
-10.575 -52.425 -1.575
-10.575 -52.425 -0.375
-10.575 -52.425 1.425
-10.575 -52.425 2.025
-10.575 -49.125 0.675
-10.575 -49.125 -0.075
-5.025 -47.325 1.275
-6.225 -54.675 2.775
-7.725 -54.675 0.825
-8.325 -47.025 0.225
-10.725 -52.125 -2.175
-10.725 -49.425 1.125
-3.675 -53.025 0.225
-9.225 -54.075 0.825
-7.875 -54.675 2.625
-10.575 -52.575 -0.375
-10.575 -52.575 0.525
-4.125 -53.625 0.525
-4.125 -53.625 0.975
-4.125 -47.925 0.375
-3.975 -53.475 -0.525
-3.975 -53.475 0.825
-3.975 -53.475 0.675
-3.075 -49.725 -2.025
-5.925 -54.675 -0.975
-10.725 -52.275 0.825
-10.725 -52.275 0.075
-5.475 -54.525 -5.325
-10.725 -49.275 0.675
-10.725 -49.275 0.375
-8.475 -54.525 -0.675
-2.925 -50.775 0.525
-3.825 -48.225 0.675
-4.425 -53.925 0.075
-2.925 -50.925 0.075
-2.925 -50.925 0.825
-2.925 -50.925 0.975
-11.025 -50.625 -0.675
-3.675 -53.175 0.075
-3.675 -53.175 0.225
-10.875 -49.575 2.175
-10.875 -51.975 0.225
-10.875 -51.975 0.975
-3.225 -52.425 1.125
-10.725 -52.425 1.875
-4.725 -47.325 0.975
-3.525 -53.025 2.925
-11.025 -50.025 0.375
-7.725 -54.825 1.725
-10.875 -52.125 0.225
-10.875 -52.125 -3.675
-10.875 -52.125 -3.525
-10.875 -52.125 0.525
-10.875 -49.425 0.525
-4.125 -53.775 0.225
-9.975 -53.625 -0.675
-4.275 -53.925 0.075
-3.825 -53.475 -0.825
-3.825 -53.475 -0.675
-10.125 -53.475 -0.675
-10.725 -52.575 0.675
-10.725 -52.575 -1.875
-10.725 -52.575 -3.375
-10.725 -52.575 1.875
-3.675 -48.225 0.525
-9.525 -47.475 2.325
-8.475 -54.675 2.475
-10.875 -52.275 0.225
-10.875 -52.275 0.525
-10.875 -49.275 0.675
-10.875 -52.275 0.825
-2.775 -50.775 -0.075
-2.775 -50.775 0.075
-6.975 -54.975 1.725
-3.525 -53.175 -0.075
-2.775 -50.625 -0.075
-2.775 -50.925 0.975
-11.175 -50.625 3.075
-7.125 -54.975 0.675
-6.825 -54.975 1.275
-11.175 -50.475 2.925
-11.175 -51.075 -1.575
-2.925 -51.975 -0.375
-11.175 -51.225 -0.825
-7.425 -54.975 0.675
-6.525 -54.975 -0.225
-6.525 -54.975 2.325
-8.175 -54.825 0.375
-3.075 -52.425 -2.025
-10.875 -52.425 -0.375
-10.875 -52.425 -1.875
-10.875 -52.425 -2.175
-10.875 -49.125 2.025
-10.875 -52.425 -3.525
-10.875 -49.125 1.875
-3.975 -53.775 -0.375
-7.575 -54.975 0.675
-6.375 -54.975 0.225
-9.225 -54.375 -4.725
-4.125 -53.925 -5.475
-3.825 -53.625 -0.975
-3.825 -53.625 -4.425
-3.825 -53.625 0.525
-3.675 -53.475 0.525
-3.675 -53.475 0.675
-7.725 -54.975 1.875
-2.925 -52.125 0.075
-2.925 -52.125 -0.375
-11.025 -52.125 -0.225
-11.025 -52.125 -0.075
-11.025 -52.125 0.825
-11.025 -52.125 0.675
-11.025 -49.425 2.025
-3.525 -53.325 -0.075
-9.525 -54.225 0.525
-9.525 -54.225 -0.075
-11.175 -49.875 2.625
-7.875 -54.975 1.275
-3.225 -52.875 -1.875
-3.225 -52.875 2.025
-11.025 -52.275 0.375
-11.025 -52.275 0.075
-11.025 -52.275 2.175
-10.575 -53.175 1.425
-3.375 -53.175 -0.075
-9.375 -54.375 -0.075
-2.775 -51.825 -0.225
-8.025 -54.975 1.725
-3.975 -47.625 -3.675
-2.625 -50.775 -0.075
-2.625 -50.775 0.225
-2.625 -50.925 0.075
-2.625 -50.925 -0.075
-7.125 -55.125 0.075
-2.625 -50.475 0.375
-11.325 -51.075 1.125
-10.875 -52.725 0.825
-7.275 -55.125 0.675
-9.825 -54.075 0.525
-11.175 -49.575 1.425
-8.175 -54.975 0.525
-8.175 -54.975 0.225
-8.175 -54.975 1.875
-8.175 -54.975 1.575
-11.025 -52.425 -0.225
-11.025 -52.425 0.075
-7.425 -55.125 0.075
-3.525 -53.475 -0.075
-9.675 -54.225 0.675
-10.425 -53.475 0.225
-6.375 -55.125 0.375
-6.375 -55.125 0.675
-6.375 -55.125 1.125
-6.375 -55.125 0.825
-6.375 -55.125 0.225
-2.775 -52.125 -2.175
-11.175 -52.125 0.525
-11.175 -52.125 0.825
-9.525 -54.375 0.075
-11.175 -49.425 1.725
-10.575 -53.325 -0.675
-5.625 -54.975 -4.125
-7.725 -55.125 1.875
-7.725 -55.125 0.675
-6.225 -55.125 -2.925
-6.225 -55.125 0.375
-6.225 -55.125 -2.775
-3.075 -52.875 2.025
-11.025 -52.575 -0.225
-11.025 -52.575 0.225
-11.025 -52.575 0.975
-5.175 -54.825 1.875
-11.325 -49.875 2.025
-3.225 -53.175 0.225
-4.575 -47.025 1.575
-3.975 -47.475 0.825
-3.675 -53.775 -4.425
-11.175 -52.275 -0.225
-8.475 -54.975 0.825
-11.325 -49.725 2.175
-11.325 -51.825 0.975
-3.525 -53.625 0.525
-3.525 -53.625 -0.075
-10.425 -53.625 0.225
-5.925 -55.125 0.525
-5.925 -55.125 0.675
-11.025 -52.725 0.975
-6.975 -55.275 0.825
-2.475 -50.775 0.225
-2.475 -50.775 -0.075
-10.575 -53.475 0.225
-9.675 -54.375 0.225
-3.375 -53.475 -0.375
-3.375 -53.475 0.525
-6.825 -55.275 0.675
-6.825 -55.275 0.225
-2.475 -50.925 0.075
-7.275 -55.275 0.525
-11.325 -51.975 0.675
-5.775 -55.125 0.375
-5.775 -55.125 2.175
-5.775 -55.125 2.025
-5.775 -55.125 0.975
-8.175 -55.125 1.275
-8.625 -54.975 0.825
-8.625 -54.975 1.425
-7.425 -55.275 1.275
-7.425 -55.275 0.375
-7.425 -55.275 0.225
-11.475 -51.225 -1.425
-9.525 -54.525 -0.825
-3.225 -53.325 -0.075
-10.725 -53.325 1.425
-10.725 -53.325 -2.925
-10.725 -53.325 0.075
-7.575 -55.275 3.225
-6.375 -55.275 0.525
-11.475 -50.175 2.475
-2.625 -52.125 -0.225
-11.325 -49.425 1.425
-5.625 -55.125 0.375
-11.025 -52.875 0.975
-3.075 -53.175 0.075
-10.875 -48.375 -3.225
-3.375 -53.625 -0.075
-3.375 -53.625 0.525
-9.825 -54.375 -0.675
-11.325 -49.275 1.875
-5.925 -55.275 0.975
-5.925 -55.275 2.475
-8.025 -55.275 1.275
-9.675 -54.525 1.425
-3.225 -53.475 0.675
-3.225 -53.475 -0.075
-3.225 -53.475 -1.125
-8.925 -54.975 0.825
-9.225 -54.825 0.225
-6.975 -55.425 1.125
-6.975 -55.425 0.375
-2.325 -50.925 -0.225
-8.625 -55.125 1.275
-11.475 -51.975 0.225
-7.275 -55.425 -3.225
-7.275 -55.425 2.025
-2.325 -50.475 -0.675
-3.075 -53.325 0.975
-10.875 -53.325 0.675
-7.425 -55.425 0.225
-7.425 -55.425 2.025
-7.425 -55.425 1.125
-10.425 -53.925 -0.975
-9.975 -54.375 -0.675
-7.575 -55.425 0.675
-6.375 -55.425 0.525
-11.175 -52.875 -2.925
-9.075 -54.975 0.525
-8.325 -55.275 1.125
-11.475 -52.125 0.075
-11.475 -52.125 0.675
-2.325 -50.025 1.575
-3.225 -53.625 0.225
-11.625 -49.875 2.025
-9.675 -54.675 -1.275
-3.075 -53.475 1.275
-3.075 -53.475 -0.525
-2.775 -53.025 0.075
-11.175 -53.025 0.375
-11.175 -53.025 -3.075
-9.225 -54.975 1.725
-9.225 -54.975 0.075
-9.225 -54.975 0.225
-9.225 -54.975 -0.225
-5.925 -55.425 0.675
-2.325 -49.725 1.425
-11.325 -52.725 0.525
-5.025 -55.125 0.825
-3.825 -47.175 0.825
-10.125 -54.375 -0.375
-2.925 -53.325 -0.525
-9.525 -54.825 0.825
-9.525 -54.825 -0.975
-9.525 -54.825 -3.225
-11.775 -50.775 2.925
-6.975 -55.575 0.525
-5.775 -55.425 0.825
-3.225 -53.775 0.975
-2.175 -50.925 -0.375
-11.625 -51.975 -0.225
-7.275 -55.575 1.125
-7.275 -55.575 -0.525
-6.525 -55.575 1.725
-3.075 -53.625 1.275
-3.075 -53.625 0.225
-3.075 -53.625 -0.375
-2.775 -53.175 0.075
-11.175 -53.175 0.675
-11.175 -48.375 0.375
-9.375 -54.975 -0.375
-7.575 -55.575 1.425
-7.575 -55.575 1.725
-7.575 -55.575 1.875
-7.575 -55.575 -4.575
-8.325 -55.425 -0.675
-2.925 -53.475 -0.075
-2.925 -53.475 0.075
-2.925 -53.475 -0.675
-4.275 -54.825 0.825
-9.675 -54.825 -0.225
-11.625 -52.275 0.675
-10.725 -53.925 -1.125
-10.125 -54.525 -0.225
-9.225 -55.125 -0.225
-9.225 -55.125 -0.825
-5.025 -46.275 1.275
-5.025 -46.275 0.825
-11.175 -48.225 -0.375
-2.775 -53.325 0.075
-2.775 -53.325 -0.375
-2.775 -53.325 -0.225
-4.425 -54.975 1.725
-9.525 -54.975 0.075
-9.525 -54.975 0.525
-5.925 -55.575 -0.675
-9.975 -54.675 0.525
-11.625 -52.425 -0.225
-11.775 -51.975 0.975
-6.975 -55.725 0.375
-2.025 -50.925 -0.075
-2.925 -53.625 -0.375
-2.925 -53.625 -0.525
-2.925 -53.625 0.075
-11.025 -53.625 -0.075
-11.925 -50.625 -0.375
-7.125 -55.725 0.525
-2.025 -51.075 -0.375
-11.925 -51.075 -1.425
-7.275 -55.725 1.275
-7.275 -55.725 -0.075
-7.275 -55.725 0.675
-4.875 -55.275 0.675
-7.425 -55.725 0.375
-6.525 -55.725 2.025
-3.525 -54.375 -4.275
-11.775 -52.125 0.375
-7.575 -55.725 0.225
-6.375 -55.725 1.575
-8.325 -55.575 2.325
-2.775 -53.475 -0.825
-9.675 -54.975 -0.075
-11.925 -51.525 -4.575
-7.725 -55.725 0.525
-10.875 -53.925 0.975
-10.125 -54.675 0.375
-11.775 -52.275 0.075
-5.475 -55.575 0.675
-11.475 -53.025 1.425
-9.225 -55.275 -1.125
-2.925 -53.775 -0.375
-9.975 -54.825 0.525
-11.925 -49.725 2.175
-5.925 -55.725 -1.125
-4.125 -54.975 2.025
-4.125 -54.975 1.275
-9.825 -54.975 -3.675
-8.625 -55.575 2.025
-10.575 -54.375 -0.375
-3.375 -47.175 -2.775
-11.925 -51.975 0.975
-3.525 -54.525 -3.375
-10.425 -54.525 -3.675
-2.475 -53.175 0.075
-12.075 -50.625 0.225
-12.075 -50.625 -0.225
-3.075 -47.475 -3.525
-3.675 -54.675 -3.975
-10.275 -54.675 0.075
-12.075 -50.475 -0.225
-7.275 -55.875 -0.225
-9.675 -55.125 -0.525
-9.675 -55.125 0.675
-11.925 -52.125 0.225
-1.875 -51.375 -0.525
-6.375 -55.875 -0.675
-1.875 -51.525 0.225
-3.975 -54.975 2.175
-3.975 -54.975 -3.225
-4.725 -46.125 -0.525
-4.425 -55.275 1.125
-2.475 -53.325 0.075
-12.075 -49.875 -0.375
-6.075 -55.875 -1.275
-3.375 -54.525 -4.275
-4.125 -55.125 0.825
-9.825 -55.125 0.525
-9.825 -55.125 0.825
-3.525 -54.675 0.075
-3.525 -54.675 -2.925
-10.425 -54.675 0.675
-5.925 -55.875 -1.125
-5.325 -55.725 4.125
-8.625 -55.725 2.475
-10.275 -54.825 1.725
-10.275 -54.825 -2.625
-10.275 -54.825 0.375
-12.075 -49.575 1.425
-12.075 -51.975 0.225
-5.775 -55.875 -0.375
-8.175 -55.875 0.525
-9.675 -55.275 -3.225
-2.475 -53.475 0.075
-10.125 -54.975 0.975
-12.225 -50.625 -0.225
-1.725 -50.925 0.225
-2.025 -52.575 -0.225
-5.175 -55.725 -0.825
-8.775 -55.725 -3.075
-8.775 -55.725 2.475
-1.725 -51.225 -0.675
-12.075 -52.125 -0.525
-12.075 -52.125 0.225
-12.075 -49.425 0.075
-5.625 -55.875 0.675
-6.375 -56.025 -0.525
-9.975 -55.125 1.275
-4.425 -46.125 1.725
-9.525 -55.425 -0.525
-6.225 -56.025 0.075
-10.575 -54.675 1.125
-10.575 -54.675 -0.225
-12.075 -52.275 0.525
-3.525 -54.825 -3.525
-10.425 -54.825 0.825
-6.075 -56.025 -0.525
-6.075 -56.025 1.125
-6.075 -56.025 -0.375
-9.825 -55.275 0.675
-10.275 -54.975 1.275
-10.275 -54.975 0.525
-12.075 -52.425 0.225
-2.175 -53.175 0.075
-3.825 -55.125 0.675
-2.325 -53.475 0.075
-5.775 -56.025 0.225
-12.225 -51.975 0.225
-6.975 -56.175 0.975
-1.575 -50.775 0.225
-12.375 -50.775 1.275
-12.375 -50.775 1.575
-1.575 -50.925 0.075
-12.375 -50.625 -0.225
-5.175 -55.875 2.775
-1.875 -52.575 -0.375
-3.225 -54.675 -3.075
-1.575 -51.225 -1.125
-1.575 -51.225 0.675
-10.575 -54.825 -0.075
-12.225 -52.125 0.225
-12.225 -49.425 0.075
-2.175 -53.325 0.075
-3.525 -54.975 1.425
-10.425 -54.975 0.975
-4.125 -55.425 0.975
-12.225 -52.275 0.225
-5.475 -56.025 1.125
-12.225 -49.275 0.225
-10.275 -55.125 0.525
-10.275 -55.125 -0.375
-8.925 -55.875 2.025
-1.575 -49.875 0.225
-3.825 -55.275 0.675
-10.125 -55.275 -4.725
-10.125 -55.275 1.275
-10.125 -55.275 -3.225
-5.925 -56.175 0.825
-1.575 -49.725 0.825
-2.025 -53.175 -0.075
-2.025 -53.175 0.225
-1.575 -51.825 0.075
-4.575 -55.725 0.525
-12.225 -52.425 0.225
-12.225 -52.425 -2.325
-1.725 -49.125 -2.175
-12.225 -49.125 -0.075
-1.725 -52.425 -4.725
-2.175 -53.475 0.075
-4.275 -55.575 2.625
-4.275 -55.575 -0.975
-3.075 -46.875 1.125
-4.875 -55.875 1.125
-4.875 -55.875 1.425
-1.575 -49.575 0.225
-12.375 -49.575 -0.075
-12.375 -51.975 0.225
-10.575 -54.975 0.375
-3.375 -54.975 0.225
-9.975 -55.425 0.225
-3.975 -55.425 0.375
-3.975 -55.425 0.975
-1.725 -48.975 2.325
-1.425 -50.775 0.075
-5.175 -56.025 -1.125
-1.725 -52.575 -0.225
-1.425 -50.925 0.075
-10.425 -55.125 -0.525
-6.825 -56.325 0.825
-1.575 -52.125 0.075
-1.575 -49.425 -1.275
-12.375 -49.425 -0.075
-12.375 -49.425 0.075
-12.375 -49.425 0.225
-12.375 -49.425 0.975
-1.425 -51.225 -0.675
-1.425 -51.225 -0.825
-4.425 -55.725 0.375
-9.525 -55.725 -4.125
-5.025 -56.025 1.575
-12.225 -52.725 0.825
-1.725 -52.725 -0.825
-12.375 -49.275 -0.075
-12.375 -52.275 -1.725
-3.825 -55.425 0.975
-2.325 -53.925 0.825
-2.325 -53.925 -0.675
-2.325 -53.925 0.675
-1.425 -49.875 -1.125
-11.025 -54.675 1.725
-10.875 -54.825 1.575
-10.875 -54.825 -0.525
-2.775 -54.525 -3.525
-1.875 -48.375 0.225
-1.875 -53.175 0.075
-4.575 -55.875 0.675
-4.275 -55.725 -0.975
-12.375 -52.425 0.825
-10.575 -55.125 0.375
-12.225 -52.875 -2.025
-1.425 -49.575 -1.275
-1.425 -49.575 0.225
-1.425 -49.575 0.375
-1.425 -49.575 -1.125
-5.175 -56.175 -0.975
-1.575 -52.575 -2.625
-12.375 -52.575 0.825
-1.275 -50.775 0.225
-1.275 -50.775 0.075
-1.875 -48.225 0.975
-10.275 -55.425 -1.275
-12.675 -50.625 -2.025
-1.875 -53.325 -0.075
-4.425 -55.875 1.575
-4.425 -55.875 1.125
-2.325 -54.075 -0.675
-2.325 -54.075 -0.375
-2.325 -54.075 -0.075
-1.275 -51.075 0.225
-1.275 -51.075 -0.525
-6.675 -56.475 0.975
-1.425 -52.125 -0.375
-1.425 -52.125 -0.225
-2.025 -53.625 -4.275
-1.425 -49.425 1.725
-4.725 -56.025 0.675
-12.525 -49.425 1.575
-12.525 -49.425 0.225
-12.525 -52.125 0.075
-4.125 -55.725 -1.275
-4.125 -55.725 0.375
-9.825 -55.725 0.525
-2.775 -54.675 -3.525
-1.275 -50.175 -1.725
-1.275 -50.175 0.975
-1.275 -50.175 -1.575
-10.875 -54.975 1.725
-10.875 -54.975 1.875
-1.575 -48.825 -1.875
-2.175 -53.925 0.225
-2.175 -53.925 -0.375
-2.175 -53.925 -1.125
-2.175 -53.925 -0.825
-10.125 -55.575 0.375
-1.425 -52.275 -0.375
-12.525 -52.275 -0.375
-12.525 -52.275 0.075
-7.725 -56.475 2.325
-7.725 -56.475 0.975
-10.575 -55.275 0.375
-1.875 -48.075 0.525
-1.875 -48.075 -0.075
-1.875 -48.075 1.125
-1.875 -53.475 0.075
-1.725 -48.375 0.075
-4.575 -56.025 0.675
-2.025 -53.775 0.525
-2.025 -53.775 0.225
-2.025 -47.775 0.825
-1.425 -52.425 -0.375
-1.425 -49.125 -1.125
-1.425 -49.125 -1.425
-1.425 -49.125 -0.075
-12.525 -49.125 -0.825
-2.325 -54.225 -0.225
-2.325 -54.225 -0.975
-1.575 -48.675 0.675
-1.575 -48.675 0.525
-1.275 -49.725 -0.675
-12.675 -49.725 -1.275
-5.925 -56.475 -0.375
-1.275 -49.575 2.175
-1.275 -49.575 0.375
-1.275 -49.575 0.075
-11.775 -47.475 -0.075
-12.675 -49.575 1.125
-12.675 -49.575 0.975
-1.275 -51.975 -0.225
-1.275 -51.975 0.225
-12.675 -49.575 0.525
-2.175 -54.075 0.225
-2.175 -54.075 0.075
-2.175 -54.075 -0.975
-3.675 -55.575 0.675
-10.275 -55.575 -1.275
-11.025 -54.975 0.525
-11.025 -54.975 0.225
-11.175 -54.825 0.675
-1.725 -53.325 0.375
-2.625 -46.875 -4.425
-1.875 -47.925 0.975
-1.875 -53.625 0.225
-1.875 -53.625 0.375
-9.825 -55.875 0.975
-12.825 -50.775 -1.725
-1.125 -50.925 -0.375
-1.125 -50.625 0.525
-1.125 -50.625 0.375
-6.825 -56.625 0.975
-1.125 -51.075 -0.375
-10.725 -55.275 0.825
-3.225 -55.275 -0.525
-12.675 -52.125 0.075
-2.025 -53.925 0.525
-1.125 -50.325 -0.075
-1.125 -50.325 -2.175
-12.825 -51.225 -5.175
-3.825 -55.725 1.125
-10.575 -55.425 0.225
-1.125 -50.175 0.825
-12.825 -51.375 -1.425
-1.425 -48.825 -1.425
-1.425 -48.825 2.025
-1.275 -52.275 -0.225
-1.275 -49.275 2.025
-1.275 -49.275 -0.825
-12.675 -49.275 0.675
-12.675 -49.275 0.375
-1.125 -50.025 0.375
-1.125 -50.025 -0.975
-1.125 -50.025 -0.675
-12.825 -51.525 -1.425
-7.725 -56.625 0.975
-1.725 -53.475 0.075
-1.725 -53.475 0.375
-1.575 -53.175 0.375
-1.575 -48.375 0.075
-2.175 -54.225 -0.525
-3.525 -55.575 0.825
-1.875 -53.775 -4.575
-1.125 -49.875 1.125
-1.275 -49.125 0.225
-1.275 -49.125 0.075
-1.425 -48.675 -1.875
-12.675 -49.125 -0.825
-12.675 -49.125 -0.075
-12.525 -52.875 0.525
-1.125 -49.725 0.225
-12.825 -49.725 0.525
-8.025 -56.625 1.575
-11.325 -54.825 0.825
-3.675 -55.725 0.675
-2.025 -54.075 0.225
-10.875 -55.275 1.725
-1.125 -49.575 0.075
-12.825 -49.575 0.825
-12.825 -49.575 0.075
-12.825 -49.575 0.375
-12.825 -51.975 0.075
-12.825 -51.975 0.675
-1.575 -53.325 0.225
-8.175 -56.625 0.975
-3.225 -55.425 -0.675
-1.725 -47.925 3.075
-1.275 -48.975 -0.075
-1.275 -48.975 0.375
-1.275 -48.975 0.075
-1.275 -48.975 0.525
-12.675 -52.575 1.125
-1.875 -53.925 0.375
-1.875 -53.925 0.525
-1.875 -53.925 0.225
-1.875 -53.925 1.425
-0.975 -50.775 -0.075
-12.975 -50.775 -1.275
-3.375 -55.575 0.825
-0.975 -50.925 -0.375
-0.975 -50.925 0.075
-0.975 -50.925 -0.225
-0.975 -50.625 -0.375
-0.975 -50.625 0.225
-1.125 -49.425 -0.675
-12.825 -49.425 -0.975
-12.825 -49.425 1.425
-12.825 -49.425 1.125
-12.825 -49.425 1.275
-12.825 -49.425 0.375
-12.825 -52.125 -0.825
-0.975 -50.475 -0.525
-0.975 -51.075 -0.525
-0.975 -50.325 -0.975
-0.975 -51.225 -0.525
-0.975 -51.225 -0.675
-12.975 -51.225 -1.275
-1.275 -48.825 -1.725
-0.975 -50.175 -0.975
-0.975 -50.175 -1.425
-0.975 -51.375 -0.225
-12.975 -51.375 -1.425
-2.025 -47.325 0.525
-3.525 -55.725 0.225
-1.575 -53.475 0.075
-1.125 -49.275 0.525
-1.125 -49.275 0.375
-1.125 -52.275 -1.275
-12.825 -52.275 0.675
-12.825 -52.275 4.575
-12.825 -49.275 -0.225
-0.975 -50.025 0.525
-1.725 -53.775 0.525
-1.725 -53.775 -0.075
-9.975 -56.025 0.525
-11.175 -55.125 1.875
-11.175 -55.125 0.375
-11.025 -55.275 0.375
-12.975 -49.875 0.525
-2.325 -46.875 2.925
-10.875 -55.425 1.875
-1.875 -47.475 0.225
-1.275 -48.675 -0.225
-1.875 -54.075 0.225
-1.875 -54.075 1.575
-12.825 -49.125 -0.525
-1.125 -49.125 -0.075
-1.125 -49.125 0.075
-12.825 -49.125 -0.075
-0.975 -49.725 0.525
-1.575 -53.625 0.375
-1.575 -53.625 0.225
-1.425 -53.325 -0.375
-12.975 -49.575 0.825
-12.975 -49.575 0.525
-0.975 -49.575 0.525
-0.975 -49.575 -0.675
-11.925 -54.375 0.525
-1.725 -53.925 -0.225
-1.275 -48.525 -0.075
-1.275 -48.525 2.475
-12.975 -49.425 0.975
-12.975 -52.125 0.675
-12.975 -52.125 0.225
-0.975 -49.425 0.675
-0.825 -50.625 0.825
-0.825 -50.925 -0.825
-11.175 -55.275 0.975
-11.175 -55.275 0.525
-0.825 -51.075 -0.675
-1.875 -54.225 -4.275
-0.825 -50.325 -2.625
-11.025 -55.425 0.225
-13.125 -51.225 -1.125
-2.325 -54.825 1.275
-1.425 -48.075 -0.975
-1.425 -53.475 0.375
-9.975 -56.175 0.375
-3.975 -45.375 0.675
-1.575 -53.775 0.375
-1.575 -53.775 0.525
-1.275 -48.375 -0.075
-12.975 -49.275 -1.275
-12.975 -49.275 -1.575
-0.975 -49.275 0.525
-0.975 -49.275 0.075
-12.975 -52.275 0.225
-2.025 -47.025 -5.025
-11.925 -54.525 0.825
-1.125 -48.675 -0.225
-12.975 -52.425 0.975
-3.375 -45.675 1.275
-1.275 -48.225 -0.075
-12.675 -48.225 0.075
-1.575 -53.925 0.075
-1.575 -53.925 -0.075
-3.825 -45.375 0.225
-3.825 -45.375 0.375
-11.325 -55.275 1.275
-0.975 -48.975 0.675
-0.975 -48.975 -2.175
-0.975 -48.975 0.375
-0.825 -49.575 0.525
-13.125 -49.575 0.525
-13.125 -49.575 1.125
-11.175 -55.425 2.025
-13.125 -51.975 0.225
-1.125 -53.025 -1.125
-1.125 -53.025 -1.275
-2.925 -55.575 0.825
-3.525 -45.525 -0.075
-0.825 -49.425 0.825
-0.825 -49.425 0.525
-13.125 -49.425 0.675
-13.125 -49.425 1.125
-13.125 -52.125 -1.425
-13.275 -50.775 -1.125
-0.675 -50.625 0.975
-0.675 -50.625 0.075
-0.675 -50.625 -0.375
-11.925 -54.675 1.725
-11.925 -54.675 0.975
-3.075 -55.725 0.525
-4.275 -45.075 -0.075
-1.275 -48.075 -1.725
-1.275 -48.075 0.975
-0.675 -50.475 -0.375
-0.675 -50.475 -0.525
-0.975 -48.825 0.375
-0.975 -48.825 0.525
-1.425 -47.775 0.225
-1.425 -47.775 -1.725
-0.975 -52.725 1.425
-9.975 -56.325 0.375
-13.275 -50.325 -1.875
-3.675 -45.375 0.075
-12.375 -54.075 -0.675
-0.825 -49.275 -1.125
-1.875 -47.025 -2.625
-13.125 -49.275 1.275
-13.125 -52.275 0.225
-13.275 -50.025 -0.225
-0.975 -48.675 0.525
-0.975 -48.675 0.825
-0.975 -52.875 -5.325
-0.675 -49.875 -0.975
-11.475 -55.275 1.875
-0.825 -52.425 0.375
-0.825 -52.425 0.525
-13.125 -52.425 0.375
-1.275 -53.625 0.525
-1.275 -47.925 0.375
-1.275 -47.925 -0.375
-1.125 -48.225 -1.875
-1.425 -47.625 0.075
-0.675 -49.725 0.975
-2.925 -55.725 3.375
-11.025 -55.725 -0.825
-11.925 -54.825 1.275
-11.925 -54.825 1.875
-0.825 -48.975 -0.675
-0.825 -48.975 0.675
-0.825 -48.975 -0.825
-0.975 -48.525 0.225
-12.375 -54.225 -0.525
-13.275 -49.575 -1.275
-13.275 -49.575 0.975
-5.775 -57.075 1.875
-8.175 -57.075 2.625
-10.875 -55.875 1.425
-10.875 -55.875 1.125
-3.975 -45.075 0.075
-1.275 -47.775 0.225
-12.675 -53.775 -0.525
-12.675 -53.775 -3.375
-1.125 -48.075 0.225
-13.275 -49.425 0.525
-13.275 -52.125 0.075
-4.275 -56.625 -0.375
-13.125 -48.825 2.475
-0.525 -50.625 -0.375
-0.825 -52.725 -0.075
-0.825 -52.725 -2.025
-3.225 -56.025 0.075
-13.425 -50.625 -0.975
-13.425 -50.625 -1.125
-0.525 -50.475 -0.525
-0.525 -50.475 -0.375
-1.425 -54.075 -2.325
-1.425 -54.075 -0.075
-0.975 -48.375 0.525
-0.975 -48.375 0.675
-0.525 -51.225 2.175
-13.425 -50.325 0.225
-0.675 -49.275 -1.725
-0.675 -52.275 -0.075
-13.275 -52.275 0.225
-13.425 -50.175 -0.225
-11.325 -55.575 -0.225
-3.375 -56.175 0.225
-2.775 -45.825 2.175
-2.025 -46.575 -5.175
-2.775 -55.725 3.375
-11.175 -55.725 -0.225
-0.525 -50.025 -2.025
-0.825 -48.675 0.075
-0.825 -48.675 0.375
-1.125 -47.925 -1.725
-0.525 -49.875 -0.825
-1.275 -53.925 0.225
-1.275 -47.625 0.675
-1.275 -47.625 0.375
-0.675 -52.425 -0.075
-13.275 -52.425 0.375
-13.425 -49.875 -0.075
-2.925 -55.875 0.525
-11.025 -55.875 -0.825
-6.075 -57.225 2.025
-0.975 -48.225 -1.875
-0.525 -51.825 -0.075
-0.525 -51.825 -0.375
-1.425 -54.225 0.075
-12.525 -54.225 -2.325
-3.075 -56.025 0.225
-0.825 -48.525 0.375
-0.825 -53.025 -1.275
-0.675 -52.575 -0.075
-13.275 -52.575 0.375
-0.525 -49.575 -1.425
-0.525 -49.575 1.125
-13.425 -49.575 0.225
-1.125 -53.775 0.225
-1.125 -53.775 0.675
-1.125 -53.775 0.825
-12.825 -53.775 -0.675
-3.975 -44.925 0.075
-11.625 -55.425 1.425
-0.975 -48.075 -0.375
-0.975 -48.075 0.375
-1.275 -47.475 0.375
-1.275 -54.075 0.375
-0.525 -52.125 -0.075
-13.425 -52.125 0.375
-2.625 -55.725 0.675
-5.025 -44.475 -1.425
-0.675 -52.725 -2.025
-0.375 -50.775 -0.225
-13.575 -50.625 -0.975
-0.375 -50.625 0.825
-0.375 -50.925 -0.075
-13.575 -50.625 -2.025
-0.375 -50.925 -0.225
-13.575 -50.475 -2.025
-13.575 -51.075 -4.575
-1.425 -54.375 1.125
-1.425 -47.175 0.375
-0.525 -52.275 -0.075
-13.575 -50.175 -1.875
-0.675 -48.675 1.875
-0.675 -52.875 -1.425
-0.375 -50.025 0.075
-0.375 -50.025 -1.425
-0.375 -51.525 1.275
-13.575 -50.025 -0.225
-0.975 -47.925 3.525
-0.975 -53.625 -5.175
-0.975 -53.625 0.075
-0.975 -53.625 -5.025
-7.725 -57.375 0.975
-1.125 -53.925 0.375
-1.125 -47.625 -1.125
-1.125 -47.625 2.475
-1.125 -47.625 0.225
-1.125 -47.625 0.525
-1.125 -53.925 0.825
-1.125 -53.925 -0.075
-1.125 -53.925 0.225
-1.125 -53.925 0.075
-1.125 -53.925 0.525
-0.825 -48.225 0.525
-4.425 -56.925 0.975
-0.525 -52.425 0.225
-0.525 -52.425 -0.075
-0.525 -52.425 -1.725
-13.125 -48.225 1.275
-0.375 -49.875 -0.225
-0.375 -49.875 -1.275
-1.275 -47.325 0.225
-13.575 -49.725 -4.575
-0.375 -49.725 -1.275
-0.375 -49.725 0.675
-13.575 -51.825 1.425
-0.675 -48.525 0.075
-0.675 -53.025 -0.825
-0.675 -53.025 1.725
-2.475 -55.725 0.225
-0.525 -48.975 0.675
-0.525 -48.975 5.775
-0.525 -52.575 -0.225
-13.425 -52.575 0.375
-1.425 -47.025 1.125
-1.425 -47.025 1.725
-1.875 -46.425 2.625
-0.375 -49.575 -0.825
-0.975 -47.775 -1.725
-13.575 -51.975 0.525
-0.975 -53.775 0.225
-0.975 -53.775 -0.075
-0.975 -53.775 0.075
-3.975 -44.775 0.975
-8.175 -57.375 0.375
-0.825 -48.075 -0.375
-1.125 -47.475 2.625
-0.825 -53.475 0.075
-1.125 -54.075 -1.125
-1.125 -54.075 -0.075
-1.125 -54.075 0.525
-1.125 -54.075 0.225
-0.375 -49.425 -2.625
-13.575 -49.425 0.375
-13.575 -49.425 0.225
-1.575 -46.725 1.275
-0.225 -50.775 0.225
-0.225 -50.775 -0.225
-0.225 -50.925 -0.225
-0.225 -50.925 -2.175
-0.225 -50.475 -1.425
-0.225 -50.475 1.425
-13.725 -50.475 -3.075
-7.425 -57.525 1.125
-0.375 -52.275 -0.075
-0.375 -49.275 2.175
-13.575 -49.275 0.375
-0.975 -47.625 0.375
-0.975 -47.625 0.525
-0.975 -53.925 0.075
-0.975 -53.925 0.225
-0.225 -51.375 -0.225
-0.225 -50.175 -1.575
-13.725 -50.175 -0.225
-3.825 -44.775 0.075
-6.375 -57.525 1.575
-0.825 -53.625 3.525
-13.125 -47.925 1.125
-1.425 -46.875 1.275
-0.525 -48.675 0.975
-0.525 -48.675 -0.675
-12.525 -54.675 0.525
-4.875 -57.225 1.875
-12.825 -47.325 -0.075
-0.225 -51.525 -0.225
-11.925 -55.425 0.525
-4.425 -57.075 0.825
-2.475 -55.875 -0.075
-0.375 -52.425 -0.075
-0.375 -49.125 2.625
-13.575 -49.125 -4.275
-0.225 -51.675 -0.675
-13.725 -51.675 0.225
-1.725 -46.425 0.975
-12.225 -55.125 0.075
-12.225 -55.125 -2.625
-1.275 -47.025 2.925
-13.725 -49.725 0.675
-0.225 -49.725 0.675
-2.775 -45.375 0.825
-13.575 -52.575 0.525
-9.975 -56.925 -1.425
-0.825 -47.775 0.225
-0.825 -47.775 0.675
-0.825 -53.775 0.075
-0.825 -53.775 0.225
-0.975 -47.475 0.075
-0.975 -47.475 0.225
-3.675 -44.775 -0.225
-0.975 -54.075 0.225
-13.275 -48.075 0.825
-13.725 -49.575 0.225
-13.725 -49.575 1.425
-0.225 -49.575 0.825
-0.225 -49.575 -1.875
-12.825 -54.375 -0.075
-0.375 -48.825 1.275
-0.375 -48.825 0.675
-0.525 -48.375 1.725
-0.525 -48.375 0.825
-0.525 -53.175 1.425
-0.375 -52.725 -1.425
-0.375 -52.725 -1.575
-13.725 -49.425 0.975
-13.725 -49.425 -1.275
-0.225 -52.125 1.125
-0.225 -52.125 1.425
-2.025 -55.575 0.075
-12.075 -55.425 -0.525
-0.075 -50.925 -0.225
-1.275 -46.875 0.225
-12.675 -54.675 -0.525
-12.675 -54.675 0.675
-13.875 -50.475 -0.825
-0.825 -53.925 0.225
-0.825 -53.925 0.075
-13.125 -53.925 -0.975
-0.075 -51.225 -0.375
-13.725 -49.275 0.525
-13.725 -49.275 0.675
-2.475 -56.025 -0.075
-8.475 -57.525 1.125
-3.525 -44.775 -0.225
-0.975 -54.225 -0.975
-0.075 -50.175 1.875
-0.075 -51.375 -0.375
-0.075 -51.375 -0.225
-0.375 -48.675 -0.075
-0.375 -48.675 0.825
-9.075 -57.375 -0.375
-1.575 -46.425 0.675
-12.375 -55.125 0.225
-0.525 -48.225 2.025
-0.525 -48.225 0.225
-0.075 -51.525 -0.225
-13.875 -51.525 0.075
-0.225 -52.425 1.275
-13.725 -49.125 1.575
-0.225 -49.125 2.175
-0.225 -49.125 2.475
-8.625 -57.525 0.675
-7.875 -57.675 0.525
-0.075 -51.675 0.075
-2.775 -56.325 1.125
-11.175 -56.325 0.075
-0.375 -48.525 -0.675
-0.375 -53.025 -0.225
-0.375 -48.525 0.075
-0.825 -47.475 0.525
-0.825 -47.475 0.225
-3.675 -44.625 4.125
-13.875 -51.825 0.825
-0.825 -54.075 0.075
-0.225 -52.575 -0.075
-1.275 -54.825 0.225
-4.275 -57.225 -0.525
-0.975 -54.375 0.225
-0.975 -54.375 1.875
-0.075 -49.575 0.075
-13.875 -49.575 0.225
-1.725 -46.125 0.675
-12.225 -55.425 -2.325
-0.375 -53.175 -0.225
-9.375 -57.375 0.225
-0.225 -48.825 0.975
-13.725 -52.725 0.525
-1.575 -46.275 0.675
-8.325 -57.675 1.425
-1.125 -54.675 0.375
-1.125 -54.675 -1.275
-12.825 -54.675 0.975
-13.875 -49.425 1.125
-13.875 -49.425 0.525
-13.875 -52.125 1.875
-0.675 -53.925 -0.075
-13.275 -53.925 0.525
-0.825 -47.325 0.075
0.075 -50.925 0.675
-6.825 -57.825 1.575
-13.875 -52.275 0.675
0.075 -51.225 0.075
-6.525 -57.825 1.725
-12.975 -54.525 -0.975
-0.975 -54.525 0.675
-0.975 -54.525 -0.975
0.075 -51.375 -0.825
-0.975 -54.525 0.525
-0.375 -53.325 -4.725
-0.375 -53.325 -1.575
-1.275 -46.575 0.075
-1.275 -54.975 -0.225
-2.775 -56.475 0.525
-12.675 -54.975 0.375
0.075 -51.525 -0.375
0.075 -51.525 -0.225
-0.075 -52.425 1.875
0.075 -49.875 1.275
-0.675 -47.475 0.375
-0.675 -54.075 0.225
-0.525 -53.775 -0.375
-0.525 -53.775 0.075
-2.175 -45.525 5.325
-0.225 -53.025 -0.225
-12.825 -54.825 0.375
-1.125 -54.825 -1.275
-1.575 -46.125 0.825
-1.575 -46.125 -0.075
-0.825 -54.375 0.075
-0.825 -47.175 1.725
-13.125 -54.375 -1.425
-13.125 -54.375 1.425
0.075 -49.725 0.075
-0.375 -53.475 -0.225
0.075 -49.575 -1.875
-14.025 -51.975 0.075
-0.975 -54.675 0.825
-0.975 -54.675 1.575
-0.975 -54.675 1.425
-12.975 -54.675 1.275
-0.975 -54.675 1.275
-3.075 -44.775 4.725
-0.225 -53.175 1.575
-0.225 -53.175 -0.225
-0.225 -53.175 0.075
-1.275 -46.425 -0.075
-1.275 -46.425 5.625
-1.275 -46.425 -1.425
-12.675 -55.125 0.675
-0.525 -53.925 0.075
-0.525 -47.625 -1.875
-0.525 -47.625 -0.075
0.075 -49.425 -1.125
0.075 -52.125 1.125
0.075 -49.425 0.075
-14.025 -49.425 0.525
-0.675 -47.325 0.075
-0.375 -53.625 -0.225
-13.575 -53.625 0.075
0.225 -50.775 -0.075
-1.125 -46.575 1.275
-14.175 -50.925 -0.525
-14.175 -50.625 -0.825
-13.125 -54.525 2.025
0.225 -50.475 -3.825
-14.175 -50.475 -0.975
0.075 -49.275 2.175
0.075 -52.275 2.175
-14.025 -49.275 1.425
-4.875 -57.675 1.125
-1.875 -45.675 3.075
-14.175 -51.225 -6.075
-2.025 -56.025 -0.075
0.225 -50.175 1.425
0.225 -50.175 -2.475
-1.575 -55.575 0.075
0.225 -51.525 1.725
-2.925 -44.775 2.325
-14.175 -50.025 0.075
0.075 -49.125 -0.375
-0.525 -47.475 -0.375
-0.375 -53.775 -4.125
-0.375 -47.775 1.725
0.225 -51.675 -0.225
0.225 -51.675 -0.375
0.225 -49.875 1.875
0.225 -49.875 2.775
0.225 -49.875 1.125
0.225 -51.675 0.975
-0.675 -54.375 -2.175
-0.675 -47.175 1.875
-14.175 -51.675 0.075
-4.725 -57.675 2.175
-0.075 -53.025 0.225
-2.475 -45.075 2.025
-1.275 -46.275 2.625
-13.725 -53.475 -0.375
-0.225 -53.475 -0.225
0.225 -49.725 1.725
-14.025 -48.975 0.375
-14.025 -48.975 -1.275
-14.175 -49.725 1.425
0.075 -52.575 0.225
-14.175 -51.825 0.225
-5.925 -57.975 1.425
-0.825 -54.675 -0.975
-0.825 -46.875 1.875
-0.825 -54.675 0.675
-0.825 -54.675 -1.125
-3.075 -44.625 1.875
-1.125 -55.125 1.275
-12.825 -46.425 -1.125
-2.625 -56.625 0.975
0.225 -49.575 0.075
0.225 -49.575 -0.225
-14.175 -49.575 1.425
-0.075 -53.175 1.725
-0.075 -53.175 -0.375
-0.375 -47.625 -0.525
-3.525 -44.325 4.275
-0.525 -47.325 -1.875
-0.525 -54.225 -2.175
0.075 -52.725 -1.875
-5.025 -57.825 1.725
-0.975 -46.575 2.775
-0.975 -46.575 0.525
-0.975 -46.575 0.075
-0.975 -54.975 1.275
