# .PCD v0.7 - Point Cloud Data file format
VERSION 0.7
FIELDS x y z
SIZE 4 4 4
TYPE F F F
COUNT 1 1 1
WIDTH 2048
HEIGHT 1
VIEWPOINT 0 0 0 1 0 0 0
POINTS 2048
DATA ascii
-20.775 11.175 2.325
-20.775 11.325 -0.525
-20.775 11.325 -0.675
-20.775 11.325 0.225
-20.775 11.475 0.675
-20.625 10.875 1.875
-20.475 11.325 0.825
-20.475 11.475 -0.525
-20.625 10.725 1.725
-20.475 11.625 1.425
-20.475 11.625 -0.375
-21.375 11.625 0.375
-20.475 11.625 2.025
-20.175 11.175 1.725
-20.175 11.475 -0.825
-20.625 11.925 1.725
-20.325 11.775 -0.525
-20.325 11.775 0.375
-20.475 11.925 0.525
-20.925 10.275 0.675
-20.775 12.075 0.525
-21.075 10.275 0.975
-20.025 11.325 1.425
-20.625 10.275 -5.325
-20.025 10.875 0.825
-20.025 10.875 0.525
-20.175 11.775 0.675
-20.325 11.925 1.425
-20.325 10.425 0.675
-20.325 10.425 0.075
-20.475 12.075 0.525
-21.375 10.275 1.425
-21.375 10.275 1.275
-20.025 11.625 0.525
-20.025 10.725 1.275
-20.025 10.725 0.825
-21.075 12.225 0.075
-20.775 12.225 1.275
-19.875 11.325 0.975
-19.875 11.025 1.875
-20.775 10.125 -0.225
-21.525 10.275 0.375
-20.325 12.075 -0.525
-20.625 12.225 -0.825
-20.625 12.225 1.425
-19.875 10.875 1.275
-21.375 12.225 0.675
-21.375 10.125 0.825
-21.375 10.125 1.125
-20.475 10.125 1.575
-20.175 12.075 1.425
-21.675 10.275 1.425
-19.725 11.175 1.425
-22.125 11.175 -1.725
-21.075 12.375 2.175
-19.725 11.325 1.425
-22.125 11.025 -0.225
-21.525 10.125 0.375
-20.325 12.225 1.425
-19.875 11.775 0.675
-21.975 11.775 -0.075
-20.325 10.125 1.425
-19.875 10.575 0.525
-21.375 12.375 0.225
-20.475 12.375 0.975
-22.125 11.625 0.075
-20.475 12.375 1.275
-20.175 10.125 1.875
-21.675 10.125 0.675
-22.125 11.775 -0.375
-22.125 11.775 -0.075
-21.525 9.975 0.375
-22.275 11.025 -0.225
-22.275 11.025 -0.525
-21.075 12.525 0.225
-21.075 12.525 -0.225
-20.775 12.525 -1.725
-20.775 12.525 -0.075
-22.275 10.875 -0.075
-21.825 10.125 0.225
-21.825 10.125 1.575
-21.225 12.525 0.225
-21.225 12.525 2.175
-22.125 11.925 0.375
-19.725 11.925 0.825
-22.125 11.925 0.525
-21.675 9.975 0.225
-20.175 9.975 1.575
-21.675 9.975 0.675
-20.475 12.525 0.375
-21.375 12.525 1.125
-22.275 11.775 -0.075
-21.525 12.525 1.275
-20.325 9.825 1.425
-21.975 10.125 1.875
-19.725 10.275 0.825
-22.125 10.275 0.675
-22.125 10.275 2.025
-21.825 9.975 0.225
-21.825 9.975 1.425
-20.025 9.975 1.125
-21.075 12.675 0.225
-22.425 11.025 -0.225
-20.625 12.675 -0.075
-20.625 12.675 4.575
-20.625 9.675 -5.475
-19.425 10.875 0.375
-22.425 10.875 1.275
-21.675 12.525 0.975
-19.575 11.925 1.725
-19.575 10.425 0.375
-19.575 10.425 0.075
-19.575 10.425 0.525
-20.175 9.825 1.125
-21.675 9.825 1.575
-19.575 11.925 1.275
-21.375 12.675 1.425
-21.375 12.675 1.575
-20.475 12.675 0.375
-21.375 12.675 1.275
-20.475 12.675 -0.975
-19.425 10.725 0.075
-22.125 12.225 1.575
-22.125 12.225 0.075
-19.875 12.375 1.575
-19.875 12.375 2.025
-21.525 12.675 1.425
-22.425 11.775 -0.075
-19.425 11.775 2.325
-20.325 12.675 -0.075
-20.325 12.675 2.175
-20.325 12.675 0.075
-19.575 12.075 0.675
-19.575 12.075 -2.325
-20.025 12.525 -0.975
-20.025 12.525 0.525
-20.025 12.525 0.075
-21.075 12.825 0.225
-20.775 12.825 -0.075
-20.625 12.825 -0.075
-19.425 11.925 2.325
-21.675 9.675 1.575
-19.425 11.925 2.775
-22.125 12.375 -0.075
-22.125 9.975 1.875
-21.375 12.825 1.425
-19.875 12.525 1.875
-20.025 12.675 0.525
-22.575 11.775 -0.075
-19.125 11.175 0.225
-22.275 12.375 -0.375
-22.275 12.375 -0.075
-21.075 12.975 0.375
-21.075 12.975 2.025
-20.775 12.975 0.975
-22.125 12.525 1.275
-22.125 12.525 0.225
-22.125 9.825 2.025
-22.725 11.325 3.225
-19.575 12.375 0.975
-20.175 12.825 0.975
-19.425 12.225 1.425
-22.425 10.125 -0.225
-19.425 10.125 1.125
-19.425 10.125 0.525
-22.725 11.625 3.225
-22.725 10.575 -1.275
-22.125 12.675 1.425
-18.975 11.175 0.525
-19.125 10.425 0.075
-22.575 10.125 -0.525
-22.575 10.125 -0.225
-21.075 13.125 2.025
-18.975 11.025 1.275
-21.225 13.125 1.725
-21.225 13.125 0.375
-21.225 13.125 2.475
-20.625 13.125 -5.475
-20.475 13.125 0.825
-22.275 9.675 -0.825
-22.425 12.525 -0.075
-19.425 12.525 1.575
-19.575 12.675 1.425
-22.125 12.825 1.425
-19.725 12.825 1.575
-21.525 13.125 1.275
-21.525 13.125 0.975
-22.575 9.975 -0.075
-19.275 12.375 1.725
-19.275 12.375 1.575
-19.125 12.225 1.425
-22.725 10.125 -0.225
-22.725 10.125 0.375
-19.125 10.125 -0.675
-22.725 10.125 0.225
-18.975 10.425 -0.525
-20.775 13.275 -0.225
-22.425 9.675 -1.125
-22.425 9.675 -0.825
-19.425 12.675 1.725
-19.425 12.675 2.175
-19.425 12.675 1.875
-19.575 12.825 -0.675
-19.575 12.825 1.875
-20.025 13.125 -0.375
-22.125 9.375 -1.125
-22.125 9.375 -1.275
-22.875 10.125 -1.725
-22.875 10.125 -0.225
-23.025 10.425 -3.825
-22.575 12.675 -1.425
-20.175 13.275 0.825
-21.675 9.075 0.525
-19.275 12.675 2.325
-19.275 12.675 2.025
-19.275 12.675 2.625
-19.275 12.675 3.825
-20.925 13.425 -1.425
-22.725 12.525 -1.425
-19.125 12.525 1.725
-23.175 11.325 0.825
-20.775 13.425 -1.425
-23.175 11.475 0.975
-18.675 10.875 2.325
-23.175 10.875 -3.375
-21.825 9.075 1.125
-21.375 13.425 1.575
-23.175 11.625 0.375
-20.475 13.425 -0.225
-18.675 11.775 2.025
-20.325 13.425 0.075
-20.325 13.425 -0.375
-22.725 12.675 -1.425
-23.025 10.125 -0.225
-22.275 13.125 -0.225
-20.925 13.575 -1.275
-23.325 11.175 0.075
-18.525 11.175 1.125
-23.325 11.025 0.075
-21.075 13.575 -1.125
-23.325 11.325 0.375
-21.075 8.775 0.225
-22.125 13.275 2.175
-21.825 8.925 1.125
-18.525 10.725 0.975
-19.425 13.125 -0.525
-22.425 13.125 -0.075
-23.175 12.225 2.175
-21.975 8.925 0.375
-22.275 13.275 0.225
-23.025 9.825 1.575
-19.575 13.275 -0.525
-18.825 9.825 -0.225
-18.825 9.825 -0.675
-23.325 10.425 1.425
-18.975 12.825 2.025
-22.875 9.525 -0.375
-22.875 9.525 -0.075
-23.475 11.325 1.275
-23.475 11.025 0.075
-21.825 8.775 1.125
-20.025 8.775 -1.875
-20.625 13.725 -0.975
-20.625 13.725 0.525
-18.375 11.475 1.725
-23.475 10.875 1.575
-23.475 10.875 -2.025
-22.425 13.275 -0.075
-22.425 13.275 -0.375
-18.825 12.675 -4.275
-18.375 10.725 2.925
-18.375 10.725 2.475
-21.525 13.725 1.575
-20.325 13.725 -0.375
-20.325 13.725 -0.075
-20.325 13.725 -0.975
-20.325 13.725 0.525
-21.975 8.775 1.125
-21.975 8.775 0.225
-22.275 13.425 0.375
-22.275 8.925 -1.125
-20.175 8.625 0.825
-23.475 11.925 -1.275
-23.025 9.525 -0.075
-23.025 9.525 0.375
-19.725 13.575 -0.375
-20.925 13.875 0.225
-20.925 13.875 -0.825
-23.625 11.025 -2.025
-23.625 11.025 0.075
-20.775 13.875 -0.225
-20.025 13.725 -0.075
-19.425 8.925 0.975
-21.825 8.625 0.975
-21.825 8.625 1.725
-23.625 10.875 -1.725
-20.625 13.875 0.375
-20.625 13.875 -0.825
-20.625 13.875 1.275
-20.625 8.475 2.325
-20.475 13.875 0.075
-20.475 13.875 0.225
-23.625 11.625 1.575
-20.475 13.875 -0.375
-22.275 13.575 0.825
-23.475 12.225 0.675
-23.025 9.375 -0.075
-21.525 13.875 2.025
-23.625 10.575 -1.275
-23.625 10.575 -0.525
-20.325 13.875 0.225
-22.575 13.425 -0.075
-23.175 9.525 -0.225
-23.175 9.525 -0.075
-23.175 9.525 0.375
-19.275 13.425 0.825
-21.675 13.875 1.575
-20.175 8.475 1.275
-21.675 8.475 6.075
-19.725 13.725 0.075
-19.725 13.725 -0.375
-18.375 12.375 0.075
-23.475 12.375 0.375
-23.625 12.075 -1.275
-20.925 14.025 -0.075
-20.925 8.325 1.125
-18.075 11.175 2.925
-23.775 11.325 -2.775
-23.775 11.025 0.075
-20.775 14.025 1.275
-20.775 14.025 -0.525
-20.775 14.025 -0.075
-23.775 10.875 -0.075
-22.875 13.275 -1.425
-23.025 9.225 -0.225
-20.625 14.025 0.375
-20.625 14.025 -0.075
-20.625 14.025 -0.525
-20.625 14.025 -0.375
-20.625 8.325 2.175
-22.725 13.425 -0.075
-19.125 8.925 1.575
-23.775 10.725 -0.525
-23.775 10.725 4.125
-22.275 13.725 2.625
-20.475 14.025 -0.525
-20.475 14.025 0.375
-20.475 14.025 -1.875
-20.475 14.025 -0.075
-23.475 12.525 0.675
-23.475 9.825 -2.325
-23.625 12.225 0.675
-19.875 8.475 0.825
-23.775 11.775 -3.075
-23.775 10.575 -0.675
-23.325 9.525 -0.225
-21.525 14.025 -0.675
-20.325 14.025 0.375
-20.325 14.025 -1.425
-20.175 8.325 1.125
-21.675 8.325 1.275
-21.675 8.325 0.825
-19.725 13.875 0.225
-19.725 13.875 -0.525
-23.625 9.975 -1.725
-23.625 9.975 -1.125
-23.625 9.975 -1.275
-23.625 9.975 -0.375
-23.625 9.975 -0.225
-22.425 13.725 1.575
-22.425 13.725 0.375
-22.425 13.725 -0.225
-23.475 12.675 0.225
-22.425 8.625 -1.125
-23.025 9.075 0.075
-22.875 13.425 -0.825
-22.875 13.425 -0.975
-23.175 13.125 1.125
-23.175 9.225 -1.275
-18.675 9.225 2.175
-23.175 9.225 0.075
-23.175 9.225 0.525
-23.775 10.275 0.075
-23.325 12.975 0.375
-19.125 13.575 0.375
-23.925 11.175 1.575
-20.925 8.175 1.425
-20.775 14.175 -0.075
-20.775 14.175 0.375
-20.775 8.175 0.825
-20.775 14.175 2.775
-20.625 14.175 -0.075
-20.625 14.175 0.225
-23.925 11.475 1.575
-17.925 10.875 0.525
-23.925 10.875 0.075
-23.625 12.525 -0.225
-23.625 9.825 -0.375
-20.475 14.175 -1.725
-20.475 14.175 -0.075
-20.475 14.175 0.375
-20.475 8.175 1.125
-21.375 14.175 -0.675
-23.925 10.725 0.075
-22.575 13.725 -0.225
-22.575 13.725 -0.075
-22.575 13.725 -0.525
-23.475 12.825 0.675
-19.875 8.325 0.825
-21.525 8.175 0.825
-20.325 14.175 -0.075
-20.325 8.175 1.275
-23.925 10.575 -1.425
-20.325 14.175 -1.425
-23.025 13.425 -1.125
-23.175 9.075 0.675
-23.175 9.075 0.075
-23.175 9.075 -1.125
-22.425 13.875 0.225
-23.625 12.675 0.525
-23.625 9.675 -0.075
-23.625 9.675 0.525
-22.425 13.875 2.325
-22.425 13.875 1.575
-23.625 12.675 1.125
-23.775 12.375 0.675
-23.325 9.225 -0.075
-23.325 9.225 0.075
-21.675 8.175 1.275
-23.925 10.425 0.375
-20.175 14.175 -1.125
-18.075 12.375 2.175
-23.475 12.975 0.375
-21.825 8.175 1.725
-21.825 8.175 -0.825
-23.925 10.275 -1.725
-23.925 10.275 -1.875
-23.925 10.275 -1.425
-20.025 14.175 0.525
-20.025 14.175 -1.425
-24.075 11.175 2.175
-20.925 14.325 -0.225
-20.925 8.025 1.125
-23.775 12.525 0.375
-24.075 11.325 1.575
-24.075 11.325 -1.425
-24.075 11.325 0.375
-22.275 14.025 1.875
-22.275 14.025 0.975
-20.775 8.025 0.525
-22.575 13.875 -0.225
-23.625 12.825 0.525
-18.225 9.525 2.625
-23.625 9.525 0.525
-19.275 13.875 0.675
-19.875 8.175 0.825
-19.875 14.175 -1.275
-18.675 8.925 -2.925
-23.175 8.925 -0.225
-17.775 10.725 -0.825
-23.325 13.275 1.575
-18.825 13.575 0.225
-18.825 8.775 1.875
-20.325 14.325 -0.975
-24.075 10.575 -2.025
-24.075 10.575 -1.875
-21.525 8.025 0.825
-23.475 9.225 -0.075
-23.775 9.675 -0.075
-22.425 8.325 0.525
-23.925 12.375 1.125
-19.725 8.175 -1.275
-19.725 14.175 -0.675
-19.725 14.175 -0.375
-22.125 8.175 0.075
-23.925 9.975 -0.375
-20.175 14.325 -1.125
-21.675 8.025 0.825
-20.175 8.025 2.175
-23.625 12.975 0.375
-18.225 9.375 3.375
-22.725 13.875 -0.825
-20.025 14.325 0.375
-20.025 14.325 -1.275
-21.825 8.025 1.275
-21.825 8.025 1.125
-21.825 8.025 1.425
-23.325 8.925 0.525
-23.325 8.925 0.075
-22.275 14.175 1.125
-23.325 8.925 0.675
-23.175 8.775 0.075
-23.925 9.825 0.375
-19.575 14.175 -4.725
-23.775 12.825 0.375
-20.925 7.875 0.375
-23.025 13.725 -0.975
-18.825 13.725 0.225
-17.625 11.325 -1.425
-20.775 7.875 1.725
-20.775 7.875 1.875
-23.475 9.075 0.075
-20.625 14.475 0.075
-20.625 7.875 2.325
-21.225 7.875 1.275
-24.225 10.875 -1.275
-24.225 11.475 -0.075
-24.075 10.125 -0.825
-21.975 8.025 2.175
-22.875 13.875 -0.975
-22.875 13.875 -0.825
-23.625 13.125 0.525
-23.625 13.125 0.825
-23.625 9.225 -0.375
-18.225 9.225 0.375
-20.475 7.875 -0.375
-24.225 10.725 -1.275
-17.925 9.675 0.825
-23.925 9.675 -0.075
-17.925 9.675 2.625
-22.425 14.175 -3.075
-21.525 7.875 1.425
-20.325 7.875 2.025
-24.225 10.575 0.375
-23.775 12.975 1.275
-19.725 14.325 -1.425
-19.725 14.325 0.525
-22.725 14.025 -0.225
-22.725 14.025 0.525
-18.075 12.975 -0.075
-18.075 9.375 2.775
-17.775 12.375 1.575
-20.175 7.875 2.025
-21.675 7.875 0.825
-24.225 10.425 0.375
-23.175 13.725 -1.125
-23.475 8.925 0.075
-23.025 13.875 2.775
-23.025 13.875 2.475
-23.625 13.275 0.675
-23.025 8.475 -0.225
-20.025 14.475 0.225
-17.625 12.075 1.425
-21.825 7.875 2.175
-21.825 7.875 1.125
-24.225 10.275 -1.125
-24.225 10.275 -0.975
-20.025 7.875 0.975
-20.025 7.875 0.825
-22.575 8.175 0.675
-22.575 8.175 -1.425
-22.575 14.175 -2.475
-22.575 14.175 2.025
-19.275 14.175 -5.025
-24.075 9.825 -0.075
-24.075 9.825 0.675
-24.075 9.825 0.525
-23.775 13.125 1.275
-23.775 13.125 0.525
-23.775 9.225 0.075
-23.775 9.225 -0.375
-24.375 11.325 -0.675
-20.775 14.625 2.325
-20.775 14.625 1.125
-17.475 11.025 -0.675
-24.375 11.025 0.675
-24.375 11.025 -1.125
-24.375 11.025 1.125
-24.375 11.025 0.525
-20.775 7.725 1.425
-18.075 9.225 1.125
-24.375 10.875 0.675
-24.375 10.875 0.975
-24.375 10.875 -2.775
-24.375 10.875 0.525
-24.375 10.875 1.125
-17.625 12.225 1.575
-19.875 7.875 0.525
-21.225 7.725 1.275
-20.625 7.725 1.575
-20.475 14.625 -0.675
-20.475 14.625 1.125
-24.375 10.725 -0.525
-24.375 10.725 0.675
-24.375 10.725 0.975
-24.375 10.725 -2.925
-24.375 10.725 1.125
-21.375 7.725 2.775
-24.075 9.675 0.525
-22.425 14.325 -2.775
-24.075 9.675 -1.425
-22.425 8.025 1.425
-17.775 9.675 3.075
-17.925 9.375 2.775
-23.325 13.725 -1.125
-23.325 13.725 1.275
-23.325 13.725 0.525
-17.475 11.775 1.275
-24.375 10.575 0.675
-24.375 10.575 0.975
-23.325 8.625 0.225
-23.325 8.625 0.075
-21.525 7.725 1.425
-21.525 7.725 2.025
-23.475 8.775 0.075
-24.225 9.975 -1.275
-24.225 9.975 0.525
-24.225 9.975 0.225
-24.225 9.975 0.675
-23.625 13.425 0.675
-23.625 13.425 0.825
-23.175 8.475 0.525
-23.175 8.475 0.075
-23.175 8.475 3.675
-21.675 14.625 1.425
-20.175 14.625 -1.125
-24.375 11.925 -0.375
-24.375 11.925 -1.875
-24.375 10.425 -0.675
-23.775 13.275 0.375
-23.025 14.025 2.025
-23.775 9.075 0.075
-18.075 9.075 0.225
-18.075 9.075 1.725
-24.075 9.525 -0.975
-19.275 14.325 -0.225
-17.775 9.525 1.425
-17.775 9.525 1.875
-21.825 14.625 1.275
-17.475 12.075 1.575
-24.375 10.275 -0.525
-22.275 7.875 1.425
-24.225 9.825 0.675
-23.925 13.125 0.075
-17.925 13.125 -1.725
-17.925 9.225 0.675
-17.925 9.225 0.375
-23.925 9.225 0.225
-23.925 9.225 -0.375
-24.525 11.175 0.975
-24.525 11.175 0.525
-24.525 11.175 0.375
-24.525 11.175 -2.475
-24.525 11.175 0.825
-24.525 11.025 0.825
-24.525 11.025 0.675
-24.525 11.025 0.975
-17.475 12.225 1.725
-17.475 12.225 1.875
-17.475 12.225 1.575
-24.375 12.225 -1.725
-24.375 10.125 -1.275
-24.375 10.125 0.225
-24.375 10.125 0.525
-24.375 10.125 -0.075
-19.875 14.625 2.025
-23.475 13.725 0.825
-23.475 13.725 0.975
-23.475 13.725 -1.125
-21.975 7.725 1.725
-24.525 10.875 -2.475
-24.525 11.475 -0.225
-23.325 13.875 1.725
-23.325 13.875 0.975
-20.625 14.775 -0.075
-23.325 8.475 0.075
-21.225 7.575 1.425
-21.225 7.575 2.775
-17.325 10.875 0.225
-17.325 10.875 -1.275
-24.225 12.675 0.375
-24.525 10.725 -0.225
-24.075 9.375 -0.075
-22.725 14.325 -1.875
-22.725 14.325 -0.975
-22.725 14.325 -2.625
-24.075 9.375 0.375
-21.375 14.775 0.825
-21.375 7.575 2.025
-17.775 9.375 1.275
-17.775 9.375 1.725
-23.775 13.425 -0.825
-18.675 14.025 -0.375
-23.175 14.025 1.425
-18.075 8.925 0.975
-23.175 8.325 0.075
-24.525 11.775 0.525
-24.525 11.775 0.825
-21.525 14.775 0.825
-20.325 14.775 -0.225
-20.325 14.775 0.075
-20.325 14.775 -0.075
-21.525 7.575 1.875
-22.125 14.625 -2.775
-19.725 14.625 -1.575
-24.375 9.975 0.675
-24.375 9.975 0.825
-24.375 9.975 0.225
-24.375 9.975 0.375
-19.725 7.725 0.375
-17.925 13.275 -0.225
-23.925 13.275 0.675
-23.925 13.275 -0.525
-23.925 9.075 0.075
-23.925 9.075 0.225
-24.525 11.925 0.525
-20.175 14.775 0.225
-21.675 14.775 1.125
-21.675 14.775 -0.675
-21.675 7.575 2.025
-22.575 14.475 -0.375
-17.625 9.525 1.725
-24.225 9.525 -0.225
-17.625 9.525 2.025
-17.625 9.525 2.175
-17.475 12.525 1.875
-24.075 9.225 0.075
-24.375 9.825 0.075
-18.975 8.025 0.975
-17.775 9.225 1.275
-17.775 9.225 1.725
-24.525 12.075 0.825
-24.525 12.075 -0.525
-24.525 12.075 -0.975
-24.525 12.075 0.525
-21.825 14.775 -3.075
-20.025 14.775 0.825
-20.025 14.775 -2.325
-20.025 14.775 2.625
-20.025 14.775 1.125
-23.625 13.725 0.375
-23.475 13.875 0.675
-23.475 13.875 0.825
-23.475 13.875 1.425
-23.325 14.025 1.125
-23.325 8.325 0.075
-23.325 8.325 0.675
-18.075 8.775 0.375
-24.525 12.225 -0.975
-24.525 12.225 -1.725
-24.525 10.125 -0.825
-24.525 10.125 0.225
-24.525 10.125 1.275
-17.925 8.925 1.425
-23.175 14.175 -1.575
-17.925 13.425 -1.875
-17.325 10.125 -0.375
-17.175 11.025 0.975
-20.775 14.925 -0.075
-20.775 14.925 0.675
-24.675 11.025 1.125
-22.725 14.475 -1.875
-17.625 12.975 1.125
-17.625 12.975 0.675
-17.475 9.675 2.025
-22.425 14.625 -2.475
-22.425 14.625 -0.075
-20.625 14.925 0.525
-24.675 10.875 0.225
-24.675 11.475 1.725
-22.425 7.725 1.725
-20.475 14.925 -0.225
-20.475 14.925 0.525
-24.675 10.725 0.225
-24.675 10.725 0.075
-24.075 9.075 -1.125
-24.075 9.075 0.075
-17.775 9.075 0.675
-17.775 9.075 -0.525
-24.525 9.975 0.225
-24.525 9.975 1.275
-19.725 14.775 -1.575
-19.725 14.775 0.825
-17.325 12.375 1.125
-21.525 14.925 -1.875
-17.175 11.775 2.325
-24.675 11.775 0.675
-24.675 11.775 1.575
-20.325 14.925 0.825
-20.325 14.925 1.425
-17.175 10.575 0.675
-23.625 13.875 0.525
-23.625 13.875 0.225
-23.625 13.875 -1.425
-22.575 14.625 -0.675
-22.575 14.625 -2.625
-22.575 14.625 -0.375
-22.575 14.625 -2.475
-17.475 9.525 2.475
-24.375 9.525 -1.725
-24.675 11.925 0.825
-20.175 14.925 -0.225
-24.675 11.925 1.575
-20.175 14.925 1.425
-20.175 14.925 0.375
-17.175 10.425 0.075
-17.175 10.425 -0.825
-17.175 10.425 -1.275
-21.675 14.925 1.125
-24.675 10.425 -0.375
-22.575 7.725 1.875
-23.475 14.025 0.975
-18.375 14.025 -0.225
-18.975 7.875 0.375
-24.225 13.125 1.425
-17.625 13.125 0.075
-24.225 9.225 -0.075
-23.925 8.775 -1.125
-18.525 14.175 -0.225
-24.525 9.825 0.525
-22.275 14.775 -2.025
-24.675 12.075 1.275
-24.675 12.075 0.525
-24.675 10.275 0.825
-20.025 14.925 0.675
-23.175 14.325 -1.425
-23.175 8.025 -0.075
-17.475 12.975 0.075
-17.475 9.375 2.175
-17.475 9.375 1.875
-17.475 9.375 2.025
-22.725 14.625 -1.275
-22.725 14.625 -0.225
-24.675 12.225 -0.525
-19.875 14.925 1.275
-21.975 14.925 -3.075
-20.925 15.075 1.875
-24.825 11.175 -0.375
-22.425 14.775 0.075
-19.425 14.775 -0.225
-17.325 9.675 3.075
-21.075 15.075 1.125
-21.075 15.075 1.575
-24.825 11.325 -0.675
-20.775 15.075 -0.075
-20.775 15.075 0.075
-24.825 11.025 -2.325
-24.825 11.025 0.075
-23.025 14.475 -1.275
-23.025 14.475 1.725
-20.625 15.075 -0.075
-20.625 15.075 0.075
-20.625 15.075 0.225
-20.625 15.075 0.375
-24.225 13.275 1.575
-17.625 9.075 2.175
-17.625 9.075 1.125
-17.025 11.475 -0.675
-17.025 10.875 0.825
-23.775 13.875 -0.075
-20.475 15.075 0.375
-21.375 15.075 0.225
-20.475 15.075 -1.275
-21.375 15.075 0.525
-20.475 15.075 0.075
-20.475 15.075 -0.075
-24.825 11.625 -2.175
-23.625 14.025 1.125
-17.925 13.725 1.425
-23.925 13.725 -0.375
-23.925 13.725 -0.975
-17.175 12.375 0.975
-17.175 9.975 0.975
-18.375 14.175 1.275
-22.125 7.425 1.125
-17.025 10.575 0.825
-17.025 10.575 0.225
-22.575 14.775 -2.325
-22.575 7.575 2.475
-17.325 12.825 -0.825
-17.775 13.575 0.375
-17.325 9.525 1.875
-17.325 9.525 1.425
-17.475 13.125 0.825
-22.875 14.625 -1.425
-17.475 9.225 1.575
-17.475 9.225 0.975
-20.175 15.075 1.275
-20.175 15.075 -1.125
-21.675 15.075 -1.725
-24.825 11.925 0.675
-24.675 12.525 -1.575
-19.575 14.925 -0.525
-19.575 7.425 0.525
-17.625 8.925 1.275
-23.175 7.875 0.375
-23.175 7.875 0.075
-24.825 12.075 0.675
-21.825 15.075 1.425
-24.825 12.075 1.125
-22.725 14.775 -0.375
-19.125 7.575 -1.425
-17.325 12.975 0.675
-17.325 9.375 2.925
-17.325 9.375 1.125
-23.775 14.025 -0.975
-23.775 14.025 -1.425
-23.625 14.175 1.125
-24.825 10.125 -2.775
-19.875 15.075 0.075
-24.825 10.125 0.225
-19.875 15.075 1.725
-17.475 13.275 0.675
-23.025 7.725 0.075
-17.475 9.075 2.175
-23.025 7.725 -0.225
-24.675 12.675 0.225
-19.425 7.425 1.875
-19.425 7.425 0.525
-17.025 10.125 -1.575
-20.925 15.225 -0.225
-20.925 15.225 2.025
-23.475 14.325 0.675
-23.475 14.325 0.525
-21.075 15.225 -0.975
-21.075 15.225 -0.675
-23.475 8.025 1.575
-17.775 13.725 1.275
-16.875 11.325 0.225
-20.625 15.225 0.225
-16.875 11.475 -0.075
-20.475 15.225 -0.375
-20.475 15.225 1.275
-20.475 15.225 -1.275
-20.475 15.225 -0.225
-19.725 7.275 0.375
-24.225 8.775 0.375
-21.525 15.225 0.525
-21.525 15.225 0.375
-20.325 15.225 -0.525
-20.325 15.225 1.875
-17.325 9.225 0.825
-17.325 9.225 1.425
-24.675 9.525 1.725
-17.175 9.525 2.625
-20.175 15.225 0.975
-20.175 15.225 0.675
-20.175 15.225 -2.475
-17.475 13.425 0.375
-24.375 8.925 0.375
-16.875 10.425 1.275
-23.175 7.725 0.075
-17.025 12.525 0.375
-23.775 14.175 -0.225
-23.775 14.175 -0.825
-23.925 14.025 0.375
-17.925 14.025 -2.775
-17.925 14.025 2.025
-23.625 14.325 -0.075
-21.825 15.225 1.725
-17.775 13.875 0.675
-17.175 9.375 2.175
-17.175 9.375 1.425
-22.725 14.925 -2.025
-22.725 14.925 -0.375
-17.325 9.075 2.325
-17.325 9.075 2.475
-23.475 14.475 0.525
-23.475 14.475 0.675
-18.375 7.875 1.275
-19.425 15.075 -0.375
-24.825 9.675 -0.675
-19.425 7.275 0.675
-17.025 9.675 1.725
-21.975 15.225 -1.725
-24.975 12.225 -0.225
-16.875 10.125 2.775
-20.925 6.975 -1.725
-17.475 13.575 0.075
-17.475 13.575 0.975
-24.375 8.775 0.375
-24.375 8.775 -0.525
-20.775 15.375 0.975
-20.775 15.375 -0.825
-16.725 11.025 -1.575
-21.075 15.375 -0.825
-18.525 14.625 -0.375
-20.625 15.375 -0.075
-20.625 15.375 -0.375
-21.225 6.975 2.025
-20.475 15.375 -0.525
-20.475 15.375 -0.375
-22.125 7.125 1.275
-24.675 9.225 -0.375
-17.175 9.225 1.275
-24.825 12.825 2.475
-24.825 12.825 0.825
-24.825 12.825 0.225
-24.825 12.825 1.125
-17.025 9.525 1.875
-17.025 9.525 2.175
-20.325 15.375 -1.125
-23.925 14.175 0.375
-23.625 14.475 0.675
-23.625 14.475 -0.225
-23.625 14.475 0.525
-23.625 14.475 0.075
-23.625 7.875 -0.975
-18.225 7.875 1.275
-21.675 15.375 -1.425
-21.675 15.375 -1.725
-21.675 6.975 2.325
-16.875 9.825 2.175
-16.875 9.825 0.225
-16.875 9.825 1.125
-24.975 9.825 0.375
-24.975 9.825 0.675
-17.475 13.725 -2.325
-17.475 13.725 -0.675
-17.475 13.725 0.525
-17.475 13.725 1.725
-23.475 14.625 0.675
-24.825 12.975 0.825
-24.825 12.975 0.375
-24.825 12.975 1.275
-22.725 15.075 -0.375
-21.825 6.975 2.475
-21.825 6.975 -0.525
-17.025 9.375 2.175
-17.025 9.375 1.425
-24.675 13.275 -3.375
-23.025 7.425 2.775
-24.675 9.075 0.225
-17.175 9.075 2.325
-17.175 9.075 1.275
-24.975 12.675 -0.975
-24.975 12.675 0.675
-16.875 9.675 1.875
-16.875 9.675 0.825
-23.325 14.775 0.525
-17.325 13.575 0.225
-18.525 7.575 2.175
-16.725 12.225 0.375
-25.125 12.225 0.825
-25.125 10.125 -2.625
-25.275 11.175 0.975
-24.075 14.175 -0.825
-17.925 14.325 2.325
-25.275 11.025 0.975
-25.275 11.325 0.975
-20.775 15.525 -4.125
-20.775 15.525 -0.225
-23.775 14.475 0.675
-18.975 15.075 -2.025
-24.825 13.125 0.825
-20.625 15.525 -2.625
-20.625 15.525 -0.225
-20.625 15.525 -3.825
-17.625 14.025 0.075
-17.625 14.025 0.975
-17.625 14.025 0.225
-17.625 8.325 0.225
-25.275 10.725 0.375
-20.475 15.525 -0.075
-21.375 15.525 -0.525
-23.175 14.925 -1.725
-24.675 8.925 0.375
-18.675 14.925 -0.225
-16.875 12.825 0.825
-24.975 12.825 1.125
-24.975 12.825 0.975
-24.975 12.825 1.425
-24.975 12.825 0.675
-16.875 9.525 0.075
-16.875 9.525 1.125
-16.575 11.625 0.675
-25.275 11.775 0.975
-20.325 15.525 -0.675
-16.575 11.775 0.975
-24.525 8.625 3.375
-24.525 8.625 -1.875
-16.725 9.825 2.025
-23.475 14.775 0.675
-23.475 14.775 1.575
-17.325 13.725 0.075
-19.575 6.975 2.325
-25.275 10.425 -2.325
-21.675 6.825 2.325
-18.825 15.075 -5.025
-24.825 9.075 2.175
-24.975 9.375 1.725
-16.875 9.375 2.175
-16.875 9.375 1.575
-25.275 10.275 -3.675
-23.325 14.925 1.275
-17.175 13.575 0.375
-24.675 8.775 0.375
-24.075 14.325 -0.525
-17.775 14.325 2.325
-16.725 9.675 0.525
-16.725 9.675 0.675
-17.925 14.475 1.275
-16.725 12.675 -0.525
-17.625 14.175 0.075
-17.475 14.025 0.225
-19.875 15.525 1.875
-18.075 14.625 0.225
-18.975 15.225 0.525
-16.875 13.125 0.975
-16.875 9.225 1.575
-16.875 9.225 0.525
-18.225 14.775 0.225
-18.225 14.775 -0.075
-23.625 14.775 0.675
-23.625 14.775 0.825
-23.625 14.775 0.525
-17.325 13.875 0.075
-17.325 13.875 -1.125
-17.325 13.875 -0.825
-17.325 13.875 0.225
-17.325 13.875 1.275
-17.325 13.875 0.375
-24.825 8.925 0.375
-18.675 15.075 0.075
-18.675 15.075 -1.125
-23.175 15.075 1.275
-23.175 15.075 -1.575
-23.175 7.275 -0.075
-17.025 8.925 1.125
-17.025 8.925 2.025
-25.425 11.475 0.675
-16.425 11.475 0.825
-16.725 12.825 0.375
-16.725 9.525 -0.675
-16.725 9.525 1.275
-21.375 15.675 -2.025
-25.425 11.625 0.825
-25.425 11.625 1.275
-16.425 11.625 0.975
-16.425 11.625 1.575
-21.525 15.675 -4.875
-16.425 11.775 1.575
-25.425 11.775 1.275
-25.275 9.825 1.125
-25.275 9.825 -0.075
-19.575 15.525 -0.075
-17.625 14.325 2.175
-23.025 7.125 -0.075
-23.025 7.125 -0.225
-25.425 11.925 0.225
-20.175 15.675 0.075
-16.875 9.075 0.975
-25.125 12.975 0.225
-16.725 9.375 1.275
-16.725 9.375 0.825
-22.725 15.375 -1.725
-22.725 15.375 -0.375
-25.125 9.375 -0.375
-17.475 14.175 0.375
-17.025 13.575 -0.225
-25.425 12.075 -2.475
-25.425 12.075 -0.225
-20.025 15.675 1.275
-18.075 14.775 -0.675
-18.075 14.775 -0.375
-17.325 14.025 0.375
-17.325 14.025 0.225
-18.225 14.925 -0.825
-23.625 14.925 0.675
-23.625 14.925 0.525
-16.725 9.225 1.725
-23.175 7.125 0.375
-25.575 11.175 1.125
-25.275 12.825 0.825
-20.775 15.825 0.675
-25.575 11.025 1.275
-22.575 15.525 -0.075
-22.575 15.525 2.175
-22.575 15.525 2.325
-22.575 15.525 0.075
-19.275 15.525 -1.725
-16.575 9.525 0.525
-19.725 15.675 1.875
-19.725 6.675 0.975
-20.625 15.825 0.375
-20.625 15.825 0.225
-25.575 10.875 1.125
-25.575 11.475 -0.825
-18.375 15.075 -0.525
-24.825 8.625 -1.875
-24.225 14.475 2.325
-17.625 7.875 0.525
-17.475 14.325 0.975
-24.075 14.625 -0.225
-20.475 15.825 -0.075
-20.475 15.825 0.075
-25.575 11.625 0.825
-17.775 14.625 -0.075
-17.925 14.775 -1.125
-17.325 14.175 -0.075
-20.325 15.825 0.075
-23.025 6.975 -0.075
-18.825 15.375 -1.575
-18.825 15.375 -0.375
-16.725 9.075 0.375
-16.425 12.525 2.925
-22.275 6.675 -1.425
-19.575 15.675 -0.075
-25.275 12.975 1.425
-19.125 15.525 -0.675
-19.125 15.525 -1.875
-19.125 15.525 -1.275
-22.725 15.525 -0.675
-22.725 15.525 -0.375
-16.875 13.575 -1.125
-16.875 8.775 -1.575
-16.875 8.775 -1.125
-16.575 9.375 1.275
-16.575 9.375 -0.675
-25.575 11.925 -2.775
-25.575 11.925 0.525
-25.575 11.925 1.275
-20.175 15.825 1.275
-20.175 15.825 4.875
-20.175 15.825 -0.225
-21.675 15.825 2.175
-23.775 14.925 0.225
-17.175 14.025 0.075
-24.675 14.025 0.225
-20.175 6.525 2.625
-18.075 14.925 -0.825
-25.575 12.075 0.525
-20.025 15.825 -0.375
-25.575 10.275 1.575
-23.625 15.075 1.725
-23.625 15.075 0.225
-18.225 15.075 1.875
-18.225 15.075 -1.425
-16.425 9.675 2.325
-16.425 9.675 -2.325
-25.425 12.675 0.675
-16.725 13.425 -0.975
-18.675 15.375 -4.725
-16.725 8.925 2.625
-16.725 8.925 1.125
-23.175 15.375 1.875
-23.175 6.975 0.075
-25.575 12.225 -0.525
-25.575 12.225 2.025
-25.575 12.225 0.675
-19.875 15.825 -2.175
-25.575 10.125 -4.125
-22.875 15.525 -0.375
-18.975 15.525 -0.675
-21.975 6.525 -1.275
-19.875 6.525 2.325
-16.575 9.225 1.125
-24.375 14.475 2.625
-17.625 7.725 0.825
-24.525 14.325 -0.225
-24.075 14.775 -0.075
-18.375 15.225 -0.825
-25.425 12.825 1.725
-16.425 9.525 0.825
-16.425 9.525 1.875
-19.275 15.675 -0.075
-25.725 11.175 -0.225
-25.725 11.175 -0.375
-25.575 12.375 0.825
-24.675 14.175 -0.225
-24.675 14.175 -0.825
-16.125 11.025 -1.725
-25.725 11.025 1.425
-16.275 9.975 0.825
-20.625 15.975 -0.075
-20.625 15.975 0.225
-20.625 15.975 -0.375
-20.625 6.375 2.475
-21.225 6.375 -0.525
-20.475 15.975 0.075
-20.475 15.975 0.225
-23.775 15.075 0.525
-18.075 15.075 -0.375
-18.825 15.525 -2.025
-18.825 15.525 2.475
-18.825 15.525 -4.425
-17.025 8.325 0.225
-17.025 8.325 -0.075
-16.725 13.575 0.075
-16.725 13.575 -0.525
-23.325 15.375 0.225
-23.325 15.375 0.825
-20.325 15.975 0.075
-25.725 11.775 -0.525
-25.725 11.775 0.825
-19.575 6.525 0.675
-19.575 6.525 1.125
-25.425 12.975 0.075
-16.425 9.375 0.825
-16.425 9.375 1.875
-19.125 15.675 -0.075
-22.725 15.675 -0.375
-20.175 15.975 -0.075
-20.175 15.975 0.075
-20.175 15.975 -0.225
-25.725 10.425 0.975
-25.725 11.925 1.275
-25.725 10.425 0.375
-23.625 15.225 0.525
-16.875 8.475 1.575
-17.475 14.625 2.775
-17.475 14.625 0.675
-21.825 15.975 2.025
-17.625 14.775 -0.375
-24.225 7.575 3.075
-17.625 7.575 1.275
-19.425 15.825 -2.025
-25.575 12.675 1.725
-19.425 6.525 1.125
-16.275 9.675 2.025
-17.175 14.325 -2.775
-18.675 15.525 2.475
-17.175 8.025 0.675
-17.175 8.025 1.275
-16.575 8.925 2.625
-17.775 14.925 -1.275
-17.775 7.425 1.425
-16.425 9.225 1.875
-16.725 13.725 0.675
-16.725 8.625 2.025
-18.375 15.375 -0.225
-23.475 15.375 1.125
-23.475 15.375 0.375
-23.475 15.375 0.525
-25.725 12.225 0.075
-25.725 12.225 1.125
-19.875 6.375 0.975
-17.025 8.175 1.125
-17.025 8.175 1.275
-22.575 15.825 2.475
-25.575 12.825 -0.075
-25.575 12.825 0.675
-19.275 15.825 -0.075
-22.575 6.525 -1.725
-16.275 9.525 1.575
-16.275 9.525 0.675
-25.725 12.375 0.225
-25.725 12.375 1.125
-16.125 9.975 0.225
-25.875 11.025 0.825
-18.075 15.225 -0.225
-16.875 8.325 -0.075
-21.225 6.225 2.325
-18.825 6.675 -0.075
-23.325 15.525 0.825
-18.525 15.525 -0.375
-20.475 16.125 -1.125
-22.275 15.975 2.475
-25.575 12.975 0.675
-17.475 14.775 -0.075
-17.475 14.775 0.825
-17.475 14.775 -0.375
-19.125 15.825 -0.225
-19.125 15.825 -0.075
-22.725 15.825 -0.375
-25.575 9.375 -0.225
-25.875 11.775 -2.925
-25.725 12.525 -0.825
-16.125 9.825 2.025
-19.575 6.375 1.575
-19.575 6.375 0.825
-15.975 10.575 0.375
-15.975 10.575 -3.975
-16.275 9.375 2.325
-16.275 9.375 1.875
-16.725 13.875 0.225
-16.725 13.875 0.075
-16.725 8.475 2.025
-18.225 6.975 -3.525
-17.025 14.325 -2.325
-19.425 15.975 -1.425
-16.125 9.675 1.875
-16.125 9.675 2.175
-16.125 9.675 1.425
-25.875 12.075 0.675
-21.825 16.125 -0.675
-21.825 16.125 -0.975
-25.875 10.275 0.975
-16.425 8.925 2.775
-23.175 15.675 1.875
-23.175 15.675 0.825
-18.675 6.675 1.725
-17.925 15.225 -0.675
-16.875 8.175 -0.075
-16.875 8.175 1.725
-25.575 13.125 -0.225
-25.575 13.125 0.825
-25.275 8.625 0.225
-23.475 15.525 0.675
-16.275 9.225 2.625
-16.275 9.225 -1.575
-16.275 9.225 2.475
-25.875 12.225 0.975
-19.875 6.225 2.625
-22.575 15.975 0.075
-22.575 15.975 0.225
-19.275 15.975 -0.075
-18.075 15.375 -1.575
-19.275 6.375 2.025
-17.325 14.775 0.075
-17.325 14.775 0.225
-19.725 16.125 -1.575
-19.725 16.125 1.725
-20.925 16.275 -0.225
-23.325 15.675 1.425
-23.325 15.675 1.125
-20.925 6.075 0.375
-18.525 15.675 0.825
-18.525 15.675 -0.375
-18.525 15.675 0.075
-23.025 15.825 -5.325
-23.025 15.825 0.975
-25.575 13.275 0.075
-25.575 13.275 0.525
-25.575 13.275 0.675
-25.575 13.275 1.125
-23.025 6.525 -0.075
-21.075 6.075 0.375
-21.075 6.075 0.525
-20.775 6.075 2.325
-20.775 6.075 2.025
-16.275 9.075 2.025
-20.625 6.075 2.475
-20.625 6.075 0.225
-21.225 6.075 0.375
-17.625 7.275 1.725
-20.475 16.275 -1.275
-18.225 15.525 1.275
-23.625 15.525 0.075
-23.625 15.525 0.525
-23.625 6.825 2.625
-20.475 6.075 -0.075
-21.375 6.075 0.375
-15.825 10.725 -3.525
-16.575 8.475 1.875
-19.125 15.975 -0.225
-22.725 15.975 -0.225
-22.725 15.975 -0.075
-25.725 12.975 -0.225
-19.575 16.125 -1.575
-19.575 16.125 1.725
-19.575 16.125 -2.025
-17.775 15.225 -3.375
-17.775 15.225 -0.675
-16.875 8.025 0.675
-15.975 9.825 1.875
-15.975 9.825 1.575
-15.975 9.825 3.525
-26.025 11.775 -3.675
-21.675 16.275 0.375
-20.175 6.075 2.325
-17.925 15.375 0.825
-25.125 14.175 0.075
-16.725 8.175 2.175
-18.675 15.825 1.575
-18.675 15.825 -0.375
-23.175 6.525 0.075
-19.425 16.125 -2.175
-25.425 13.725 0.225
-23.475 15.675 0.075
-18.375 15.675 -1.725
-18.375 15.675 0.225
-18.375 15.675 -0.075
-18.375 15.675 -0.225
-15.975 9.675 2.025
-15.975 9.675 2.175
-21.825 16.275 2.025
-20.025 6.075 0.375
-22.875 15.975 1.125
-18.975 15.975 -0.075
-25.725 13.125 -0.075
-16.125 9.225 2.475
-16.125 9.225 2.325
-16.125 9.225 2.625
-17.325 14.925 -0.975
-17.475 15.075 -1.275
-19.875 6.075 2.175
-15.825 10.125 1.275
-25.875 12.825 1.425
-19.275 16.125 -2.325
-15.975 9.525 2.175
-15.975 9.525 0.675
-15.975 9.525 1.125
-17.625 15.225 -0.675
-25.575 13.575 1.425
-18.525 15.825 1.425
-18.525 15.825 -1.575
-18.525 15.825 -0.225
-18.525 15.825 -0.075
-19.725 16.275 -1.575
-18.825 15.975 -2.175
-23.025 6.375 -0.075
-23.025 6.375 0.375
-23.025 6.375 -0.225
-25.725 13.275 -0.675
-25.725 13.275 -0.075
-25.725 13.275 0.675
-19.725 6.075 0.225
-16.125 9.075 2.475
-16.125 9.075 2.925
-15.825 9.975 -3.975
-18.225 15.675 -1.725
-23.625 15.675 0.375
-23.625 15.675 0.975
-16.425 8.475 2.025
-16.725 8.025 1.125
-20.925 5.925 0.225
-20.925 5.925 0.525
-20.925 5.925 2.775
-20.925 5.925 3.375
-21.075 5.925 0.225
-21.075 5.925 2.475
-21.075 5.925 2.175
-20.775 5.925 0.375
-21.225 5.925 0.225
-22.725 16.125 -0.525
-22.725 16.125 -0.225
-15.975 9.375 1.875
-15.975 9.375 1.725
-20.475 16.425 2.325
-21.375 5.925 0.675
-21.375 5.925 1.275
-20.475 5.925 0.975
-19.575 16.275 -1.725
-19.575 16.275 -2.475
-15.825 9.825 1.275
-15.825 9.825 2.025
-17.925 15.525 2.025
-16.575 8.175 2.025
-18.675 15.975 -0.225
-18.675 15.975 -0.375
-16.125 8.925 -0.975
-16.125 8.925 2.175
-16.125 8.925 2.775
-18.375 15.825 2.025
-18.375 15.825 -0.225
-18.375 15.825 -0.075
-21.675 16.425 0.375
-17.175 14.925 -0.375
-17.175 14.925 -1.425
-26.175 11.925 0.525
-26.175 10.425 1.575
-26.175 11.925 -0.075
-24.675 7.425 1.875
-21.675 5.925 2.175
-20.175 5.925 -0.225
-20.175 5.925 2.175
-16.275 8.625 0.375
-16.275 8.625 2.625
-17.325 15.075 0.675
-17.325 15.075 -0.975
-22.425 16.275 0.375
-19.425 16.275 1.725
-19.425 6.075 1.425
-19.425 6.075 -1.875
-15.825 9.675 1.575
-15.825 9.675 2.025
-15.825 9.675 2.775
-17.475 15.225 -0.525
-18.975 16.125 1.725
-25.875 13.125 1.125
-16.875 7.725 0.525
-15.975 9.225 2.325
-15.975 9.225 2.475
-23.775 6.675 2.475
-25.425 14.025 -0.225
-20.025 5.925 1.875
-16.725 7.875 0.075
-16.725 7.875 1.575
-19.875 16.425 -2.175
-19.875 5.925 0.675
-22.575 16.275 -0.225
-26.025 12.825 0.375
-15.825 9.525 2.175
-15.825 9.525 2.775
-18.525 15.975 -0.225
-16.125 8.775 2.625
-16.125 8.775 0.375
-18.525 6.375 2.025
-24.075 15.525 -5.025
-16.575 14.325 -1.275
-17.775 15.525 -0.225
-17.775 15.525 0.375
-16.575 8.025 -0.525
-23.625 15.825 0.075
-25.575 13.875 -0.225
-23.025 16.125 -1.725
-25.875 13.275 -0.525
-25.875 13.275 1.275
-25.875 13.275 1.725
-23.625 6.525 2.175
-18.825 16.125 -1.875
-23.025 6.225 0.075
-15.975 9.075 0.525
-15.975 9.075 2.325
-15.975 9.075 2.775
-16.275 8.475 3.375
-16.275 8.475 0.225
-15.675 9.975 1.725
-20.925 16.575 -1.425
-20.925 5.775 2.025
-20.925 5.775 0.375
-21.075 5.775 1.875
-26.025 12.975 0.075
-19.125 16.275 1.875
-22.725 16.275 -0.225
-17.925 15.675 0.075
-17.925 15.675 -0.225
-17.925 15.675 -1.725
-21.225 5.775 0.675
-20.625 5.775 0.825
-20.625 5.775 1.125
-21.225 5.775 2.325
-21.225 5.775 0.975
-15.825 9.375 -0.825
-15.825 9.375 1.875
-15.825 9.375 2.475
-15.825 9.375 0.075
-15.825 9.375 3.075
-17.175 7.275 2.175
-17.175 7.275 0.675
-17.025 14.925 -0.825
-17.025 7.425 -0.375
-17.025 7.425 0.825
-21.375 16.575 -4.425
-20.475 16.575 -1.725
-20.475 16.575 -0.675
-20.475 5.775 0.225
-21.375 5.775 2.775
-21.375 5.775 1.575
-21.375 5.775 0.525
-21.375 5.775 0.375
-20.475 5.775 -0.825
-22.275 5.925 -1.275
-26.175 9.825 0.975
-20.325 16.575 -1.875
-20.325 16.575 -1.575
-20.325 16.575 -1.725
-20.325 16.575 -2.025
-21.525 5.775 0.825
-21.525 5.775 1.875
-21.525 5.775 0.375
-21.525 5.775 0.525
-21.525 5.775 0.975
-20.325 5.775 1.275
-17.475 15.375 -3.225
-17.475 15.375 0.525
-25.125 14.625 0.675
-18.375 15.975 -1.725
-23.475 15.975 0.075
-16.725 7.725 0.825
-16.125 8.625 2.775
-16.125 8.625 0.375
-25.875 13.425 -0.225
-25.875 13.425 -0.075
-15.975 8.925 2.775
-15.975 8.925 2.475
-15.975 8.925 0.225
-23.175 6.225 0.075
-20.175 5.775 1.425
-20.175 5.775 -1.125
-20.175 5.775 2.175
-21.675 5.775 2.025
-21.675 5.775 1.875
-25.575 14.025 0.375
-18.075 15.825 0.075
-18.075 15.825 -0.225
-26.025 13.125 -0.075
-15.675 9.675 1.575
-15.675 9.675 1.425
-15.675 9.675 2.775
-15.675 9.675 2.025
-17.625 15.525 -0.225
-22.425 16.425 0.225
-19.425 16.425 -1.425
-19.425 16.425 0.225
-18.975 6.075 1.725
-22.425 5.925 1.125
-19.425 5.925 3.375
-16.575 7.875 -0.225
-16.575 7.875 1.125
-26.325 12.075 -0.975
-20.025 5.775 1.275
-16.425 8.025 2.025
-19.875 16.575 -1.575
-23.325 16.125 -4.875
-15.975 8.775 -1.575
-15.975 8.775 2.625
-22.575 16.425 -0.225
-22.575 16.425 -0.075
-15.675 12.825 2.625
-15.675 9.525 0.075
-15.675 9.525 -0.675
-15.675 9.525 1.725
-15.675 9.525 1.575
-15.675 9.525 1.875
-15.675 9.525 2.025
-19.275 16.425 -0.375
-19.275 5.925 0.975
-18.225 15.975 -1.425
-23.625 15.975 0.375
-23.625 15.975 0.675
-16.125 8.475 2.925
-18.825 16.275 -0.825
-23.025 6.075 -0.075
-17.025 15.075 -0.975
-17.025 15.075 -0.825
-17.025 7.275 1.875
-15.825 9.075 2.475
-17.175 7.125 -0.975
-16.875 7.425 0.675
-24.525 6.975 2.175
-16.725 7.575 3.075
-15.525 9.975 2.625
-17.925 15.825 -0.225
-23.925 15.825 0.675
-15.675 9.375 1.875
-22.725 16.425 -1.425
-20.925 16.725 0.675
-20.925 5.625 0.375
-20.925 5.625 0.825
-20.925 5.625 1.425
-20.925 5.625 1.875
-20.925 5.625 1.725
-20.925 5.625 2.475
-19.125 5.925 1.125
-21.075 5.625 3.225
-20.625 5.625 -0.675
-20.625 5.625 0.525
-21.225 5.625 0.375
-21.225 5.625 0.975
-19.575 16.575 -0.675
-19.575 5.775 0.525
-19.575 5.775 3.225
-23.475 16.125 0.825
-18.375 16.125 1.125
-20.475 16.725 -0.825
-21.375 5.625 0.375
-21.375 5.625 0.825
-21.375 5.625 1.725
-20.475 5.625 0.375
-20.475 5.625 -0.825
-15.975 8.625 0.375
-15.975 8.625 2.775
-26.025 13.425 0.525
-18.675 6.075 2.025
-15.825 8.925 0.225
-15.825 8.925 2.775
-15.825 8.925 2.625
-17.625 15.675 -0.375
-17.625 15.675 -0.225
-17.625 15.675 -0.075
-23.775 15.975 -4.725
-21.525 5.625 1.425
-21.525 5.625 0.525
-21.525 5.625 1.275
-21.525 16.725 1.575
-20.325 16.725 -1.575
-20.325 16.725 -0.825
-20.325 5.625 0.375
-20.325 5.625 -2.475
-20.325 5.625 0.075
-20.325 5.625 1.875
-20.325 5.625 0.675
-20.325 5.625 1.125
-18.075 6.375 3.675
-18.975 16.425 -0.975
-15.675 9.225 2.625
-21.675 5.625 0.375
-20.175 5.625 0.375
-20.175 5.625 0.525
-20.175 5.625 1.425
-20.175 5.625 -0.375
-18.975 5.925 1.125
-18.975 5.925 2.475
-19.425 16.575 -0.675
-22.425 16.575 -0.375
-22.425 16.575 -0.075
-26.325 12.675 0.825
-15.525 9.675 1.875
-19.425 5.775 0.375
-19.425 5.775 0.825
-25.575 14.325 2.625
-17.775 15.825 0.525
-17.775 15.825 0.225
-17.775 15.825 -0.225
-17.775 15.825 -0.075
-24.825 7.125 0.975
-21.825 5.625 1.275
-21.825 5.625 1.425
-24.975 7.275 1.125
-20.025 5.625 0.525
-20.025 5.625 0.375
-20.025 5.625 -0.675
-15.375 10.275 0.675
-15.375 10.275 4.275
-15.375 10.275 3.075
-16.725 14.925 -2.475
-16.725 7.425 0.375
-16.725 7.425 0.225
-16.725 7.425 -0.225
-23.325 16.275 2.775
-15.825 8.775 -1.425
-15.825 8.775 2.325
-23.625 16.125 -0.225
-23.625 16.125 0.375
-18.225 16.125 0.375
-15.975 8.475 0.225
-22.575 16.575 -0.075
-15.525 9.525 2.025
-15.525 9.525 -1.575
-17.325 15.525 0.075
-17.325 15.525 -0.525
-19.275 5.775 0.825
-19.275 5.775 0.975
-16.575 7.575 0.225
-19.875 5.625 0.675
-19.875 5.625 0.525
-19.875 16.725 -0.825
-15.375 10.125 -3.975
-21.975 5.625 0.675
-21.975 5.625 1.425
-23.025 5.925 0.075
-15.675 9.075 2.475
-26.175 9.075 0.225
-18.825 5.925 1.275
-17.925 15.975 -0.225
-17.925 15.975 0.075
-23.925 15.975 0.825
-25.725 14.175 0.375
-23.925 6.375 0.675
-17.475 15.675 -0.225
-17.475 15.675 -2.025
-17.475 15.675 -0.525
-16.425 14.625 -1.575
-24.375 6.675 1.125
-22.125 16.725 0.375
-19.725 5.625 0.525
-22.125 16.725 2.025
-22.125 16.725 -0.075
-22.125 16.725 0.525
-15.375 9.975 0.225
-26.325 12.975 2.925
-19.125 16.575 4.425
-15.525 9.375 1.875
-15.525 9.375 2.775
-19.125 5.775 1.425
-20.925 16.875 2.175
-20.925 5.475 0.525
-20.925 5.475 1.875
-17.625 15.825 -1.125
-17.625 15.825 -0.675
-20.775 16.875 -1.275
-20.775 5.475 0.825
-20.775 5.475 2.325
-20.775 5.475 0.675
-21.075 5.475 -0.075
-21.075 5.475 0.525
-21.075 5.475 1.425
-21.075 5.475 0.825
-15.225 11.025 1.425
-20.775 5.475 -1.125
-18.375 6.075 4.275
-15.825 8.625 2.775
-16.275 7.875 -0.525
-20.625 5.475 0.975
-15.675 8.925 1.875
-26.475 9.825 0.075
-20.475 16.875 -1.125
-20.475 5.475 -0.825
-20.475 5.475 0.525
-20.475 5.475 0.975
-21.375 5.475 0.525
-21.375 5.475 2.025
-21.375 5.475 1.125
-21.375 5.475 0.975
-20.475 5.475 2.775
-16.875 7.125 0.975
-16.725 15.075 -3.075
-21.525 16.875 -1.725
-20.325 5.475 -1.125
-20.325 5.475 0.375
-15.225 11.775 -0.075
-15.225 11.775 -0.225
-21.525 5.475 2.025
-21.525 5.475 -0.075
-17.025 6.975 1.725
-18.975 5.775 0.975
-24.075 6.375 2.475
-17.775 15.975 -0.225
-15.525 9.225 2.325
-15.525 9.225 4.125
-15.525 9.225 2.775
-16.125 8.025 1.125
-16.575 14.925 0.375
-16.575 7.425 0.075
-21.675 16.875 1.425
-20.175 5.475 0.525
-20.175 5.475 0.375
-20.175 5.475 -2.475
-15.225 11.925 -0.375
-19.425 5.625 0.375
-15.375 9.675 3.975
-22.425 16.725 -0.075
-20.175 5.475 -0.975
-16.425 7.575 0.825
-16.425 7.575 1.125
-17.325 15.675 -0.375
-23.625 16.275 0.225
-20.025 16.875 3.225
-18.225 6.075 -0.675
-18.225 6.075 -0.225
-18.225 6.075 -0.975
-20.025 5.475 0.975
-20.025 5.475 2.775
-20.025 5.475 2.025
-20.025 5.475 0.375
-20.025 5.475 2.325
-15.825 8.475 3.075
-23.325 16.425 1.575
-23.325 16.425 1.725
-15.675 8.775 2.625
-25.875 14.175 1.125
-25.875 14.175 1.275
-17.925 16.125 -0.975
-17.475 15.825 -0.525
-17.475 15.825 0.375
-22.575 16.725 1.425
-26.475 12.825 0.825
-15.375 9.525 0.675
-15.375 9.525 2.625
-15.375 9.525 2.175
-19.275 16.725 -0.825
-19.275 5.625 0.675
-19.275 5.625 0.975
-19.275 5.625 1.275
-19.275 5.625 0.375
-16.275 7.725 -0.225
-23.025 5.775 0.075
-23.025 5.775 0.525
-23.025 5.775 -0.225
-18.825 16.575 -0.225
-18.825 5.775 2.325
-21.975 16.875 1.275
-19.875 5.475 0.375
-21.975 5.475 0.525
-17.625 15.975 0.225
-17.625 15.975 0.525
-22.125 16.875 0.075
-22.125 16.875 -0.225
-24.225 15.975 -0.525
-22.125 16.875 1.875
-19.725 5.475 0.675
-19.725 5.475 0.825
-19.725 5.475 0.525
-22.125 5.475 0.975
-16.725 7.125 2.025
-16.725 7.125 1.875
-19.125 5.625 0.225
-19.125 5.625 1.425
-19.125 5.625 0.975
-16.875 6.975 -2.025
-15.675 8.625 2.175
-23.775 16.275 -0.225
-17.025 15.525 -0.075
-17.025 15.525 -1.875
-17.025 6.825 2.775
-20.925 17.025 0.375
-20.925 17.025 -2.025
-20.925 17.025 -2.175
-20.925 17.025 -0.975
-20.925 17.025 -0.375
-15.525 8.925 2.625
-15.525 8.925 1.875
-20.925 5.325 1.275
-20.925 5.325 1.125
-20.925 5.325 0.225
-23.175 5.775 0.075
-15.075 11.175 2.175
-21.075 17.025 -0.075
-20.775 5.325 0.525
-20.775 5.325 0.675
-21.075 5.325 0.675
-15.075 11.325 0.675
-15.075 11.325 2.325
-26.775 11.475 4.425
-21.225 17.025 0.375
-22.275 16.875 0.075
-26.625 12.525 0.825
-17.175 15.675 -0.375
-16.425 14.925 -5.025
-26.625 9.825 0.075
-17.175 15.675 -0.075
-17.175 15.675 -0.225
-20.625 5.325 0.675
-20.625 5.325 1.275
-21.225 5.325 0.675
-21.225 5.325 0.825
-21.225 5.325 0.525
-15.075 11.475 1.125
-19.575 5.475 0.675
-20.475 17.025 -0.825
-20.475 17.025 0.225
-21.375 17.025 -0.375
-21.375 17.025 0.375
-21.375 17.025 -0.075
-25.875 14.325 0.525
-21.375 5.325 0.975
-21.375 5.325 3.225
-20.475 5.325 0.375
-21.375 5.325 2.475
-15.075 10.725 0.375
-21.525 17.025 -0.075
-25.575 14.775 0.375
-17.325 15.825 -0.225
-17.325 15.825 -0.525
-17.325 15.825 3.075
-20.325 5.325 0.375
-20.325 5.325 2.325
-20.325 5.325 2.025
-21.525 5.325 2.025
-21.525 5.325 2.775
-21.525 5.325 0.675
-21.525 5.325 0.975
-21.525 5.325 1.725
-21.525 5.325 1.275
-15.075 11.775 1.275
-15.075 10.575 0.525
-15.375 9.225 2.925
-19.425 16.875 -1.275
-19.425 16.875 -1.125
-22.425 16.875 -0.075
-19.425 5.475 0.825
-21.675 5.325 2.625
-21.675 5.325 1.425
-20.175 5.325 0.375
-15.075 11.925 1.275
-15.075 10.425 0.375
-15.075 11.925 0.225
-15.075 11.925 1.425
-15.075 11.925 0.375
-15.075 10.425 -0.225
-15.075 11.925 -0.375
-23.325 16.575 -0.225
-23.325 16.575 0.375
-23.325 16.575 2.625
-23.325 5.775 1.125
-15.525 8.775 2.475
