# .PCD v0.7 - Point Cloud Data file format
VERSION 0.7
FIELDS x y z
SIZE 4 4 4
TYPE F F F
COUNT 1 1 1
WIDTH 2048
HEIGHT 1
VIEWPOINT 0 0 0 1 0 0 0
POINTS 2048
DATA ascii
37.275 28.125 1.125
37.275 28.275 0.525
37.275 28.275 -0.225
37.275 28.275 0.675
37.275 27.975 0.075
37.425 28.275 -0.375
37.425 28.275 0.975
37.425 28.275 -3.825
37.125 28.125 -1.125
37.125 28.125 0.375
37.125 28.275 -0.975
37.125 27.975 -1.125
37.125 27.975 0.675
37.575 28.125 1.125
37.575 28.125 2.775
37.575 27.975 -0.225
37.575 27.975 0.225
37.575 27.975 1.575
37.575 27.975 -0.075
37.425 28.425 0.075
37.425 28.425 -0.075
37.425 27.825 -0.225
37.425 27.825 0.975
36.975 28.125 -0.675
36.975 28.125 -1.425
36.975 28.275 -0.675
36.975 27.975 -0.375
36.975 27.975 -0.825
37.575 28.425 -3.825
37.725 28.125 1.125
37.725 28.125 0.225
37.725 28.275 0.075
37.725 28.275 -0.075
37.725 27.975 -0.075
37.275 27.675 0.675
37.275 27.675 2.025
37.275 27.675 0.975
36.975 28.425 -0.525
37.425 28.575 -0.675
37.425 27.675 2.925
37.425 27.675 1.275
37.575 28.575 -0.675
37.575 27.675 -0.225
36.825 27.975 -0.675
37.875 28.275 2.025
37.275 28.725 -4.125
37.425 28.725 0.375
37.725 27.675 -0.975
37.725 27.675 -2.475
37.425 27.525 -2.025
37.125 27.525 1.275
37.575 28.725 -0.675
37.575 27.525 -0.225
36.675 27.975 0.375
36.825 27.675 -3.225
36.825 27.675 -0.975
36.975 27.525 1.725
36.675 27.825 -0.675
37.875 27.675 -0.225
37.875 27.675 0.075
37.875 27.675 1.725
37.725 28.725 0.225
37.725 28.725 -0.225
37.725 27.525 0.075
37.725 27.525 -2.475
37.725 27.525 -0.525
37.425 27.375 -2.175
38.025 27.825 -0.075
38.025 27.825 -0.375
36.825 27.525 -2.025
36.825 27.525 -1.125
36.675 27.675 -3.375
36.675 27.675 -0.975
36.675 27.675 -0.825
37.575 27.375 -2.475
37.575 27.375 -0.225
36.525 28.125 -2.025
36.525 28.275 -0.675
36.525 27.975 -0.675
37.875 28.725 0.075
37.875 27.525 -0.825
37.875 27.525 -0.225
37.875 27.525 2.325
36.975 27.375 -0.825
37.725 28.875 -0.675
38.175 28.125 0.225
37.725 27.375 0.075
37.725 27.375 -0.225
37.725 27.375 -0.075
38.175 28.275 0.075
38.175 27.975 -0.225
38.175 27.975 5.625
38.175 27.975 -0.075
38.175 27.975 -0.375
36.675 28.725 -1.275
36.675 28.725 -1.125
36.675 27.525 -1.425
36.675 27.525 -0.825
36.675 27.525 -0.375
36.675 27.525 -2.625
36.825 28.875 -1.275
36.825 27.375 -2.025
37.425 29.025 0.975
38.175 28.425 1.125
37.275 27.225 -2.025
37.275 27.225 2.775
38.175 27.825 0.375
36.525 28.575 -0.975
36.525 27.675 -0.675
36.525 27.675 -0.375
36.525 27.675 0.375
37.125 27.225 1.275
38.025 27.525 -0.225
38.025 27.525 -0.075
38.025 27.525 0.675
38.025 27.525 0.525
37.875 28.875 -0.225
37.875 28.875 -0.675
37.575 29.025 -2.475
37.875 27.375 0.075
37.875 27.375 -0.225
37.875 27.375 -0.075
37.575 27.225 -0.225
37.575 27.225 -1.425
36.375 28.125 -1.125
36.375 27.975 3.375
38.175 27.675 0.075
38.175 27.675 -0.375
36.975 27.225 1.275
37.725 29.025 -0.675
37.725 29.025 -0.375
36.675 28.875 0.225
36.675 28.875 -0.375
37.725 27.225 -0.075
37.725 27.225 0.075
36.525 27.525 -0.675
38.325 28.125 -1.725
38.325 28.125 -1.425
38.325 27.975 0.375
38.325 27.975 -0.375
38.025 27.375 0.075
38.025 27.375 -0.825
38.175 27.525 2.625
36.375 28.575 -0.825
38.325 28.425 0.975
38.325 28.425 -1.875
38.325 27.825 -0.675
38.325 27.825 -0.525
36.375 27.675 -2.925
37.275 27.075 2.325
37.875 29.025 -3.525
37.875 27.225 3.075
37.875 27.225 -0.075
36.525 28.875 0.375
36.525 27.375 -0.375
36.225 28.125 -0.525
36.225 28.125 -1.125
38.325 27.675 -0.075
36.675 29.025 0.225
36.675 29.025 -0.225
36.675 29.025 -0.825
36.225 28.275 -1.125
36.225 27.975 -0.375
36.975 27.075 2.475
36.975 27.075 -0.225
36.975 27.075 1.275
36.675 27.225 -0.825
36.375 28.725 -0.825
37.725 29.175 2.325
37.725 27.075 -0.075
38.175 28.875 -4.575
36.225 28.425 -0.825
38.025 29.025 -0.825
38.025 29.025 2.925
38.025 29.025 -0.675
38.025 27.225 -0.075
38.025 27.225 -0.225
38.475 28.125 0.225
38.475 28.125 0.375
38.475 28.125 -0.525
38.475 28.125 -0.225
38.475 28.125 0.075
36.825 29.175 -0.075
38.475 28.275 -0.375
38.475 27.975 -0.375
38.325 28.725 -1.425
38.325 27.525 0.675
36.225 28.575 -2.925
37.875 29.175 -4.575
37.875 29.175 -0.525
37.875 27.075 3.225
38.475 28.425 -0.525
38.475 27.825 0.075
37.275 29.325 -3.675
36.525 29.025 0.375
36.375 28.875 -0.825
37.425 26.925 -0.675
37.575 26.925 -2.625
36.675 29.175 0.525
36.675 29.175 -0.075
38.475 27.675 -0.675
38.175 27.225 -0.375
36.225 28.725 2.175
36.975 26.925 1.725
36.975 26.925 -2.025
36.975 26.925 2.475
36.975 26.925 1.125
38.325 27.375 0.375
38.025 29.175 -0.975
38.025 29.175 1.425
37.725 29.325 -1.275
37.725 29.325 -0.375
36.075 28.425 0.075
36.825 29.325 0.075
36.825 29.325 -0.075
38.625 28.125 -0.525
38.625 28.125 -0.075
36.375 29.025 0.375
36.375 29.025 1.875
36.375 29.025 -2.775
38.625 28.275 0.225
36.525 29.175 0.525
37.875 29.325 2.325
37.875 29.325 -0.525
36.075 28.575 0.075
36.075 28.575 3.525
36.225 27.375 -2.925
36.225 27.375 -0.675
36.225 27.375 -0.975
36.225 27.375 -0.525
38.625 28.425 -0.375
38.625 28.425 -0.825
38.325 29.025 -1.275
38.325 27.225 0.075
38.325 27.225 1.875
38.325 27.225 -0.825
38.175 29.175 -2.625
37.275 26.775 -0.975
37.275 26.775 0.825
38.175 27.075 -0.075
38.175 27.075 0.375
37.425 26.775 -0.825
36.675 26.925 -0.225
36.675 26.925 -0.675
37.125 26.775 -1.125
37.575 29.475 0.075
37.575 26.775 -0.825
38.475 27.375 0.375
38.475 27.375 -0.525
38.475 27.375 -0.225
38.625 28.575 -0.225
38.625 27.675 -0.675
38.625 27.675 -0.225
36.075 27.525 2.775
38.025 29.325 -0.375
38.025 29.325 1.425
38.025 26.925 -0.075
36.975 26.775 0.225
35.925 28.275 -0.075
35.925 28.275 -0.225
35.925 28.275 0.375
36.375 29.175 0.225
36.375 27.075 -0.975
36.375 27.075 -1.875
36.225 27.225 -0.675
36.225 27.225 -1.125
36.225 27.225 -0.975
35.925 28.425 -0.975
35.925 27.825 -3.225
38.625 28.725 -0.975
38.325 29.175 -2.025
38.775 28.125 -0.525
38.775 28.125 0.375
38.325 27.075 0.075
36.075 27.375 -2.925
38.775 28.275 0.375
38.775 28.275 0.075
38.475 29.025 0.675
38.775 27.975 -0.525
38.775 27.975 -0.075
38.175 29.325 -0.675
38.775 28.425 -0.225
38.775 28.425 -0.675
38.775 27.825 -0.525
37.425 29.625 0.375
38.625 27.375 -0.525
37.425 26.625 -0.225
37.125 26.625 0.825
38.025 29.475 -0.675
36.225 27.075 -0.825
36.225 27.075 -0.675
37.575 26.625 -0.225
37.575 26.625 -0.375
36.375 26.925 0.375
36.375 26.925 -0.225
37.725 29.625 1.725
37.725 29.625 1.275
35.775 27.975 0.225
35.775 27.975 -3.675
37.725 26.625 1.875
38.475 29.175 -1.275
38.475 27.075 0.075
38.475 27.075 -0.075
38.325 26.925 -0.075
38.325 26.925 0.375
36.525 26.775 0.975
36.525 26.775 -1.125
38.775 28.725 -0.225
38.775 28.725 0.075
38.625 27.225 0.075
38.625 27.225 -0.375
35.925 27.375 2.625
38.175 29.475 -0.675
38.925 28.125 -0.075
38.925 28.125 -1.125
38.925 28.275 -0.375
38.925 28.275 0.375
38.925 27.975 -0.525
35.775 27.675 1.725
36.225 29.325 -4.275
36.225 26.925 -0.675
36.075 29.175 2.775
38.925 28.425 1.875
38.925 28.425 -0.675
38.925 28.425 -0.525
38.775 28.875 -0.525
36.675 26.625 -3.375
37.275 29.775 1.275
37.425 29.775 0.825
37.125 29.775 0.675
38.925 28.575 -0.225
37.575 29.775 1.875
38.475 26.925 0.675
38.475 26.925 0.075
38.625 29.175 -1.575
38.625 29.175 -1.275
38.625 27.075 -0.225
38.625 27.075 0.225
38.325 29.475 -0.825
36.975 26.475 -0.525
36.525 26.625 -1.125
37.725 26.475 2.325
38.775 29.025 -1.425
38.775 29.025 -1.725
38.775 29.025 0.825
38.775 27.225 0.975
38.925 27.525 -0.075
35.775 28.875 2.175
35.775 27.375 -1.275
35.775 27.375 -2.175
35.625 27.825 0.375
38.175 29.625 -0.525
38.175 29.625 1.575
38.175 29.625 -0.675
36.075 26.925 -0.525
36.075 26.925 0.975
37.875 29.775 2.025
37.875 26.475 0.825
35.925 27.075 -0.975
35.625 27.675 -3.825
39.075 28.275 -0.225
39.075 28.275 -0.525
39.075 28.275 -0.075
38.925 28.875 -0.225
38.925 28.875 0.375
38.625 29.325 1.275
38.625 29.325 1.425
38.925 27.375 -0.675
38.925 27.375 0.075
38.925 27.375 0.825
38.475 29.475 1.575
38.625 26.925 0.075
36.675 26.475 -0.225
38.475 26.775 1.875
39.075 28.425 0.825
39.075 28.425 -0.525
39.075 28.425 -0.675
39.075 28.425 0.525
38.025 29.775 -3.225
38.775 29.175 -1.725
38.775 27.075 -1.725
38.775 27.075 -0.675
37.275 29.925 -1.275
37.275 29.925 2.175
37.425 29.925 -1.875
37.425 29.925 0.075
37.425 29.925 2.025
38.325 26.625 0.075
38.325 26.625 0.525
37.125 29.925 0.525
37.125 29.925 0.375
37.125 29.925 0.675
37.125 29.925 -1.875
37.125 29.925 -1.275
37.125 29.925 0.075
37.125 29.925 0.225
39.075 28.575 0.825
37.575 29.925 1.575
37.575 26.325 1.275
36.975 29.925 1.125
38.925 27.225 0.225
37.725 29.925 2.175
35.925 26.925 -0.975
39.075 27.525 0.525
35.625 27.375 -3.375
38.775 29.325 -1.575
38.775 29.325 -1.125
38.775 29.325 0.825
38.775 29.325 2.325
37.875 26.325 0.525
38.775 26.925 0.225
38.775 26.925 1.875
38.775 26.925 0.375
39.225 28.125 -0.675
39.225 28.125 -0.225
39.075 27.375 0.225
39.225 28.275 -0.525
39.225 28.275 0.075
39.225 27.975 0.375
36.675 26.325 -0.075
38.925 29.175 -1.275
39.225 28.425 0.675
38.325 29.775 -0.075
38.325 29.775 -0.225
38.325 26.475 0.525
38.025 26.325 0.975
35.925 26.775 -0.825
37.275 30.075 0.825
37.275 30.075 0.675
37.275 30.075 -1.125
37.275 30.075 0.975
37.275 30.075 0.225
36.075 29.625 -1.125
37.425 30.075 -0.975
37.425 30.075 0.225
37.425 30.075 -0.375
37.425 30.075 0.075
37.425 30.075 -0.825
37.275 26.175 -0.675
35.775 29.325 1.575
39.225 28.575 -0.075
39.225 28.575 -0.225
37.125 30.075 0.225
37.125 30.075 0.825
37.125 30.075 0.525
37.125 30.075 0.675
37.125 30.075 2.325
35.775 26.925 -4.125
37.125 26.175 -0.525
37.125 26.175 1.275
37.575 30.075 -0.225
37.575 26.175 5.175
39.075 27.225 0.525
39.075 27.225 0.375
36.975 30.075 1.125
36.975 30.075 0.825
36.975 30.075 -1.125
38.775 29.475 0.675
38.775 29.475 0.825
38.775 29.475 0.975
36.225 26.475 1.275
36.225 26.475 -0.225
37.725 30.075 -0.675
35.475 27.375 -3.525
39.225 28.725 -0.375
39.225 27.525 -0.075
39.225 27.525 0.675
38.925 29.325 0.975
38.925 29.325 -1.125
35.325 28.275 3.225
38.475 29.775 -0.675
36.825 26.175 -0.075
37.875 26.175 -0.075
35.325 27.675 -0.675
35.925 29.625 -0.975
35.775 29.475 -4.575
35.925 26.625 -0.225
39.375 28.125 -0.375
39.375 28.125 -0.075
39.375 28.125 0.675
39.375 28.125 0.225
35.775 26.775 -0.675
36.675 26.175 -0.075
38.325 29.925 1.575
38.325 29.925 -0.675
39.375 28.275 0.375
39.375 28.275 0.075
39.375 27.975 0.075
38.025 26.175 -0.075
38.025 26.175 1.725
35.625 29.325 -3.975
35.625 26.925 -0.225
35.325 27.525 0.525
35.325 27.525 -0.525
38.775 26.625 0.225
38.925 29.475 0.075
37.275 30.225 0.075
37.275 30.225 0.825
37.275 30.225 0.975
37.425 30.225 0.225
37.425 30.225 2.175
37.425 30.225 0.075
37.275 26.025 -0.675
37.425 26.025 -0.225
37.125 30.225 -0.975
37.125 30.225 1.125
39.225 27.225 0.675
37.125 26.025 1.125
37.125 26.025 -0.225
37.125 26.025 -0.075
37.575 30.225 1.275
39.075 29.325 0.375
36.975 30.225 0.975
36.975 30.225 0.375
39.075 26.925 -0.375
36.975 26.025 -0.675
38.175 26.175 -0.075
35.325 28.875 1.875
35.325 27.375 -0.075
35.325 27.375 -0.525
38.475 29.925 -0.675
37.725 30.225 -4.125
39.375 28.725 -0.225
39.375 27.525 0.075
37.725 26.025 0.075
37.725 26.025 -0.825
35.175 27.975 -1.425
35.775 26.625 0.375
35.775 26.625 0.525
36.825 26.025 -0.675
35.925 26.475 -0.225
35.925 26.475 -0.525
37.875 30.225 -0.375
35.625 26.775 -1.275
36.375 26.175 0.075
39.225 29.175 1.425
37.875 26.025 2.475
39.375 28.875 0.525
39.375 28.875 -0.375
39.375 28.875 -0.675
38.325 30.075 1.725
35.325 27.225 0.525
35.325 27.225 -3.825
36.675 26.025 -0.075
38.775 26.475 0.225
39.525 28.125 0.675
39.525 28.125 0.225
39.525 28.275 -0.675
39.525 28.275 0.375
39.525 28.275 0.075
39.525 28.275 -0.075
39.525 27.975 -0.675
39.075 26.775 0.525
38.025 26.025 0.375
38.625 29.925 -0.825
39.525 28.425 0.375
39.525 28.425 1.425
39.525 27.825 -0.375
38.625 26.325 0.225
35.175 27.525 0.225
36.225 26.175 1.425
36.225 26.175 -1.125
36.525 26.025 -0.075
39.525 27.675 0.225
39.225 26.925 -0.975
37.275 25.875 1.425
37.275 25.875 -0.975
37.275 25.875 -1.125
37.275 25.875 0.075
37.425 25.875 -0.975
37.125 30.375 -0.825
35.775 29.775 -1.275
37.125 25.875 -1.275
37.125 25.875 -0.825
37.125 25.875 -0.975
37.125 25.875 -0.525
37.125 25.875 -0.675
38.475 30.075 -0.525
35.775 26.475 1.725
35.775 26.475 -1.575
35.625 26.625 -5.625
37.575 25.875 -0.825
38.475 26.175 0.525
38.475 26.175 -0.075
38.475 26.175 0.075
38.175 26.025 -0.075
36.975 30.375 1.275
36.975 30.375 1.425
35.175 27.375 0.075
35.175 27.375 -0.975
36.975 25.875 -0.225
36.975 25.875 -0.675
36.975 25.875 0.525
36.975 25.875 -0.825
35.925 26.325 -1.275
35.925 26.325 -0.375
37.725 30.375 -0.375
39.525 28.725 -0.675
39.525 28.725 -0.225
39.525 28.725 -0.525
39.525 27.525 0.225
37.725 25.875 -0.075
37.725 25.875 0.075
37.725 25.875 1.125
37.725 25.875 -0.525
35.475 26.775 -0.525
38.925 29.775 0.975
38.925 29.775 -3.525
38.925 26.475 -0.675
39.375 29.175 0.075
39.075 29.625 -0.375
39.075 29.625 0.975
39.075 29.625 1.125
39.075 29.625 -0.825
36.375 26.025 -0.975
36.825 25.875 -0.075
36.825 25.875 -0.525
36.825 25.875 -0.225
36.825 25.875 0.375
36.825 25.875 -0.675
39.375 27.075 0.675
39.075 26.625 -0.225
39.075 26.625 1.125
39.075 26.625 -1.275
37.875 30.375 0.075
38.775 26.325 -0.525
36.075 26.175 0.075
36.075 26.175 1.275
37.875 25.875 -0.375
37.875 25.875 -1.125
39.525 28.875 0.075
39.525 28.875 0.375
39.525 28.875 -0.525
35.325 29.325 -1.725
35.325 29.325 -1.425
35.175 27.225 -0.525
35.175 27.225 -0.675
39.525 27.375 0.825
38.325 26.025 -0.375
35.325 26.925 -0.525
36.675 30.375 1.125
36.675 30.375 0.975
38.625 30.075 1.275
36.675 25.875 0.075
36.675 25.875 -0.075
36.675 25.875 -0.375
36.675 25.875 -0.225
38.625 26.175 -0.225
38.625 26.175 -0.375
39.675 28.125 0.375
39.675 28.125 0.225
38.025 30.375 0.375
39.675 28.275 0.825
39.675 28.275 -0.075
39.675 28.275 1.275
39.675 27.975 2.175
39.675 27.975 0.675
39.675 27.975 0.825
39.675 27.975 0.525
38.025 25.875 -0.375
35.625 26.475 -3.375
36.225 26.025 0.375
39.675 28.425 1.575
39.675 28.425 -0.075
39.675 28.425 0.525
35.025 27.525 -0.225
35.775 26.325 -0.225
39.375 29.325 -3.375
39.525 29.025 -0.375
39.375 26.925 -0.525
39.375 26.925 -0.825
35.475 26.625 0.225
36.525 25.875 0.525
36.525 25.875 -0.075
36.525 25.875 -0.225
38.475 30.225 -0.975
39.675 28.575 -0.375
39.675 27.675 0.225
39.675 27.675 0.375
39.675 27.675 -0.975
37.425 30.525 -0.075
35.925 26.175 -0.375
37.275 25.725 -0.675
37.275 25.725 5.475
37.275 25.725 -0.075
37.275 25.725 -0.375
39.075 29.775 -3.225
35.325 29.475 -1.725
35.325 29.475 -2.025
38.175 25.875 1.125
37.125 25.725 -0.675
35.025 27.375 -0.975
39.225 29.625 -0.525
39.225 26.625 -0.225
36.975 25.725 -0.525
36.975 25.725 -0.825
36.975 25.725 -0.375
36.975 25.725 -0.675
36.975 25.725 0.525
39.675 28.725 -0.525
39.675 28.725 -0.375
39.675 27.525 0.525
37.725 30.525 -0.225
38.775 26.175 -0.075
38.775 26.175 0.075
38.775 26.175 -0.225
37.725 25.725 0.675
36.375 25.875 0.075
36.375 25.875 -0.975
36.075 26.025 1.425
34.875 27.975 -1.275
36.825 25.725 -0.825
36.825 25.725 -0.225
36.825 25.725 -0.675
36.825 25.725 -0.525
35.175 29.325 -1.875
39.375 26.775 -0.225
35.175 26.925 -0.075
35.025 29.025 2.475
35.025 27.225 -0.825
35.025 27.225 -0.525
38.625 30.225 -0.225
38.625 30.225 -0.525
39.675 28.875 -0.075
38.625 26.025 -0.825
35.625 26.325 0.075
36.675 25.725 -0.225
36.675 25.725 0.375
36.675 25.725 -0.525
36.675 25.725 -0.675
35.325 29.625 -0.975
35.325 26.625 -0.525
35.325 26.625 0.075
39.825 28.125 1.125
39.825 28.125 1.575
39.825 28.125 0.975
38.025 25.725 0.075
36.225 25.875 -1.125
39.525 29.325 0.675
39.525 29.325 -0.375
39.825 28.275 0.375
39.825 28.275 -0.075
39.825 28.275 0.075
39.825 27.975 0.675
39.225 29.775 -0.675
39.675 29.025 0.075
34.875 27.525 -1.275
39.225 26.475 -0.825
39.825 28.425 0.375
39.825 28.425 0.975
39.825 28.425 0.675
38.925 30.075 1.125
38.925 30.075 2.175
35.025 27.075 0.375
35.025 27.075 0.675
38.925 26.175 -0.225
38.475 25.875 0.975
36.525 25.725 0.375
36.525 25.725 -0.225
39.375 29.625 1.575
39.375 29.625 -0.375
39.375 29.625 -1.425
39.375 29.625 -0.225
39.375 29.625 0.075
39.375 29.625 0.225
39.825 28.575 -0.225
38.175 30.525 -0.525
39.375 26.625 -0.375
38.175 25.725 0.075
38.775 30.225 -0.675
37.275 25.575 -0.975
37.275 25.575 2.625
37.275 25.575 -0.825
37.425 25.575 -0.825
37.425 25.575 -0.525
37.425 25.575 -0.225
38.775 26.025 -0.225
37.125 25.575 -0.825
37.575 25.575 -0.375
37.575 25.575 -0.825
39.825 28.725 0.225
36.075 25.875 1.725
36.075 25.875 -1.125
36.975 25.575 0.075
36.975 25.575 -0.825
39.675 27.075 0.675
35.475 26.325 0.375
35.475 26.325 -1.725
35.475 26.325 2.175
36.375 25.725 0.525
37.725 25.575 0.975
37.725 25.575 -0.975
35.625 26.175 -0.075
35.025 26.925 -3.675
38.625 30.375 -0.525
38.325 30.525 2.025
36.825 25.575 0.225
36.825 25.575 -0.825
36.825 25.575 -0.075
38.325 25.725 -0.225
37.875 25.575 -0.225
37.875 25.575 -0.825
39.825 28.875 1.575
35.175 26.625 -0.825
35.175 26.625 -5.325
39.225 26.325 0.375
39.375 29.775 0.075
39.375 29.775 1.125
36.675 25.575 0.225
36.675 25.575 0.375
36.675 25.575 -0.075
34.725 28.575 2.625
39.675 29.325 -0.375
38.025 25.575 0.225
39.975 28.125 0.675
39.975 28.275 1.125
35.025 29.475 -2.175
34.725 28.725 2.625
39.525 29.625 0.825
39.525 29.625 3.525
39.525 29.625 -0.075
39.525 29.625 -0.375
39.525 29.625 -0.225
35.025 26.775 -0.975
39.975 28.425 0.675
39.975 28.425 0.225
39.975 28.425 1.425
39.975 28.425 0.825
39.975 27.825 3.225
36.525 25.575 -0.075
36.525 25.575 0.225
38.775 30.375 -0.525
35.475 30.075 -2.025
35.475 26.175 -6.825
39.975 28.575 0.675
39.975 28.575 -0.375
39.975 28.575 1.575
39.975 27.675 3.225
35.625 26.025 -0.225
35.625 26.025 -0.375
35.625 26.025 -0.075
37.275 25.425 -0.075
37.425 25.425 -0.525
37.425 25.425 0.975
37.425 25.425 -0.675
37.425 25.425 -0.825
37.425 25.425 -0.375
35.175 26.475 0.525
39.675 29.475 0.375
37.575 25.425 -0.975
37.575 25.425 -0.375
39.975 28.725 0.675
39.975 28.725 3.525
36.375 25.575 -0.525
34.875 26.925 0.225
34.875 26.925 1.275
39.225 26.175 -0.075
37.725 25.425 -0.225
37.725 25.425 -0.375
38.625 25.725 0.075
38.625 25.725 0.975
35.025 26.625 0.975
39.525 29.775 -0.375
39.525 26.475 2.325
38.925 30.375 1.875
38.925 30.375 1.125
38.925 30.375 0.825
38.925 30.375 -0.825
39.825 29.325 -0.375
36.225 25.575 -0.525
39.675 29.625 0.225
39.675 29.625 -0.075
39.675 29.625 -0.525
34.875 29.475 0.975
38.025 25.425 0.825
34.875 26.775 0.225
38.475 30.675 -1.725
38.475 25.575 -0.075
34.725 27.075 -0.075
34.725 27.075 -1.125
38.775 30.525 -0.525
40.125 28.275 0.675
34.575 27.525 0.525
34.575 27.525 -0.975
35.625 30.375 -2.925
36.525 25.425 -0.825
35.625 25.875 -0.225
40.125 28.575 0.825
40.125 28.575 1.425
40.125 28.575 -0.225
39.825 29.475 -0.525
39.525 29.925 -2.625
39.525 29.925 0.225
39.525 29.925 -0.375
39.075 30.375 0.825
39.975 29.175 0.375
39.975 29.175 2.925
39.975 29.175 -0.375
37.275 25.275 0.075
37.425 25.275 -0.225
37.425 25.275 -0.375
37.425 25.275 -0.525
35.775 25.725 0.225
38.625 30.675 1.725
34.725 26.925 0.075
34.875 29.625 -2.175
39.675 29.775 1.725
39.675 29.775 -0.525
38.325 30.825 0.825
38.325 25.425 0.225
38.325 25.425 0.075
38.925 30.525 1.125
38.925 30.525 -0.525
38.925 30.525 2.175
38.925 30.525 2.025
34.575 29.025 2.325
34.575 27.225 -0.975
35.325 26.025 0.975
40.125 28.875 1.725
37.875 25.275 -0.075
37.875 25.275 -0.975
35.475 25.875 -0.075
39.825 29.625 -0.525
36.675 25.275 -0.675
34.725 26.775 0.075
38.025 30.975 0.975
38.475 30.825 0.825
39.375 26.025 0.075
34.575 27.075 -3.525
39.525 26.175 -0.075
39.225 30.375 1.875
34.875 29.775 -2.325
40.275 27.975 -0.075
39.675 29.925 2.625
39.675 29.925 1.875
39.075 30.525 -2.925
39.075 30.525 2.025
39.075 30.525 1.725
39.075 30.525 0.525
39.075 30.525 0.225
39.075 30.525 1.275
38.175 30.975 0.675
39.075 25.725 0.825
39.975 29.475 0.675
38.625 30.825 1.575
39.825 29.775 0.075
34.725 26.625 0.375
34.725 26.625 0.225
36.375 30.975 2.775
37.275 25.125 -0.375
35.175 26.025 -0.075
36.375 25.275 -0.825
37.125 25.125 -0.075
37.125 25.125 -0.225
35.025 26.175 -3.825
38.925 25.575 0.375
38.325 30.975 0.675
34.875 29.925 -2.625
34.875 26.325 0.225
40.275 28.875 1.275
39.975 29.625 -0.675
39.975 29.625 -0.525
39.375 25.875 3.525
40.125 29.325 0.375
37.875 25.125 0.075
37.875 25.125 1.125
39.675 26.175 0.075
39.225 30.525 -1.125
34.575 26.775 0.825
34.575 26.775 -0.825
38.775 30.825 1.575
38.775 25.425 0.075
38.775 25.425 0.225
34.725 26.475 0.075
40.275 29.025 1.875
40.275 27.225 -0.375
40.275 27.225 2.325
39.075 30.675 -0.525
39.075 30.675 0.375
39.075 30.675 2.025
39.075 30.675 0.225
39.075 30.675 0.675
39.075 25.575 0.225
40.425 28.125 0.825
35.175 30.375 -5.025
35.175 25.875 -0.225
35.175 25.875 -0.525
35.025 26.025 2.625
38.175 31.125 0.825
38.175 31.125 0.675
39.975 29.775 -0.375
35.325 25.725 1.275
34.575 26.625 0.075
40.275 29.175 2.175
40.425 28.575 0.675
40.275 27.075 0.975
34.425 26.925 -0.375
34.425 26.925 0.525
38.625 25.275 0.525
38.625 25.275 0.075
38.925 25.425 -0.375
39.525 25.875 -0.075
37.275 24.975 -0.375
37.275 24.975 -0.525
37.425 24.975 1.575
37.425 24.975 2.325
37.125 24.975 -0.225
40.425 28.725 1.125
38.325 31.125 0.675
38.325 31.125 -0.075
34.725 26.325 -5.925
39.375 25.725 -1.275
39.375 25.725 0.525
39.825 30.075 3.675
39.825 30.075 4.275
36.975 24.975 0.975
37.725 24.975 3.075
39.225 30.675 1.725
40.425 28.875 1.725
38.775 30.975 1.725
34.125 27.975 3.825
37.875 24.975 1.875
34.575 29.775 0.375
34.575 26.475 0.075
34.125 27.825 0.825
38.475 31.125 -0.825
35.025 25.875 -0.225
35.025 25.875 -0.075
39.075 30.825 1.425
39.075 30.825 -0.525
34.275 29.175 2.175
35.175 25.725 -0.225
35.175 25.725 -0.525
35.175 25.725 1.275
40.425 27.225 -0.225
40.425 27.225 0.975
35.325 25.575 0.075
35.325 25.575 0.225
40.275 29.475 -1.125
40.575 27.975 2.325
39.525 25.725 0.225
39.525 25.725 3.675
38.175 31.275 0.825
39.825 30.225 -2.175
39.375 30.675 -0.975
39.375 30.675 -1.125
38.625 25.125 -3.675
40.425 29.175 1.875
39.375 25.575 -1.275
40.425 27.075 0.075
40.575 28.575 0.675
40.575 27.675 0.525
39.975 30.075 1.125
39.975 26.175 -1.425
39.225 30.825 -0.075
39.225 30.825 -0.525
37.275 24.825 -0.375
38.325 31.275 0.075
38.325 31.275 0.225
38.325 31.275 0.675
38.325 31.275 0.825
39.225 25.425 5.325
37.125 24.825 0.225
35.925 25.125 -1.425
37.575 24.825 3.675
37.575 24.825 3.075
37.575 24.825 -0.225
37.575 24.825 2.025
36.975 24.825 -0.225
35.025 25.725 -0.225
34.875 25.875 0.525
40.425 29.325 2.325
40.125 29.925 3.225
38.775 31.125 -0.825
40.125 26.325 -4.425
36.825 31.425 1.725
34.425 26.475 -0.375
34.425 26.475 -0.075
35.175 25.575 -0.375
35.175 25.575 1.275
40.575 28.875 1.875
36.825 24.825 0.375
39.075 30.975 1.275
39.075 30.975 1.725
39.075 25.275 0.375
37.875 24.825 0.375
38.475 31.275 0.075
35.325 25.425 0.075
39.675 25.725 0.375
36.675 24.825 -0.375
36.675 24.825 0.225
39.525 30.675 -1.125
39.825 25.875 2.325
39.825 25.875 1.425
40.575 29.025 0.825
40.575 29.025 -5.775
39.975 30.225 1.275
40.425 26.775 -0.225
40.425 26.775 -0.375
39.975 26.025 0.375
39.375 30.825 -0.975
36.075 24.975 -0.375
36.525 31.425 3.675
40.725 28.125 0.225
40.725 28.125 2.175
38.175 31.425 1.125
38.175 31.425 0.075
38.175 31.425 0.825
38.175 31.425 0.225
38.175 31.425 0.975
38.625 31.275 -0.675
40.725 27.975 0.675
34.425 26.325 -0.075
38.625 24.975 -3.825
40.125 30.075 0.675
40.725 28.425 0.675
40.125 26.175 -0.225
40.575 29.175 1.725
40.575 29.175 0.675
34.875 25.725 0.975
40.725 28.575 0.675
35.025 25.575 -2.175
35.025 25.575 -0.225
40.725 27.675 0.675
40.425 29.625 1.275
40.425 29.625 -5.625
40.425 29.625 -1.125
40.425 29.625 0.375
38.325 31.425 0.975
38.325 31.425 0.675
38.325 31.425 0.825
35.175 30.825 4.275
40.425 26.625 -0.375
38.325 24.825 0.975
37.125 31.575 1.725
37.425 24.675 -0.075
37.125 24.675 0.375
36.975 31.575 1.575
38.775 31.275 -0.675
40.575 29.325 1.425
40.575 26.925 0.975
38.775 24.975 -3.825
39.075 31.125 1.125
39.075 25.125 -3.525
39.525 30.825 -0.975
40.725 28.875 -0.375
36.825 24.675 -0.225
38.475 31.425 0.225
38.475 31.425 0.075
38.475 24.825 0.075
40.125 26.025 3.525
40.125 26.025 1.575
33.975 29.175 2.475
39.375 30.975 -0.075
40.725 29.025 1.575
40.725 27.225 0.675
40.725 27.225 -0.525
40.725 27.225 -0.225
40.575 29.475 0.675
40.575 29.475 1.275
40.575 29.475 2.175
40.575 29.475 2.025
36.075 24.825 -1.725
38.925 31.275 0.675
40.275 30.075 4.425
40.275 30.075 0.675
38.625 31.425 1.425
38.625 31.425 -0.675
35.025 25.425 -0.075
39.225 31.125 1.275
39.225 31.125 -0.825
39.225 31.125 1.425
34.575 25.875 -0.525
34.575 25.875 -0.375
40.875 28.125 0.225
40.875 27.975 0.525
40.725 29.175 1.875
40.725 29.175 3.975
40.725 27.075 -0.075
40.725 27.075 0.825
40.875 28.425 -0.225
39.825 30.675 0.675
34.425 26.025 -2.175
34.425 26.025 -1.125
39.675 30.825 -1.125
40.575 29.625 -1.125
40.575 29.625 -0.675
40.875 27.675 0.225
40.875 27.675 -0.375
40.875 27.675 -0.225
40.575 26.625 -0.975
40.575 26.625 -0.525
40.575 26.625 0.675
35.925 24.825 -0.375
40.425 29.925 2.925
40.425 29.925 2.025
40.425 29.925 0.825
40.425 26.325 2.925
38.325 31.575 0.975
40.125 30.375 2.775
34.125 29.775 -2.625
38.325 24.675 2.925
38.325 24.675 0.525
34.125 26.475 -0.075
34.125 26.475 -1.875
39.525 30.975 -3.525
39.525 30.975 0.675
39.525 30.975 5.775
37.275 24.525 -0.225
37.275 24.525 -0.075
40.875 28.725 0.075
40.875 28.725 -3.225
40.875 28.725 0.975
40.725 29.325 0.825
40.725 29.325 0.525
37.125 24.525 -0.075
40.725 26.925 2.025
40.725 26.925 1.275
37.575 24.525 0.225
36.975 31.725 2.175
36.975 31.725 1.725
36.225 24.675 -2.025
36.225 24.675 -0.525
40.875 28.875 -5.325
40.875 28.875 -0.075
40.875 27.375 0.525
40.875 27.375 -0.375
38.475 31.575 0.375
36.825 24.525 0.075
36.825 24.525 0.975
36.825 24.525 -0.525
36.825 24.525 -0.675
40.575 29.775 2.025
34.575 25.725 -0.975
34.575 25.725 -0.375
36.675 24.525 0.075
36.675 24.525 3.225
36.675 24.525 -0.975
40.725 29.475 4.425
40.725 29.475 4.125
40.725 29.475 4.275
40.425 30.075 0.975
34.425 25.875 -5.025
34.425 25.875 -1.125
36.075 24.675 -0.525
36.075 24.675 0.825
38.025 24.525 3.675
39.225 31.275 1.125
39.975 30.675 -0.075
38.625 31.575 0.075
38.625 31.575 -0.375
40.125 30.525 1.125
40.125 30.525 0.975
39.675 30.975 -1.125
39.675 30.975 0.525
34.275 26.025 -0.075
41.025 28.125 0.525
40.875 29.175 -5.025
40.875 29.175 1.875
40.875 29.175 -3.975
40.875 27.075 -0.075
40.275 30.375 0.825
40.275 30.375 3.675
41.025 27.825 -0.225
40.575 29.925 1.425
41.025 28.575 1.125
41.025 28.575 0.075
41.025 28.575 -0.525
41.025 28.575 5.325
41.025 28.575 -1.275
41.025 27.675 -0.225
35.325 24.975 -2.175
33.975 26.475 -0.375
38.325 31.725 0.675
38.775 31.575 -0.525
34.125 26.175 0.375
34.125 26.175 -0.375
40.425 30.225 0.975
40.425 30.225 2.775
40.425 30.225 2.175
40.425 30.225 0.375
40.425 30.225 0.225
40.425 30.225 0.675
34.725 25.425 0.375
34.575 25.575 -0.525
40.875 29.325 0.825
37.425 24.375 0.075
37.425 24.375 0.375
39.375 31.275 1.725
37.125 24.375 -0.375
34.875 25.275 -0.075
34.875 25.275 0.225
34.875 25.275 -0.225
36.975 31.875 1.575
36.975 31.875 1.425
36.975 24.375 0.075
38.475 31.725 0.075
41.025 27.375 -0.525
40.725 29.775 2.925
40.725 29.775 1.125
35.475 24.825 -1.275
36.825 24.375 -0.825
36.825 24.375 0.075
36.825 24.375 0.225
40.125 30.675 -0.975
39.825 30.975 -1.125
40.575 30.075 1.875
40.575 30.075 -1.425
40.575 30.075 0.225
33.975 29.925 2.475
40.875 29.475 -0.225
40.875 29.475 1.425
38.925 31.575 0.225
36.675 31.875 1.725
40.875 26.775 0.675
40.275 30.525 3.975
39.225 31.425 -1.875
39.675 31.125 0.825
36.075 24.525 -0.975
36.075 24.525 -0.225
38.025 31.875 2.175
33.525 27.675 0.225
34.125 26.025 0.225
34.125 26.025 -4.575
40.425 30.375 0.075
40.425 30.375 3.675
40.425 30.375 0.825
36.525 24.375 0.075
36.525 24.375 5.775
39.525 31.275 1.725
40.725 29.925 1.575
40.725 29.925 4.425
40.725 29.925 1.425
41.025 27.075 -0.525
34.725 30.975 -3.075
34.575 25.425 -0.825
34.575 25.425 -0.525
41.175 28.125 0.825
41.175 28.125 0.375
41.175 28.125 0.525
40.875 29.625 -5.025
40.875 29.625 2.025
40.875 29.625 -0.075
41.175 28.275 0.675
41.175 28.275 -1.575
41.175 27.975 1.725
41.175 27.975 1.575
34.725 25.275 -0.525
35.325 24.825 0.825
35.925 24.525 -0.525
41.175 28.425 2.175
41.175 27.825 2.175
41.175 27.825 0.975
36.375 24.375 0.825
36.375 24.375 -0.675
40.575 30.225 0.225
40.575 30.225 3.975
40.575 30.225 2.025
38.325 31.875 0.075
41.175 28.575 2.025
38.775 31.725 -0.225
34.275 25.725 -0.675
34.275 25.725 -0.225
38.775 24.525 3.075
39.975 30.975 -1.725
39.975 30.975 -3.075
40.275 30.675 -0.675
41.175 27.525 1.125
41.175 27.525 -0.225
37.275 24.225 0.075
39.825 31.125 -1.425
36.225 24.375 -0.825
37.575 24.225 2.475
35.475 24.675 -2.175
40.875 29.775 -0.525
40.875 29.775 2.325
40.875 29.775 -0.675
40.875 29.775 0.975
36.975 24.225 -3.075
35.775 24.525 -1.125
40.725 30.075 0.375
40.425 30.525 -0.525
40.425 30.525 0.225
39.675 31.275 0.225
37.875 32.025 -5.625
38.925 31.725 0.075
41.025 29.475 0.075
40.575 30.375 0.225
36.075 24.375 -0.525
36.075 24.375 -0.225
36.075 24.375 -0.075
41.175 29.025 1.125
34.575 25.275 -0.525
33.375 27.675 -0.075
34.275 25.575 -0.675
35.625 24.525 -0.675
40.875 29.925 1.575
40.875 29.925 -0.825
36.525 24.225 -0.375
34.875 24.975 -2.175
33.375 27.525 -0.375
33.375 27.525 0.225
41.025 29.625 -3.675
40.725 30.225 1.275
40.725 30.225 2.925
40.725 30.225 3.225
40.725 30.225 -2.175
40.275 30.825 -0.225
40.275 30.825 0.975
41.325 28.125 0.675
41.325 28.125 0.225
35.925 24.375 0.075
35.925 24.375 -1.125
35.925 24.375 -2.325
41.325 28.275 0.825
40.425 30.675 -0.675
40.425 30.675 0.375
36.375 24.225 -0.225
36.375 24.225 0.525
36.375 24.225 -1.125
39.825 31.275 0.825
39.825 31.275 4.275
41.325 28.575 5.175
38.325 24.225 -1.875
33.975 25.875 -0.375
37.275 32.175 2.325
40.875 30.075 3.375
37.275 24.075 0.225
41.025 29.775 -5.175
41.025 29.775 4.275
41.025 29.775 3.225
41.025 29.775 -0.525
36.225 24.225 -0.375
36.225 24.225 0.675
36.225 24.225 -1.125
37.425 24.075 0.225
39.675 24.825 4.125
35.775 24.375 -0.225
35.775 24.375 0.075
35.775 24.375 -0.375
34.425 25.275 -3.075
36.975 24.075 3.225
34.575 25.125 0.225
34.575 25.125 0.075
37.725 24.075 -0.075
38.925 31.875 -0.075
36.075 24.225 0.075
36.075 24.225 -0.975
36.075 24.225 -0.075
40.275 30.975 3.825
40.275 30.975 0.975
40.275 30.975 0.825
41.325 29.025 3.975
39.975 31.275 0.825
41.025 29.925 1.575
41.025 29.925 -0.975
35.625 24.375 0.075
35.625 24.375 -0.225
35.625 24.375 -1.275
33.975 25.725 -0.375
40.875 30.225 3.525
40.875 30.225 1.125
40.875 30.225 1.275
40.875 30.225 2.775
40.875 30.225 2.625
36.525 24.075 -0.975
40.575 30.675 -0.675
41.175 29.625 -5.175
39.075 31.875 2.175
33.525 29.775 2.925
39.825 31.425 1.575
35.925 24.225 -0.525
35.925 24.225 -0.225
35.025 24.675 0.375
35.025 24.675 -2.325
33.825 30.375 0.675
33.825 30.375 -0.675
36.375 32.175 -1.575
41.475 28.275 0.375
41.475 27.975 0.525
41.475 27.975 0.675
41.475 27.975 0.225
41.475 28.425 0.675
33.225 27.375 0.075
33.225 27.375 -0.075
33.375 26.775 1.275
34.425 25.125 0.525
34.275 25.275 -0.675
34.275 25.275 -2.775
39.675 31.575 1.725
38.325 24.075 -4.875
41.475 28.575 0.375
41.325 29.325 1.575
41.325 29.325 1.725
41.325 26.925 1.875
34.575 24.975 -0.075
35.475 24.375 0.675
34.125 25.425 -0.675
34.125 25.425 -2.475
41.475 28.725 0.675
37.275 32.325 1.725
37.275 32.325 2.025
36.225 24.075 -0.075
40.875 30.375 -1.725
33.675 30.225 0.975
37.125 23.925 0.225
40.425 30.975 0.375
40.425 30.975 -0.375
40.125 31.275 0.825
40.125 31.275 1.575
39.525 31.725 1.575
37.725 23.925 -0.075
37.725 23.925 0.525
41.325 29.475 -2.325
41.325 26.775 2.775
40.575 30.825 0.075
40.575 30.825 -1.125
40.575 30.825 1.275
39.975 31.425 1.725
33.825 30.525 -0.525
37.875 23.925 -0.075
36.075 24.075 0.075
41.475 27.225 2.775
40.725 30.675 0.975
40.725 30.675 1.125
40.725 30.675 0.375
40.725 30.675 -0.525
40.725 30.675 0.225
41.175 29.925 -4.425
35.625 24.225 0.075
41.025 30.225 3.375
41.025 26.025 2.775
39.825 31.575 1.125
38.025 23.925 0.075
33.525 26.175 -3.825
35.025 24.525 0.975
39.075 32.025 0.075
41.325 26.625 1.725
34.275 25.125 -0.675
34.425 24.975 -0.225
34.425 24.975 -0.075
41.475 29.175 -0.675
34.125 25.275 0.975
40.875 30.525 0.375
40.875 30.525 1.125
40.875 30.525 2.025
35.925 24.075 1.275
35.925 24.075 0.825
35.925 24.075 0.975
35.925 24.075 -0.075
35.925 24.075 -0.525
35.925 24.075 0.075
39.675 31.725 1.425
39.675 31.725 0.225
33.975 25.425 -3.225
41.625 28.125 0.525
41.625 28.125 -0.075
41.625 28.275 0.525
36.375 23.925 3.525
36.375 23.925 -0.975
41.625 28.425 0.075
40.425 31.125 -0.225
40.275 31.275 -1.425
40.275 31.275 0.825
35.475 24.225 0.075
35.475 24.225 -0.225
38.325 23.925 -4.425
41.475 29.325 -1.725
35.175 24.375 2.775
40.575 30.975 0.375
41.625 28.575 0.075
41.325 29.775 3.075
41.025 30.375 3.075
41.025 30.375 1.275
41.025 30.375 2.175
35.775 24.075 0.975
35.775 24.075 -0.075
35.775 24.075 1.875
33.075 29.025 0.075
33.075 27.225 -0.225
40.725 30.825 -0.675
40.725 30.825 -0.075
40.725 30.825 2.325
40.725 30.825 1.725
36.225 23.925 0.225
36.225 23.925 1.125
41.625 28.725 0.375
41.625 28.725 1.725
41.625 28.725 0.225
39.975 31.575 1.725
37.125 23.775 0.075
36.975 32.475 1.125
41.475 29.475 2.025
33.675 25.725 -0.525
40.875 30.675 2.925
40.875 30.675 -0.525
40.875 30.675 -1.425
40.875 30.675 1.275
40.875 30.675 2.025
36.825 32.475 2.175
36.825 32.475 2.025
39.825 31.725 1.575
39.825 31.725 1.275
39.825 31.725 -0.225
36.075 23.925 1.575
36.075 23.925 -2.775
36.075 23.925 1.425
36.075 23.925 -0.075
36.075 23.925 0.225
36.075 23.925 0.375
35.325 24.225 -2.175
34.275 24.975 -0.675
34.275 24.975 -0.975
34.275 24.975 0.675
41.175 30.225 2.475
41.175 30.225 2.775
41.325 29.925 0.225
35.625 24.075 -0.225
35.625 24.075 -0.075
41.625 29.025 5.025
35.025 24.375 1.425
35.025 24.375 -2.025
33.525 30.375 1.125
41.025 30.525 3.975
41.025 30.525 2.625
33.075 26.925 0.375
33.825 25.425 -2.775
40.425 31.275 0.825
40.425 31.275 0.375
40.425 31.275 -0.975
40.425 31.275 -0.375
40.575 31.125 -0.675
40.575 31.125 0.375
39.675 31.875 1.125
36.525 23.775 -0.375
40.275 31.425 0.525
35.925 23.925 -0.525
35.925 23.925 0.375
35.925 23.925 1.125
41.625 29.175 4.125
40.725 30.975 2.175
40.725 30.975 -1.125
40.125 31.575 0.075
40.125 31.575 -2.025
33.675 25.575 1.875
33.675 25.575 1.575
41.325 30.075 1.425
35.475 24.075 -0.375
41.775 28.125 0.075
41.775 28.125 0.525
35.175 24.225 -1.125
36.375 23.775 -3.225
33.075 29.475 -5.325
41.775 28.275 0.975
41.775 27.975 0.525
41.175 30.375 1.125
41.175 30.375 1.425
41.175 30.375 1.275
41.175 30.375 -1.725
41.175 30.375 3.075
40.875 30.825 -0.975
40.875 30.825 -0.825
40.875 30.825 1.425
41.625 26.925 2.475
39.975 31.725 -0.225
39.975 31.725 1.125
41.775 28.575 0.825
41.775 28.575 0.675
41.775 28.575 0.075
39.525 32.025 2.325
39.525 32.025 2.175
35.775 23.925 -0.525
36.225 23.775 -2.175
36.225 23.775 0.825
34.275 24.825 1.425
34.275 24.825 -0.675
34.275 24.825 -0.825
34.275 24.825 0.975
41.025 30.675 3.075
41.025 30.675 2.025
41.025 30.675 -0.525
37.275 32.625 2.775
37.125 32.625 1.725
39.825 31.875 3.975
33.825 25.275 -4.725
37.725 32.625 1.275
41.775 28.875 -0.075
41.775 28.875 4.275
41.775 28.875 0.825
41.325 30.225 1.275
41.325 30.225 1.425
41.475 29.925 0.225
40.575 31.275 1.125
40.575 31.275 0.975
36.075 23.775 0.675
36.075 23.775 0.825
36.075 23.775 -0.075
36.075 23.775 0.225
36.075 23.775 1.125
40.425 31.425 0.675
36.825 23.625 0.075
34.575 24.525 -1.875
40.725 31.125 -1.275
33.225 26.175 -5.025
33.225 26.175 -0.825
41.175 30.525 2.325
33.675 25.425 -3.825
40.275 31.575 1.125
41.775 29.025 0.975
36.675 23.625 0.225
36.675 23.625 -1.275
40.875 30.975 1.575
40.125 31.725 1.125
40.125 31.725 1.725
40.125 31.725 -0.375
34.725 24.375 0.675
35.925 23.775 1.275
35.925 23.775 -3.075
35.925 23.775 0.975
35.925 23.775 -0.075
35.925 23.775 1.125
33.525 25.575 0.375
33.525 25.575 0.225
33.525 25.575 -0.225
41.775 29.175 -4.875
41.025 30.825 1.425
41.025 30.825 -0.975
41.025 30.825 3.225
32.775 27.525 -0.825
35.475 23.925 1.875
35.475 23.925 -1.275
39.975 31.875 -0.225
34.125 24.825 -0.525
33.975 24.975 1.275
36.375 23.625 0.225
36.375 23.625 -1.575
34.275 24.675 2.775
34.875 24.225 -1.425
41.625 29.775 0.075
41.625 29.775 2.925
32.775 27.375 0.375
41.925 28.425 0.825
38.325 23.625 -0.225
35.775 23.775 -0.225
41.175 30.675 -5.625
33.375 25.725 0.525
33.375 25.725 -0.225
34.425 24.525 -1.725
34.425 24.525 1.125
33.675 25.275 -0.375
40.575 31.425 2.025
40.725 31.275 0.525
41.925 28.725 0.075
37.425 32.775 1.725
37.425 32.775 2.175
38.475 23.625 -0.975
40.875 31.125 -1.275
40.875 31.125 1.425
40.875 31.125 1.575
37.125 32.775 2.025
41.475 30.225 1.275
41.475 30.225 2.025
41.475 30.225 3.225
40.275 31.725 0.825
35.025 24.075 -1.725
33.525 25.425 0.225
33.525 25.425 -0.375
33.525 25.425 -0.225
36.975 23.475 0.075
41.325 30.525 2.325
41.325 30.525 2.625
32.775 27.075 -0.225
41.025 30.975 -0.075
41.025 30.975 -1.275
35.625 23.775 2.025
40.125 31.875 -0.075
40.125 24.375 3.525
34.725 24.225 -1.275
34.725 24.225 -1.125
33.375 25.575 -0.375
33.375 25.575 -0.225
33.375 25.575 2.475
33.975 24.825 -0.675
32.625 27.825 0.525
35.925 23.625 0.825
39.975 32.025 2.025
39.975 32.025 0.225
35.175 23.925 0.675
36.525 23.475 0.675
41.475 30.375 -2.325
41.475 30.375 1.875
33.675 25.125 -0.075
41.625 30.075 -0.375
41.625 30.075 1.125
35.475 23.775 -4.125
38.775 23.625 3.225
40.725 31.425 3.525
41.775 29.775 -1.125
33.525 25.275 -0.075
33.525 25.275 -0.375
33.225 25.725 -0.225
42.075 28.275 0.675
39.825 32.175 1.875
35.775 23.625 1.425
42.075 28.425 1.275
41.025 31.125 -0.375
41.025 31.125 -0.675
41.025 31.125 0.225
41.025 31.125 -0.075
40.275 31.875 1.575
36.225 23.475 -3.525
33.375 25.425 -0.225
41.625 30.225 -0.375
41.625 30.225 -2.325
41.625 30.225 2.175
35.325 23.775 -2.475
35.025 23.925 2.325
42.075 28.725 -0.825
42.075 28.725 0.975
40.125 32.025 2.175
40.125 32.025 2.025
40.125 32.025 1.275
40.125 32.025 -0.225
37.125 32.925 2.175
33.975 24.675 -0.675
37.575 23.325 -2.775
33.825 24.825 2.775
33.825 24.825 2.625
33.825 24.825 1.125
34.725 24.075 -0.675
34.125 24.525 -0.225
34.125 24.525 -0.075
37.725 23.325 -1.575
41.325 30.825 4.275
36.825 23.325 0.225
33.525 25.125 -2.325
32.475 27.975 1.125
41.625 30.375 1.725
35.925 23.475 -3.675
35.925 23.475 3.825
41.025 31.275 0.075
41.025 31.275 -1.575
34.875 23.925 -2.625
33.375 25.275 -0.225
41.475 30.675 -1.425
41.475 30.675 2.475
33.075 25.725 0.375
41.175 31.125 0.075
41.175 31.125 -0.075
32.475 28.725 0.075
32.625 26.775 -1.725
41.925 29.775 -0.525
41.925 26.475 0.225
34.575 24.075 1.725
35.775 23.475 0.975
33.225 25.425 0.525
33.825 24.675 2.625
33.975 24.525 -0.525
33.975 24.525 -2.175
33.675 24.825 0.525
35.025 23.775 0.525
35.025 23.775 0.825
35.025 23.775 0.675
41.775 30.225 -3.375
40.125 32.175 2.175
42.225 28.575 -0.075
34.125 24.375 0.225
42.225 28.725 1.725
42.225 28.725 1.275
41.925 29.925 3.525
35.625 23.475 1.425
33.075 25.575 0.525
33.375 25.125 0.675
33.375 25.125 -0.225
36.075 23.325 -0.525
36.975 23.175 -0.075
39.975 32.325 2.325
39.975 32.325 1.875
39.975 32.325 1.425
41.175 31.275 -0.075
41.175 31.275 0.225
34.425 24.075 -2.175
40.425 32.025 -0.375
42.075 29.625 4.125
35.175 23.625 -2.475
41.775 30.375 3.675
41.775 30.375 -2.925
41.775 30.375 -4.125
33.225 25.275 1.275
33.225 25.275 1.425
33.225 25.275 0.525
33.225 25.275 0.825
33.225 25.275 -0.375
41.925 30.075 -2.025
41.625 30.675 1.275
41.325 25.125 1.575
41.325 25.125 1.275
32.925 25.725 -0.075
40.275 32.175 1.425
40.275 32.175 -0.075
33.975 24.375 -0.525
33.975 24.375 -0.825
32.475 26.775 -0.975
33.075 25.425 1.425
36.375 23.175 1.125
38.325 33.075 1.425
42.375 28.275 2.025
34.275 24.075 1.575
34.275 24.075 -1.575
41.175 31.425 1.125
40.575 32.025 5.775
41.625 30.825 1.875
33.225 25.125 -0.075
38.475 33.075 2.325
41.625 25.425 0.525
32.925 25.575 0.525
42.225 26.775 0.675
41.325 31.275 3.825
34.425 23.925 -3.525
37.125 23.025 0.525
42.375 28.875 4.125
33.075 25.275 1.425
38.625 33.075 1.725
34.875 23.625 0.675
36.825 23.025 -3.525
36.825 23.025 -3.075
36.825 23.025 -1.275
36.825 23.025 -0.975
37.875 33.225 1.275
33.825 24.375 -0.525
41.775 30.675 -1.275
41.775 30.675 0.975
41.775 30.675 3.675
41.775 30.675 1.425
40.275 32.325 1.425
42.375 29.025 0.825
33.975 24.225 -0.525
36.675 23.025 -1.275
35.925 23.175 -5.625
34.575 23.775 1.875
34.575 23.775 -1.425
41.625 30.975 2.625
32.925 25.425 1.275
32.925 25.425 1.425
32.925 25.425 0.525
42.375 29.175 4.875
41.025 31.725 1.125
36.525 23.025 0.225
36.525 23.025 -3.675
33.225 24.975 2.775
42.225 26.475 2.025
41.325 31.425 -1.275
36.375 23.025 1.575
41.925 30.525 0.975
40.575 32.175 1.575
42.375 29.325 -0.975
42.375 29.325 4.875
38.325 33.225 2.475
42.075 30.225 4.875
42.075 26.025 1.125
42.525 28.125 4.575
41.775 30.825 0.525
41.775 30.825 2.025
42.525 28.425 4.725
32.775 25.575 2.325
40.425 32.325 1.725
40.425 32.325 -0.375
42.525 28.575 4.575
42.525 28.575 2.175
42.525 28.575 4.725
34.425 23.775 0.375
34.425 23.775 0.825
34.425 23.775 2.325
33.675 24.375 -2.175
35.625 23.175 -0.375
35.625 23.175 -4.275
33.825 24.225 0.075
33.825 24.225 -0.525
32.925 25.275 0.375
32.925 25.275 -0.825
32.925 25.275 1.275
33.375 24.675 -2.025
41.625 31.125 2.775
40.275 32.475 1.575
40.275 32.475 0.075
33.975 24.075 -0.075
35.175 23.325 -2.025
41.925 30.675 -3.225
41.925 30.675 0.075
33.225 24.825 2.775
36.975 22.875 0.525
34.575 23.625 -1.575
36.825 22.875 -3.825
42.225 26.175 1.425
34.125 23.925 -1.575
41.775 30.975 1.125
40.725 32.175 1.425
36.675 22.875 -3.075
40.725 24.075 0.675
42.525 29.175 0.675
42.525 29.175 5.025
42.525 29.175 4.575
42.375 29.775 0.375
42.075 30.525 0.825
42.075 30.525 -3.525
41.625 31.275 2.475
35.775 23.025 -0.525
41.925 30.825 0.375
41.925 30.825 2.025
41.925 30.825 0.525
42.225 26.025 0.675
41.925 25.425 1.725
42.525 29.325 -0.375
32.625 25.575 2.175
33.825 24.075 -0.525
42.675 28.425 4.875
42.375 26.325 1.725
41.775 25.125 0.375
41.025 32.025 0.975
41.025 32.025 1.125
42.525 26.775 2.325
41.325 31.725 0.075
41.325 24.525 0.975
41.475 31.575 -1.425
35.175 23.175 -0.075
32.025 27.075 -0.675
34.125 23.775 -1.575
34.575 23.475 -2.175
34.575 23.475 -1.425
40.725 32.325 1.275
40.725 32.325 1.425
32.175 26.475 1.425
37.125 22.725 -3.075
41.925 30.975 1.275
36.975 22.725 -3.225
42.375 30.075 -1.725
42.375 26.175 0.825
41.625 31.425 1.275
36.825 22.725 -3.225
40.575 32.475 -0.225
34.275 23.625 -0.075
33.525 24.225 -2.625
32.775 25.125 1.275
38.025 22.725 -0.375
33.675 24.075 -0.375
41.775 31.275 3.825
34.725 23.325 -2.325
40.425 32.625 1.575
