# .PCD v0.7 - Point Cloud Data file format
VERSION 0.7
FIELDS x y z
SIZE 4 4 4
TYPE F F F
COUNT 1 1 1
WIDTH 2048
HEIGHT 1
VIEWPOINT 0 0 0 1 0 0 0
POINTS 2048
DATA ascii
-0.975 -67.275 1.425
-0.975 -67.425 1.725
-0.975 -67.125 1.425
-0.975 -67.125 2.025
-0.825 -67.575 1.425
-1.125 -67.275 2.025
-1.125 -67.275 1.875
-0.975 -67.575 0.375
-0.975 -67.575 1.425
-0.975 -66.975 2.025
-1.125 -67.575 0.675
-1.125 -66.975 1.875
-1.275 -67.275 -0.225
-1.275 -67.425 0.375
-1.275 -67.125 1.875
-0.975 -66.825 1.275
-1.125 -67.725 0.225
-0.375 -67.575 3.675
-1.275 -67.575 0.375
-1.125 -66.825 0.525
-1.275 -66.975 1.725
-1.275 -66.975 1.575
-1.275 -66.975 0.825
-1.275 -66.975 0.525
-1.275 -66.975 0.375
-1.275 -66.975 -0.375
-0.825 -66.675 1.425
-0.975 -67.875 1.275
-0.975 -67.875 1.425
-1.425 -67.125 1.725
-0.675 -66.675 0.975
-1.275 -66.825 0.525
-1.275 -66.825 -0.225
-1.425 -66.975 1.725
-1.275 -67.875 1.275
-1.425 -66.825 1.725
-0.975 -66.525 1.425
-0.675 -66.525 1.875
-1.425 -66.675 0.525
-1.275 -68.025 1.125
-0.825 -68.175 1.425
-0.825 -66.375 1.725
-0.825 -66.375 0.525
-0.975 -66.375 1.425
-1.125 -68.175 1.275
-1.725 -67.575 -0.075
-1.725 -67.575 1.575
-1.725 -66.975 0.075
-0.075 -67.875 -0.075
-0.075 -67.875 0.375
-1.275 -68.175 1.275
-1.725 -67.725 -0.075
-1.725 -67.725 0.675
-1.875 -67.275 0.825
-0.975 -68.325 1.425
-1.875 -67.425 0.675
-1.875 -67.125 0.675
0.075 -67.875 -0.225
-1.725 -66.675 0.225
-1.725 -66.675 1.425
-1.125 -68.325 1.425
-1.875 -66.975 0.075
-1.875 -67.725 -0.075
-1.875 -66.825 0.075
-1.725 -68.025 0.975
-0.825 -68.475 2.775
-2.025 -67.275 1.575
-0.975 -68.475 0.075
-0.975 -68.475 1.425
0.225 -67.875 1.425
-1.875 -67.875 -0.075
0.225 -67.875 -0.225
-0.675 -66.075 1.725
-0.975 -66.075 2.025
-0.975 -66.075 0.825
-0.975 -66.075 1.575
0.375 -67.575 0.825
-2.025 -66.975 0.225
-1.725 -68.175 0.675
0.375 -67.725 0.675
0.375 -67.725 0.525
0.375 -67.725 1.275
0.375 -67.725 1.425
-2.025 -66.825 1.575
-2.025 -66.825 -0.825
-1.275 -66.075 0.675
0.225 -66.525 1.275
0.225 -66.525 1.875
-0.075 -66.225 2.475
0.375 -67.875 0.375
-0.825 -68.625 0.075
-0.825 -68.625 2.175
-2.175 -67.275 0.375
-0.825 -65.925 1.725
-0.975 -68.625 1.575
-0.975 -68.625 0.525
-0.975 -68.625 0.075
0.525 -67.425 1.125
-2.175 -67.125 1.125
-2.175 -67.125 1.575
-0.675 -65.925 2.025
-0.975 -65.925 -5.175
-0.525 -68.625 -0.675
0.525 -67.575 1.275
-2.175 -66.975 1.425
0.225 -66.375 1.125
-0.525 -65.925 -0.225
-1.125 -65.925 1.575
-1.575 -68.475 1.425
0.375 -68.025 0.375
-1.275 -68.625 1.275
-1.275 -68.625 2.325
-1.275 -68.625 1.575
-1.275 -68.625 1.125
-2.175 -67.725 1.575
0.525 -67.725 0.375
-0.375 -65.925 3.375
-1.425 -68.625 1.425
-2.175 -67.875 1.425
0.525 -67.875 1.275
0.525 -67.875 0.675
-1.425 -65.925 0.675
-1.875 -68.325 0.675
0.225 -66.225 1.275
-1.875 -66.225 0.675
-1.725 -68.475 0.975
-0.825 -68.775 0.075
-2.325 -67.275 -0.075
-2.325 -67.425 0.525
-2.325 -67.425 1.425
-0.975 -65.775 1.725
-0.975 -68.775 1.275
0.675 -67.575 1.425
-1.125 -65.775 1.575
-1.125 -65.775 1.275
-1.125 -65.775 0.675
-1.125 -65.775 1.425
-1.125 -68.775 1.425
-1.125 -65.775 2.025
-1.125 -65.775 1.875
-2.325 -66.975 1.275
-2.325 -66.975 0.225
-1.575 -68.625 1.575
-2.175 -66.525 1.125
0.525 -68.025 1.125
0.525 -68.025 1.275
0.525 -68.025 0.675
0.525 -68.025 0.825
0.675 -67.725 1.275
-2.325 -67.725 0.975
-1.275 -68.775 -0.825
-2.325 -66.825 1.275
0.225 -68.475 0.675
-1.875 -66.075 0.375
-1.875 -66.075 0.825
-2.025 -66.225 0.525
0.675 -67.875 1.275
-2.325 -67.875 1.125
-1.425 -65.775 0.675
-2.325 -66.675 1.125
-2.325 -66.675 0.975
-2.175 -68.175 2.475
-2.175 -68.175 2.325
-1.725 -68.625 -0.525
-1.725 -68.625 -1.575
-2.175 -66.375 0.525
-1.725 -65.925 0.825
-1.725 -65.925 -4.725
-2.475 -67.275 1.125
-2.475 -67.275 0.975
-0.975 -68.925 1.275
-2.475 -67.425 0.975
-2.475 -67.425 1.275
-2.475 -67.425 1.425
-2.475 -67.125 1.125
-2.475 -67.125 1.425
-2.475 -67.125 0.975
-0.975 -65.625 1.875
-0.975 -65.625 1.125
-0.975 -65.625 1.725
0.825 -67.575 1.725
-2.475 -67.575 1.425
-2.475 -67.575 1.575
-1.575 -65.775 1.725
-1.575 -68.775 1.425
-1.575 -68.775 1.575
-1.575 -68.775 -0.375
-1.575 -68.775 1.275
-1.575 -65.775 0.375
-1.575 -65.775 1.575
-2.325 -66.525 0.975
-2.325 -68.025 1.125
-2.475 -66.975 1.425
-1.125 -65.625 1.725
-0.525 -65.625 -0.225
-1.275 -68.925 1.125
-1.275 -68.925 1.275
0.225 -68.625 0.825
-2.475 -66.825 0.825
-2.475 -66.825 1.125
0.525 -66.225 1.125
0.525 -66.225 1.275
-2.325 -68.175 1.125
-2.325 -68.175 2.025
-2.325 -68.175 0.225
0.075 -68.775 0.825
-1.725 -68.775 -0.525
-1.725 -68.775 -1.575
-2.475 -67.875 -0.825
-2.475 -66.675 1.125
-2.475 -66.675 0.975
-1.425 -65.625 0.675
-2.625 -67.275 1.425
-2.625 -67.275 1.575
-0.825 -65.475 1.875
0.375 -68.625 0.975
-2.625 -67.425 0.975
-2.625 -67.425 1.275
-2.625 -67.125 0.075
-2.175 -66.075 1.125
0.525 -66.075 1.275
0.375 -65.925 1.125
-0.975 -65.475 2.025
-1.575 -68.925 1.575
-0.075 -68.925 -0.075
-2.475 -66.525 1.125
-2.475 -66.525 1.275
-2.475 -68.025 0.825
-1.125 -69.075 1.125
-2.625 -67.575 0.675
-2.625 -67.575 1.575
-1.125 -65.475 2.175
-1.875 -65.775 1.425
-2.325 -66.225 1.125
-2.325 -66.225 0.975
-1.275 -69.075 1.425
-2.625 -67.725 1.425
-2.625 -67.725 0.975
-2.625 -67.725 0.675
-2.625 -66.825 1.275
-1.275 -65.475 2.925
-1.725 -68.925 -0.225
-2.475 -68.175 0.525
-2.475 -66.375 1.275
-2.475 -66.375 1.575
-2.475 -66.375 -0.675
-2.475 -66.375 0.975
-2.475 -66.375 1.125
-0.225 -69.075 -0.075
-2.625 -66.675 1.125
0.525 -68.625 1.275
-2.175 -65.925 1.275
-2.175 -65.925 2.625
0.525 -65.925 0.825
-2.325 -68.475 1.875
-0.825 -69.225 0.075
-0.075 -69.075 1.875
-2.625 -68.025 1.125
-2.625 -68.025 1.425
-2.625 -68.025 -0.825
-0.825 -65.325 1.275
-0.825 -65.325 1.875
0.225 -68.925 0.825
0.225 -68.925 1.725
-2.475 -68.325 0.675
-2.475 -68.325 0.225
-2.475 -68.325 1.725
-0.975 -65.325 2.025
-2.475 -66.225 1.125
-0.525 -69.225 0.975
-1.125 -65.325 2.175
-2.775 -67.725 1.125
-2.775 -66.825 0.975
-2.625 -68.175 0.675
-2.625 -68.175 -0.075
0.075 -69.075 0.675
-2.625 -66.375 -0.375
-2.625 -66.375 1.275
-2.625 -66.375 0.975
-2.175 -65.775 1.275
0.525 -65.775 2.025
0.525 -65.775 1.875
0.525 -68.775 1.275
0.525 -65.775 0.825
0.675 -65.925 0.825
-2.025 -68.925 -0.525
-2.475 -68.475 1.425
-2.475 -68.475 0.675
-2.775 -67.875 1.275
-2.475 -66.075 0.825
0.225 -69.075 0.525
0.225 -69.075 2.025
-1.875 -65.475 0.225
-0.075 -69.225 -0.375
-2.775 -68.025 1.125
-0.825 -69.375 0.075
-2.925 -67.275 1.725
-0.825 -65.175 2.025
-0.825 -65.175 1.725
-0.675 -69.375 0.075
-0.975 -69.375 1.575
0.675 -68.775 1.275
-2.325 -65.775 1.275
0.525 -68.925 1.275
0.525 -68.925 1.125
-2.475 -65.925 1.125
-2.475 -65.925 0.975
-2.475 -65.925 0.825
-1.725 -69.225 0.075
-1.275 -69.375 1.575
-2.775 -68.175 1.425
-2.775 -68.175 -0.675
-2.625 -68.475 1.725
-2.625 -68.475 0.825
0.375 -69.075 1.575
-2.625 -66.075 1.275
-2.625 -66.075 0.975
-2.925 -66.675 0.825
-0.075 -69.375 0.075
-1.575 -69.375 1.425
-2.475 -68.775 0.825
-2.475 -65.775 0.975
-2.475 -65.775 0.825
0.675 -65.625 1.875
0.675 -65.625 1.425
-2.325 -65.625 1.125
-2.325 -65.625 0.825
-2.625 -68.625 0.975
-0.825 -69.525 -0.075
-0.825 -69.525 0.375
-2.175 -65.475 1.125
-0.975 -69.525 1.425
-1.125 -69.525 1.575
-2.925 -68.175 1.875
-2.925 -66.375 0.975
0.375 -69.225 -0.225
-2.775 -68.475 0.825
-2.775 -66.075 0.675
-1.275 -65.025 0.525
-1.275 -69.525 1.125
-3.075 -66.825 1.425
-1.425 -65.025 0.975
-0.225 -65.025 3.675
-1.425 -65.025 0.525
-1.425 -69.525 1.425
-1.425 -69.525 1.575
0.825 -68.925 1.425
-2.475 -65.625 0.825
-2.475 -65.625 1.575
-2.475 -65.625 0.975
-2.475 -65.625 0.675
-2.625 -68.775 1.725
-2.625 -68.775 1.125
-2.625 -68.775 0.675
-2.625 -65.775 2.025
-2.625 -65.775 1.425
-2.625 -65.775 0.825
-2.325 -65.475 -0.225
-2.325 -65.475 0.825
0.225 -69.375 1.275
0.525 -69.225 1.875
-1.575 -69.525 0.075
-1.575 -69.525 1.425
0.525 -65.325 2.475
-2.775 -65.925 1.425
-0.825 -69.675 0.075
-0.675 -69.675 -0.075
-0.975 -69.675 -1.125
-0.675 -64.875 1.425
-2.025 -69.375 1.425
-2.025 -69.375 1.275
-2.025 -69.375 -1.575
0.375 -69.375 -0.075
-1.125 -64.875 0.675
-2.025 -65.175 -1.125
0.075 -69.525 0.075
-1.275 -69.675 1.125
-2.625 -68.925 1.125
-2.625 -68.925 0.975
-2.625 -68.925 1.275
-2.625 -68.925 0.675
-2.475 -69.075 1.425
-3.225 -66.825 1.575
-2.625 -65.625 1.125
-2.475 -65.475 0.825
-2.475 -65.475 1.275
-2.325 -65.325 0.825
-1.425 -69.675 1.725
-1.425 -64.875 0.675
-1.425 -64.875 3.525
1.425 -68.325 4.875
0.225 -69.525 0.075
0.525 -65.175 2.475
-1.575 -69.675 0.375
-1.575 -64.875 0.675
-2.625 -69.075 -1.725
-2.625 -69.075 1.575
0.975 -65.475 -0.375
-0.825 -69.825 0.075
0.375 -69.525 -0.225
-2.025 -69.525 1.425
-0.825 -64.725 1.875
-2.475 -69.225 -0.075
-2.475 -69.225 0.975
-2.475 -69.225 1.725
-3.375 -67.125 1.575
-3.375 -67.125 1.275
0.825 -65.325 1.875
-0.975 -64.725 1.725
-0.975 -64.725 -3.075
-3.225 -68.175 -2.475
-3.225 -66.375 -0.225
-1.125 -69.825 1.125
-0.525 -69.825 -0.675
-2.325 -65.175 0.225
-2.325 -65.175 1.425
-2.325 -65.175 0.975
-3.375 -66.825 -0.225
-1.875 -69.675 1.125
-1.875 -69.675 -0.975
-3.375 -67.875 0.675
-1.425 -64.725 0.675
-2.175 -65.025 1.425
-2.175 -65.025 0.975
-2.625 -69.225 0.075
1.125 -69.075 0.675
-2.775 -65.475 0.975
-3.375 -66.525 0.075
-1.575 -64.725 0.825
-2.475 -69.375 1.725
-2.475 -65.175 0.975
-2.475 -65.175 0.375
0.825 -65.175 0.975
-3.225 -66.075 0.975
-2.025 -64.875 0.975
-0.825 -69.975 2.175
-0.825 -69.975 0.075
-0.975 -69.975 1.125
0.075 -69.825 0.375
0.075 -69.825 0.225
-1.725 -69.825 0.675
0.675 -65.025 0.825
-2.325 -69.525 1.575
-2.325 -65.025 0.975
-0.675 -64.575 1.425
0.075 -64.725 2.175
-1.725 -64.725 1.875
-1.125 -69.975 2.025
-0.525 -69.975 0.225
-0.525 -69.975 0.075
-3.525 -67.575 0.675
-2.175 -64.875 0.825
-2.175 -64.875 0.675
-2.175 -64.875 0.975
-2.175 -64.875 1.575
1.125 -69.225 0.525
-2.775 -69.225 0.075
-3.375 -68.325 -0.225
-2.775 -65.325 0.525
-2.775 -65.325 0.825
1.725 -66.225 0.075
-3.375 -66.225 0.675
-2.625 -65.175 0.825
-2.625 -65.175 1.125
1.425 -68.925 4.425
-2.475 -65.025 -1.425
-2.475 -69.525 1.425
-2.475 -65.025 1.125
-2.475 -69.525 1.575
-2.475 -65.025 0.825
-2.475 -69.525 0.225
-3.525 -68.025 0.825
-2.025 -69.825 1.275
-2.025 -64.725 1.725
-2.025 -64.725 0.825
0.375 -64.725 1.275
-2.325 -69.675 1.425
0.675 -64.875 0.825
-2.325 -64.875 0.975
0.075 -69.975 0.375
0.075 -69.975 0.225
-1.725 -64.575 1.875
-0.675 -64.425 1.725
1.275 -69.225 4.275
-0.525 -70.125 1.875
-1.125 -70.125 1.275
1.125 -69.375 0.075
1.125 -69.375 4.125
-2.775 -65.175 1.125
-1.125 -64.425 0.375
0.975 -65.025 0.225
-2.625 -69.525 1.875
-2.625 -69.525 0.075
-2.625 -69.525 1.725
-2.625 -69.525 0.225
-2.625 -69.525 1.275
-2.625 -69.525 0.525
-2.175 -69.825 0.975
-3.675 -66.825 -0.375
-2.175 -64.725 0.825
0.225 -69.975 2.025
0.225 -69.975 0.525
0.225 -69.975 0.075
-0.225 -70.125 2.175
1.575 -68.925 -0.975
-3.675 -67.875 0.675
-2.475 -64.875 0.825
-0.075 -70.125 -1.425
-1.575 -70.125 1.575
-1.575 -64.425 1.575
0.375 -69.975 0.375
-2.025 -64.575 0.675
-2.025 -64.575 0.825
0.675 -64.725 0.675
-2.325 -64.725 0.525
-2.325 -64.725 0.975
-2.325 -64.725 0.825
-2.925 -69.375 0.225
-2.925 -65.175 0.975
-2.775 -69.525 0.075
-2.775 -69.525 0.375
-3.675 -68.175 0.525
-2.625 -69.675 1.275
-2.625 -69.675 -0.075
-0.825 -64.275 1.725
0.975 -64.875 0.225
-2.625 -64.875 0.975
-0.975 -70.275 1.275
-1.125 -70.275 1.275
-0.525 -64.275 -5.925
-1.125 -64.275 0.375
-1.125 -70.275 1.725
0.525 -64.575 0.975
1.875 -65.925 1.575
-1.275 -70.275 1.875
-1.275 -64.275 0.825
-1.275 -64.275 0.375
0.825 -64.725 0.675
0.825 -64.725 2.325
-2.475 -64.725 0.825
-1.425 -70.275 -0.825
-1.425 -70.275 1.575
1.425 -69.375 -0.525
-2.925 -65.025 0.675
-2.925 -65.025 0.375
-2.925 -69.525 0.225
-3.075 -65.175 0.675
-2.325 -69.975 1.725
1.875 -65.775 -4.575
0.675 -64.575 1.275
-2.325 -64.575 -1.575
-2.775 -69.675 0.375
0.375 -70.125 0.375
-2.625 -69.825 0.525
-2.625 -64.725 -0.975
-2.625 -64.725 0.975
0.075 -70.275 0.375
0.075 -70.275 0.225
-1.725 -70.275 2.025
-0.675 -70.425 1.575
-0.975 -64.125 1.725
-0.975 -64.125 0.525
-2.175 -64.425 0.825
0.525 -64.425 2.025
-2.175 -64.425 0.975
-2.475 -69.975 0.975
-1.125 -70.425 1.425
-3.525 -68.925 -2.325
0.825 -64.575 0.825
2.175 -68.325 0.825
-0.375 -70.425 -0.975
-0.375 -70.425 0.225
-3.075 -65.025 4.125
-3.075 -65.025 0.975
-3.075 -65.025 0.525
-3.075 -69.525 0.225
-1.275 -64.125 0.375
-2.925 -69.675 0.375
-2.925 -69.675 1.125
-2.925 -69.675 -0.375
-2.925 -69.675 0.675
-2.775 -69.825 0.525
-2.775 -69.825 -1.425
2.025 -65.775 1.425
0.375 -70.275 0.675
-2.025 -70.275 1.725
-0.075 -70.425 1.275
-1.575 -64.125 -0.225
-2.625 -64.575 -1.125
0.075 -70.425 0.225
-1.725 -64.125 -0.975
-1.725 -64.125 -0.375
1.425 -69.675 1.725
0.525 -64.275 0.675
0.525 -64.275 -0.225
0.525 -70.275 0.375
-2.175 -70.275 2.625
1.575 -69.525 2.775
-3.225 -69.525 0.375
2.175 -65.925 1.125
2.175 -65.925 1.725
0.825 -64.425 2.475
0.825 -64.425 0.525
-2.475 -64.425 0.825
-0.825 -70.575 -0.825
-0.675 -70.575 0.375
-0.975 -70.575 0.525
2.475 -67.125 3.375
-0.975 -63.975 1.425
-0.975 -63.975 1.725
0.225 -70.425 0.375
-1.875 -70.425 1.875
2.325 -66.225 0.525
-1.275 -70.575 1.125
2.475 -67.725 1.425
-1.275 -63.975 0.525
0.675 -64.275 1.275
-2.325 -64.275 0.675
0.675 -64.275 0.975
0.375 -70.425 0.525
-2.025 -70.425 1.875
2.025 -69.075 -0.675
-1.575 -70.575 -2.475
-3.075 -69.825 -0.675
1.725 -69.525 3.975
-1.725 -70.575 -2.175
-1.725 -63.975 0.825
0.825 -64.275 1.125
-2.475 -64.275 0.975
0.825 -64.275 0.675
-2.475 -64.275 0.675
0.525 -70.425 0.825
0.525 -70.425 0.375
-2.175 -70.425 2.325
-0.825 -70.725 -0.975
-0.825 -70.725 0.825
-0.825 -70.725 -1.125
-0.675 -70.725 0.525
-2.775 -64.425 0.975
1.125 -64.425 2.625
-1.125 -70.725 1.275
-0.525 -70.725 0.525
-0.375 -70.725 0.075
-2.325 -70.425 1.725
0.675 -64.125 2.625
0.675 -64.125 2.325
-2.625 -64.275 0.825
-2.625 -64.275 -1.425
-3.225 -69.825 -0.075
-1.425 -63.825 0.675
-2.025 -70.575 1.875
0.375 -70.575 -1.575
0.375 -70.575 0.975
-2.025 -63.975 0.525
-0.075 -70.725 1.125
-0.075 -70.725 -0.075
-0.075 -70.725 0.375
-0.075 -63.825 0.975
-1.575 -63.825 0.675
-1.575 -63.825 0.825
1.275 -64.425 2.775
-2.475 -70.425 0.675
0.825 -64.125 0.525
0.075 -70.725 0.375
0.075 -70.725 0.225
-1.725 -63.825 0.375
-2.175 -63.975 0.675
-2.775 -64.275 0.825
-2.775 -64.275 0.975
-0.675 -70.875 1.725
-0.675 -70.875 0.525
-0.975 -63.675 -0.225
0.225 -70.725 0.225
-1.125 -70.875 -0.525
-1.125 -70.875 1.425
1.575 -64.575 0.975
-1.125 -63.675 0.075
0.675 -70.575 1.275
-2.325 -70.575 0.975
-2.325 -70.575 1.725
-2.325 -63.975 0.675
0.675 -63.975 0.825
0.675 -63.975 1.125
0.675 -63.975 2.925
0.975 -64.125 0.825
-2.625 -64.125 -1.725
-3.075 -64.425 0.825
-1.425 -63.675 2.775
0.375 -70.725 0.975
0.375 -70.725 0.825
-2.025 -63.825 0.525
-2.025 -63.825 0.375
-2.025 -63.825 0.675
-2.925 -70.275 0.825
-2.925 -64.275 0.975
1.275 -70.275 -1.275
-0.075 -70.875 0.375
-0.075 -70.875 0.225
2.475 -65.625 2.025
-2.475 -63.975 0.675
0.525 -70.725 0.825
-2.775 -70.425 0.675
2.325 -65.325 2.025
-3.975 -65.325 5.475
-2.175 -63.825 0.675
0.075 -70.875 0.675
0.075 -70.875 0.525
0.075 -70.875 0.375
-1.725 -63.675 1.275
1.875 -64.725 0.975
2.025 -64.875 0.825
1.575 -64.425 0.825
-3.225 -64.425 0.975
0.225 -70.875 0.075
-1.875 -70.875 2.325
-3.075 -70.275 0.375
-1.875 -63.675 0.375
-0.675 -71.025 0.525
-0.975 -63.525 -0.675
-0.975 -63.525 2.025
-2.625 -70.575 0.675
-2.625 -63.975 0.675
0.675 -70.725 0.825
-0.525 -71.025 1.875
-2.325 -63.825 0.675
-4.575 -67.725 1.725
-1.275 -63.525 -4.125
-2.925 -70.425 0.825
-2.025 -70.875 1.875
-4.575 -67.875 1.875
-0.225 -71.025 1.125
-3.525 -64.575 1.575
-4.575 -68.025 1.725
0.825 -63.825 0.225
0.825 -63.825 0.525
-2.475 -63.825 0.675
-3.375 -64.425 0.975
1.725 -64.425 1.725
-1.575 -63.525 1.725
1.575 -64.275 0.825
-3.225 -70.275 0.375
-2.175 -70.875 1.725
-4.425 -68.625 1.875
-4.425 -68.625 2.475
-2.175 -63.675 0.825
-2.175 -63.675 -0.375
0.075 -71.025 -0.075
-3.075 -64.125 0.975
-2.625 -70.725 0.525
-2.625 -63.825 -0.375
-4.575 -68.325 2.175
-1.875 -71.025 1.425
-1.875 -71.025 2.325
0.225 -71.025 0.225
-0.825 -63.375 1.875
0.675 -63.675 0.375
0.675 -63.675 0.975
-2.325 -63.675 -0.075
-2.325 -63.675 0.525
-0.675 -63.375 1.875
-2.925 -63.975 -0.525
-4.725 -67.725 1.725
-4.725 -67.725 1.875
-0.375 -63.375 0.375
-2.025 -63.525 0.225
-4.725 -67.875 2.175
-1.425 -63.375 2.775
-0.225 -63.375 -0.675
1.575 -64.125 1.275
-3.225 -64.125 1.425
0.825 -63.675 0.975
-2.475 -63.675 3.075
-4.275 -69.225 1.575
-2.775 -63.825 -0.525
-1.575 -63.375 0.975
0.525 -71.025 0.825
-2.175 -63.525 -0.225
-2.175 -63.525 0.525
-2.175 -63.525 0.225
-2.175 -63.525 0.675
1.425 -63.975 0.975
1.425 -63.975 0.675
0.075 -71.175 0.825
-1.725 -71.175 3.225
-4.725 -68.175 1.425
-1.725 -63.375 -0.225
-1.725 -63.375 1.125
-2.625 -70.875 0.525
0.975 -63.675 0.975
-4.575 -68.775 1.725
1.275 -63.825 1.275
-1.875 -63.375 0.375
-2.325 -63.525 0.225
0.675 -63.525 0.375
0.675 -63.525 0.975
-2.325 -63.525 0.675
-2.325 -63.525 0.525
1.725 -64.125 0.675
1.725 -64.125 1.425
-0.675 -63.225 1.125
-0.525 -63.225 1.275
0.375 -71.175 0.075
-4.725 -68.475 2.325
1.575 -63.975 0.975
1.575 -63.975 1.275
1.575 -63.975 0.675
-2.025 -63.375 0.675
-2.025 -63.375 0.525
2.775 -69.225 3.975
-4.425 -69.225 2.175
-2.775 -70.875 0.525
-0.225 -71.325 -0.525
-0.225 -71.325 1.725
-4.875 -67.875 -0.525
-0.225 -63.225 -0.525
-4.575 -68.925 1.575
-2.475 -63.525 0.675
0.825 -63.525 0.375
0.825 -63.525 0.675
-3.075 -70.725 0.675
1.425 -63.825 1.125
1.425 -63.825 1.275
-3.075 -63.825 0.975
-1.575 -63.225 0.975
-4.725 -65.925 1.875
-2.175 -63.375 0.675
-2.175 -63.375 0.525
0.525 -63.375 0.675
2.025 -64.275 0.075
2.025 -70.275 -0.675
1.875 -70.425 -0.225
-1.725 -71.325 2.175
-1.725 -63.225 0.975
-1.725 -63.225 0.075
1.275 -63.675 0.975
-2.925 -63.675 0.375
1.725 -63.975 1.125
-4.725 -68.775 1.725
0.675 -63.375 0.975
0.675 -63.375 0.375
0.675 -63.375 0.675
0.675 -63.375 0.825
-2.325 -63.375 0.375
-4.875 -66.225 1.575
-1.875 -63.225 0.375
-1.875 -63.225 0.525
-0.825 -63.075 1.275
-0.975 -71.475 2.175
1.575 -63.825 0.975
1.575 -63.825 1.125
-0.675 -63.075 0.525
-0.675 -63.075 2.025
-0.675 -63.075 0.975
-1.125 -63.075 1.575
-0.375 -71.475 0.375
-2.775 -71.025 0.675
1.125 -71.025 -0.675
-2.775 -63.525 0.075
-4.725 -68.925 1.725
-2.475 -63.375 0.675
-0.225 -71.475 0.525
-0.225 -71.475 0.225
-1.425 -63.075 2.475
-0.225 -63.075 -0.525
-1.425 -63.075 2.625
1.875 -63.975 0.825
-0.075 -71.475 0.075
-1.575 -63.075 0.975
-2.175 -71.325 1.275
-2.175 -71.325 1.875
0.525 -71.325 1.425
0.525 -63.225 0.825
1.725 -63.825 0.675
-2.625 -71.175 1.125
-4.725 -69.075 1.725
-4.725 -69.075 1.425
-1.725 -63.075 0.975
0.975 -63.375 0.975
-2.625 -63.375 0.825
-2.625 -63.375 0.525
-4.575 -69.375 2.025
-4.575 -69.375 1.425
-2.925 -63.525 0.675
0.675 -71.325 -0.375
1.575 -63.675 1.275
0.225 -71.475 0.825
-1.875 -71.475 2.025
-5.025 -68.325 -3.975
-0.825 -62.925 0.525
-0.975 -71.625 -1.125
-0.675 -62.925 1.275
-0.975 -62.925 0.525
-0.975 -62.925 1.275
-4.725 -69.225 1.725
-0.525 -62.925 -0.375
-2.025 -63.075 0.825
-4.575 -69.525 1.575
-4.575 -65.025 1.425
3.225 -65.625 0.525
-4.875 -65.625 0.675
0.825 -63.225 0.525
-2.475 -63.225 -1.275
1.425 -63.525 1.275
1.425 -63.525 0.375
-0.375 -62.925 -0.675
-0.375 -62.925 -0.825
-0.375 -62.925 0.375
-1.275 -62.925 -0.975
1.875 -63.825 0.825
-3.525 -63.825 6.675
1.875 -63.825 0.675
1.875 -63.825 1.125
-0.225 -62.925 0.375
-1.425 -62.925 -1.275
-2.175 -63.075 0.975
1.725 -63.675 0.525
1.725 -63.675 0.825
1.725 -63.675 1.575
-0.075 -71.625 -0.075
-0.075 -71.625 0.525
-0.075 -62.925 -0.675
-4.725 -65.175 1.725
-2.925 -63.375 0.675
1.275 -63.375 0.975
-2.625 -71.325 0.525
-2.625 -71.325 0.375
-2.625 -71.325 1.275
0.975 -63.225 1.425
0.975 -63.225 0.525
-4.875 -65.475 1.125
0.075 -71.625 0.075
-4.575 -69.675 1.425
-3.225 -63.525 0.825
1.575 -63.525 1.125
1.575 -63.525 0.525
2.325 -64.125 0.675
2.175 -63.975 0.975
0.225 -71.625 0.675
0.225 -71.625 0.525
-5.175 -68.325 1.875
-4.875 -69.225 1.725
1.125 -63.225 0.075
1.875 -63.675 1.425
1.875 -63.675 1.275
-0.825 -62.775 -0.675
-4.725 -65.025 0.825
-4.725 -65.025 1.425
1.425 -63.375 1.275
-3.075 -63.375 0.825
-0.975 -62.775 -1.125
-0.975 -62.775 0.525
-1.125 -62.775 -0.825
-0.525 -62.775 0.825
-1.125 -62.775 0.825
-2.475 -71.475 0.525
0.375 -71.625 0.375
0.375 -71.625 0.825
-2.475 -63.075 1.125
-4.575 -69.825 3.675
-5.175 -68.625 0.825
-4.875 -69.375 1.425
-4.875 -69.375 1.275
-0.075 -71.775 0.825
-2.925 -63.225 0.375
-2.925 -63.225 0.525
2.475 -64.125 0.975
1.275 -63.225 1.275
-0.075 -62.775 0.675
-1.575 -62.775 2.925
-1.575 -62.775 -0.375
-5.025 -69.075 1.875
-5.025 -69.075 1.725
-2.625 -63.075 0.525
-5.025 -65.475 1.125
2.625 -64.275 1.125
2.175 -63.825 0.975
-4.725 -69.675 1.575
-4.725 -64.875 1.275
1.575 -63.375 1.125
0.075 -62.775 0.375
0.075 -62.775 -0.225
-5.175 -65.775 1.425
0.225 -62.775 0.075
-5.025 -69.225 1.425
1.125 -63.075 2.025
-2.775 -63.075 0.375
1.425 -63.225 1.875
-3.075 -63.225 0.975
1.425 -63.225 2.175
1.425 -63.225 0.825
1.425 -63.225 1.125
-0.825 -71.925 0.825
-0.825 -62.625 0.675
-0.675 -71.925 0.975
-0.675 -62.625 1.425
-0.675 -62.625 1.275
-2.475 -62.925 0.525
0.375 -71.775 0.375
-4.725 -69.825 1.725
-4.725 -69.825 1.275
1.725 -63.375 -1.275
1.725 -63.375 0.825
-0.525 -62.625 -0.825
-1.125 -62.625 0.525
-1.275 -71.925 1.575
-0.375 -62.625 1.425
-1.275 -62.625 -0.975
-0.225 -71.925 0.675
1.275 -63.075 1.275
-2.925 -63.075 0.375
0.525 -71.775 1.125
-5.325 -65.925 0.375
1.575 -63.225 1.125
1.575 -63.225 0.975
-0.075 -71.925 0.525
-4.575 -70.125 -1.875
2.025 -71.025 1.725
-0.075 -62.625 0.825
2.025 -63.525 -0.525
0.075 -71.925 0.375
0.075 -71.925 0.825
0.675 -62.775 -2.925
1.425 -63.075 1.125
1.425 -63.075 0.975
-3.075 -63.075 0.375
0.225 -62.625 0.675
-1.875 -62.625 -1.425
2.475 -63.825 1.125
-4.875 -69.825 1.125
1.725 -63.225 0.825
-0.825 -72.075 0.825
-0.825 -62.475 -0.375
-0.675 -72.075 -0.525
-0.675 -72.075 1.875
-0.675 -72.075 2.025
-0.675 -62.475 1.275
-0.975 -62.475 -1.275
-0.375 -62.475 -0.975
-0.375 -62.475 -0.225
-0.375 -62.475 -0.375
-0.375 -62.475 1.275
2.025 -63.375 1.425
2.025 -63.375 -0.525
-0.225 -72.075 0.825
-5.025 -64.875 1.275
-5.025 -64.875 0.975
-5.025 -64.875 1.425
1.575 -63.075 0.525
1.575 -63.075 1.275
1.575 -63.075 0.975
0.525 -62.625 1.125
-5.325 -69.075 0.825
-0.075 -72.075 0.525
1.875 -63.225 1.275
0.075 -72.075 0.675
-1.725 -62.475 -1.425
2.475 -63.675 0.975
0.675 -71.925 1.125
-2.775 -71.775 0.825
-5.325 -65.325 0.975
0.225 -72.075 2.475
0.225 -72.075 0.825
1.725 -63.075 0.825
0.225 -62.475 1.725
0.225 -62.475 0.075
-2.475 -62.625 0.675
-2.025 -62.475 -1.575
-0.825 -72.225 -2.325
-0.825 -72.225 -0.375
-0.825 -72.225 1.425
-0.825 -62.325 1.275
-0.675 -72.225 1.575
-0.975 -72.225 1.725
-0.675 -72.225 2.025
-0.525 -72.225 2.175
-0.525 -62.325 1.275
-5.325 -69.375 1.125
-5.325 -69.375 0.675
-2.925 -71.775 0.675
-2.925 -62.775 1.425
1.575 -71.625 0.675
-5.175 -69.675 1.425
1.575 -62.925 0.825
-3.225 -62.925 1.275
-0.375 -72.225 1.875
-0.375 -72.225 0.825
-0.375 -62.325 0.675
-0.375 -62.325 1.275
-0.225 -72.225 0.675
-2.625 -71.925 0.675
-0.225 -62.325 -0.075
-0.225 -62.325 1.575
1.875 -63.075 0.825
1.875 -63.075 0.975
-4.125 -63.525 0.225
-0.075 -72.225 0.675
-0.075 -62.325 0.525
0.675 -72.075 1.275
0.675 -62.475 1.125
0.075 -72.225 0.975
-5.325 -65.025 1.425
1.425 -62.775 2.325
1.425 -62.775 2.475
2.175 -63.225 1.125
2.175 -63.225 2.475
-2.775 -71.925 1.875
-2.775 -71.925 0.825
-2.775 -71.925 0.525
-5.175 -69.825 0.075
-5.175 -64.725 0.975
1.725 -62.925 0.675
1.725 -62.925 0.825
1.725 -62.925 1.725
1.725 -62.925 0.975
0.225 -62.325 -1.575
-2.475 -72.075 1.275
2.025 -63.075 2.625
-5.025 -64.425 -1.575
-0.825 -72.375 1.575
-5.325 -64.875 -2.925
1.575 -62.775 1.725
1.575 -62.775 0.225
1.575 -62.775 1.275
-0.825 -62.175 1.275
-0.825 -62.175 1.125
-2.925 -71.925 0.525
-0.675 -72.375 1.725
-0.975 -72.375 0.375
-0.975 -72.375 -0.825
-0.675 -62.175 0.225
-0.525 -72.375 0.375
-1.125 -72.375 1.725
-1.125 -72.375 1.575
-0.375 -72.375 0.825
1.875 -71.625 0.525
1.875 -62.925 1.425
-0.375 -62.175 -0.825
-0.375 -62.175 0.525
-2.625 -62.475 0.525
0.525 -62.325 1.125
0.525 -62.325 1.275
-0.225 -72.375 0.825
-0.225 -72.375 1.275
-1.425 -72.375 1.875
-0.075 -72.375 0.675
-3.075 -71.925 0.675
-3.075 -62.625 0.375
-2.325 -72.225 1.725
1.725 -62.775 1.125
1.725 -62.775 0.525
0.075 -72.375 0.975
0.075 -72.375 1.575
-1.725 -72.375 1.725
-1.725 -62.175 -1.425
-2.775 -72.075 0.525
-2.475 -72.225 1.125
-2.475 -72.225 1.875
-3.225 -71.925 1.275
-3.225 -71.925 0.825
-5.475 -69.675 0.825
1.575 -62.625 1.275
1.575 -62.625 0.675
0.375 -72.375 1.275
-2.925 -72.075 0.975
-2.925 -72.075 0.825
0.375 -62.175 -0.075
-5.325 -69.975 0.375
-3.975 -71.475 0.225
-0.825 -72.525 0.375
-0.825 -62.025 0.225
-0.975 -72.525 -0.825
-0.975 -62.025 0.225
-0.975 -62.025 2.325
-0.525 -72.525 0.375
-0.525 -62.025 3.075
-0.525 -62.025 1.425
-1.125 -62.025 0.675
-1.125 -62.025 1.575
-1.125 -62.025 1.425
-2.625 -72.225 1.875
-1.275 -72.525 2.025
-1.275 -72.525 -1.125
-1.275 -72.525 1.725
-0.375 -62.025 1.275
0.525 -62.175 1.425
-0.225 -72.525 1.275
-1.425 -72.525 1.575
-1.425 -72.525 1.425
-1.425 -72.525 1.875
-1.425 -72.525 1.725
-0.225 -62.025 1.725
2.175 -62.925 -0.225
-3.075 -72.075 0.525
-3.075 -72.075 0.675
-3.075 -72.075 0.825
-3.075 -72.075 1.275
1.425 -62.475 0.525
1.425 -62.475 0.975
-0.075 -72.525 0.675
1.725 -62.625 0.525
-0.075 -62.025 0.975
-1.575 -62.025 0.675
-2.325 -72.375 1.875
0.675 -62.175 2.175
-4.875 -70.725 1.275
-4.275 -71.325 3.825
-2.775 -62.325 0.375
0.075 -72.525 0.975
-1.725 -72.525 2.175
-1.725 -72.525 -0.975
-5.325 -64.425 0.375
0.225 -72.525 1.425
0.225 -72.525 0.825
-1.875 -72.525 1.875
-1.875 -72.525 2.175
-2.475 -72.375 1.725
1.575 -62.475 2.025
1.575 -62.475 0.525
-3.225 -62.475 0.375
-5.475 -69.975 0.525
-5.775 -69.375 -0.075
-2.925 -62.325 0.375
-0.825 -72.675 0.375
-0.825 -61.875 0.375
-0.675 -72.675 2.025
-0.675 -72.675 0.525
-0.975 -72.675 0.975
-0.675 -61.875 0.525
-0.975 -61.875 2.325
-1.125 -72.675 -0.825
-1.125 -72.675 0.825
-5.325 -70.275 0.375
-0.525 -61.875 2.925
-0.525 -61.875 1.725
-1.125 -61.875 0.225
-4.575 -71.175 2.175
-4.725 -71.025 1.575
-1.275 -72.675 1.725
-1.275 -72.675 -1.275
-0.375 -61.875 1.125
-0.375 -61.875 -0.525
-0.375 -61.875 -1.275
-1.425 -72.675 1.725
1.725 -62.475 0.975
-3.075 -72.225 0.825
-3.075 -72.225 0.675
-3.075 -62.325 0.375
-1.575 -72.675 1.875
-1.575 -61.875 -0.975
-1.575 -61.875 3.975
-5.475 -70.125 0.225
2.025 -62.625 0.075
-2.775 -72.375 0.975
-2.775 -72.375 0.375
-5.175 -70.575 -0.375
-2.325 -72.525 1.875
0.075 -72.675 0.525
-1.725 -72.675 2.475
-1.725 -72.675 1.125
-1.725 -72.675 -1.125
0.225 -72.675 0.525
-1.875 -72.675 2.175
1.575 -62.325 0.825
-2.475 -72.525 2.325
-2.475 -72.525 1.875
0.825 -62.025 2.025
1.875 -62.475 1.125
-4.725 -71.175 1.725
-2.025 -72.675 2.025
-5.475 -70.275 0.525
-0.825 -72.825 0.375
0.975 -72.525 -0.525
-2.625 -72.525 -0.525
-2.625 -72.525 1.875
-2.625 -72.525 1.425
-0.675 -61.725 1.275
-0.525 -72.825 -1.275
-1.125 -72.825 -0.975
-2.175 -72.675 2.025
-0.375 -72.825 0.525
-0.375 -72.825 0.675
-1.275 -72.825 1.875
1.725 -62.325 1.125
-0.375 -61.725 -1.125
-3.075 -72.375 2.025
1.425 -62.175 1.125
-3.075 -62.175 0.375
-5.325 -70.575 1.125
-5.325 -70.575 0.525
-1.425 -61.725 2.025
-1.575 -72.825 1.725
-1.725 -61.725 -1.725
-4.575 -71.475 3.675
-3.225 -72.375 0.675
-3.225 -72.375 0.825
-2.475 -72.675 1.875
-4.425 -71.625 1.875
-2.925 -72.525 0.825
0.375 -61.725 -0.375
-2.625 -72.675 0.975
-0.825 -72.975 0.375
-0.825 -61.575 1.275
-0.675 -72.975 -0.825
-5.475 -70.575 0.525
-0.675 -61.575 1.575
-0.675 -61.575 0.825
-0.675 -61.575 1.425
-0.675 -61.575 2.175
1.725 -62.175 0.675
1.725 -62.175 0.525
-1.125 -72.975 0.075
-1.125 -72.975 -2.325
-0.525 -61.575 -0.975
-0.525 -61.575 -1.275
-0.525 -61.575 2.175
-1.125 -61.575 2.025
-2.175 -72.825 2.325
0.525 -61.725 2.325
0.525 -61.725 2.475
-0.225 -61.575 -0.825
-2.775 -72.675 1.875
-2.775 -72.675 1.275
-2.775 -72.675 1.725
-4.575 -71.625 3.225
3.525 -63.525 1.875
-1.575 -72.975 -1.275
-1.575 -72.975 1.725
-1.725 -72.975 2.175
1.875 -62.175 0.825
-3.525 -62.175 -3.375
-3.225 -72.525 1.125
-3.225 -72.525 0.675
1.575 -62.025 0.675
-2.475 -72.825 1.875
-2.925 -72.675 0.675
-2.925 -72.675 1.125
0.225 -61.575 2.475
-2.025 -72.975 1.425
-2.025 -61.575 1.725
-2.625 -72.825 0.825
0.975 -61.725 1.575
-3.075 -72.675 0.675
-0.825 -73.125 -0.075
-0.825 -73.125 2.175
-0.825 -73.125 0.225
-0.825 -73.125 -0.225
-0.825 -61.425 0.075
-0.975 -73.125 0.075
-0.675 -73.125 1.725
-0.675 -73.125 -0.375
-0.675 -73.125 -0.225
-0.975 -61.425 0.075
-0.675 -61.425 0.825
-0.975 -61.425 0.525
-1.125 -73.125 0.075
0.525 -61.575 1.725
-0.525 -61.425 1.275
-0.375 -73.125 1.275
-0.375 -73.125 1.725
-1.275 -73.125 2.475
-1.275 -73.125 -1.575
-1.275 -61.425 3.675
-1.425 -73.125 1.725
-5.475 -70.875 1.275
-1.425 -61.425 2.175
-1.425 -61.425 2.925
-2.775 -72.825 0.825
-2.775 -72.825 0.675
-2.325 -72.975 -2.925
0.675 -61.575 1.275
-1.575 -73.125 1.725
-1.575 -73.125 1.875
-1.575 -61.425 1.125
-3.225 -61.875 1.875
-1.725 -73.125 2.175
0.075 -61.425 1.125
0.075 -61.425 1.275
-2.925 -72.825 1.125
-2.925 -72.825 0.675
-1.875 -73.125 1.875
0.225 -61.425 2.475
-5.325 -71.175 0.975
-5.325 -71.175 1.425
-4.725 -71.775 -1.575
-3.375 -72.675 0.675
-3.375 -72.675 0.975
-2.025 -61.425 1.575
-3.075 -72.825 0.225
-5.625 -70.875 0.225
-0.675 -73.275 -0.525
-0.675 -73.275 -0.375
-0.675 -73.275 2.325
-0.675 -73.275 2.475
-0.975 -73.275 2.175
-0.975 -61.275 0.075
-0.675 -61.275 1.875
-1.125 -73.275 -0.075
-1.125 -73.275 0.075
-1.125 -73.275 0.525
-0.525 -73.275 -0.975
-0.525 -73.275 1.275
-0.525 -73.275 1.575
-0.525 -61.275 0.825
-1.125 -61.275 0.075
-0.375 -73.275 0.675
-2.775 -72.975 1.275
-0.225 -73.275 1.725
-1.425 -73.275 -1.425
-0.225 -61.275 1.125
-3.525 -72.675 0.975
-3.225 -72.825 0.675
-1.575 -73.275 1.875
-0.075 -61.275 1.125
-1.725 -61.275 2.325
-5.475 -71.175 0.675
-5.475 -71.175 1.725
-2.925 -72.975 1.125
-2.925 -72.975 0.375
1.275 -61.575 1.575
-5.625 -71.025 -0.225
-5.625 -71.025 1.725
-3.375 -72.825 0.675
-3.375 -72.825 0.375
-2.025 -73.275 0.975
-2.025 -73.275 1.725
-2.625 -73.125 1.575
-2.625 -73.125 1.275
-2.625 -61.425 4.275
-3.075 -72.975 0.675
-0.825 -61.125 0.075
-2.175 -61.275 1.425
-0.675 -73.425 2.025
-0.675 -73.425 2.475
-0.675 -73.425 -0.525
-0.975 -73.425 2.175
-5.325 -71.475 1.275
-5.325 -71.475 1.575
-0.525 -73.425 1.275
-0.525 -61.125 2.025
-1.275 -73.425 -0.525
-0.375 -73.425 0.675
-0.375 -73.425 0.825
-2.775 -73.125 0.825
3.225 -62.625 2.775
-3.825 -72.675 2.175
-1.425 -73.425 2.025
-3.225 -72.975 0.825
-3.225 -72.975 0.525
-3.225 -72.975 0.675
-5.625 -71.175 1.575
-4.725 -72.075 3.525
-2.325 -61.275 2.475
-1.575 -73.425 1.875
-1.575 -73.425 2.025
-0.075 -73.425 2.475
-0.075 -61.125 -2.325
-4.125 -72.525 1.575
-5.775 -71.025 1.275
-1.725 -73.425 -1.275
-2.925 -73.125 2.475
-2.925 -73.125 1.425
-1.875 -73.425 -0.675
-1.875 -73.425 1.725
-3.375 -72.975 0.975
-3.375 -72.975 0.525
-5.325 -71.625 0.075
-2.025 -61.125 3.075
-3.075 -73.125 1.425
-3.075 -73.125 0.975
-3.075 -73.125 0.225
-3.075 -73.125 -1.275
-0.825 -73.575 1.875
-0.675 -73.575 2.175
-0.675 -73.575 1.875
-0.525 -73.575 0.525
1.875 -61.575 2.325
1.875 -61.575 0.225
1.875 -61.575 0.675
-1.125 -60.975 -1.125
-1.275 -73.575 -0.075
-3.225 -73.125 0.525
-2.325 -73.425 -1.125
-1.575 -73.575 2.475
-0.075 -73.575 2.625
-5.475 -71.625 0.675
-3.675 -72.975 0.375
1.725 -61.425 0.675
-1.875 -73.575 -0.825
0.225 -60.975 2.625
-5.775 -71.325 1.275
-3.075 -73.275 1.275
-3.075 -73.275 0.825
-2.025 -73.575 -0.975
0.375 -73.575 0.225
0.375 -73.575 -0.075
-3.525 -73.125 0.675
-3.525 -73.125 0.525
-0.825 -73.725 2.025
-0.825 -60.825 1.125
-0.675 -73.725 2.325
-2.775 -73.425 0.975
-1.125 -73.725 -0.075
-0.525 -60.825 0.825
-1.125 -60.825 -0.975
-3.225 -73.275 1.725
-0.375 -73.725 0.825
-0.375 -73.725 0.525
-0.375 -73.725 0.975
-1.275 -73.725 -0.075
-1.275 -73.725 0.225
0.675 -60.975 2.025
-0.225 -73.725 0.825
-0.225 -73.725 2.325
-5.625 -71.625 0.675
-0.075 -73.725 0.525
-0.075 -73.725 0.825
-2.925 -73.425 1.425
-4.875 -72.375 1.575
0.825 -60.975 1.275
-3.375 -73.275 0.975
1.725 -61.275 0.675
-3.075 -73.425 0.825
0.375 -73.725 1.875
2.925 -61.875 1.875
2.175 -61.425 1.125
-3.525 -73.275 -3.075
-3.525 -73.275 -0.225
-3.525 -73.275 0.525
-5.175 -72.225 4.425
-0.825 -73.875 2.025
-0.825 -60.675 0.975
-3.225 -73.425 0.825
-3.225 -73.425 0.375
-3.225 -73.425 0.675
-0.675 -73.875 1.725
-0.675 -60.675 1.425
-0.525 -73.875 0.525
-0.525 -73.875 1.425
-0.525 -73.875 1.575
-1.125 -73.875 2.175
-0.375 -73.875 0.525
-0.375 -73.875 1.125
-1.275 -73.875 2.475
-1.275 -73.875 -0.225
-1.425 -73.875 2.175
-2.925 -73.575 0.975
-2.925 -73.575 0.375
-2.925 -73.575 1.425
-2.925 -73.575 -0.075
2.025 -61.275 0.375
-2.475 -73.725 0.675
-3.375 -73.425 -1.125
-3.375 -73.425 0.675
0.825 -60.825 2.175
1.725 -61.125 0.675
1.725 -61.125 0.825
-1.875 -60.675 0.525
-3.075 -73.575 0.225
-3.075 -73.575 0.525
-3.075 -73.575 1.725
-3.075 -73.575 0.975
1.125 -60.825 1.725
-3.225 -73.575 1.275
-3.225 -73.575 0.675
-3.225 -73.575 1.125
-3.225 -60.975 -0.525
-0.825 -60.525 0.675
-0.675 -60.525 1.275
-0.675 -60.525 -1.125
-0.675 -60.525 0.975
-0.525 -74.025 1.575
-0.525 -74.025 0.525
-0.525 -74.025 1.275
-1.125 -74.025 2.175
-0.375 -74.025 1.425
-0.375 -74.025 1.125
-0.225 -74.025 -1.275
-1.425 -74.025 2.475
-3.975 -73.275 1.575
-2.925 -73.725 1.425
-3.375 -73.575 0.825
-3.375 -73.575 0.675
0.825 -60.675 1.275
-1.725 -60.525 0.525
-3.075 -73.725 0.525
-3.075 -73.725 1.425
-1.875 -74.025 -0.825
-1.875 -60.525 0.375
-1.875 -60.525 0.525
-3.825 -73.425 1.575
-3.225 -73.725 -0.075
-3.225 -73.725 0.825
-0.825 -60.375 -1.125
-0.675 -74.175 -0.225
-0.675 -60.375 1.125
-0.525 -74.175 -1.425
-0.525 -60.375 0.675
-1.125 -60.375 -0.975
-0.375 -74.175 0.525
-0.375 -74.175 1.575
-0.375 -74.175 0.075
-1.425 -74.175 2.925
-2.925 -73.875 2.025
-2.925 -73.875 0.525
-2.925 -73.875 1.275
1.275 -60.675 1.875
-3.375 -73.725 0.675
-1.575 -74.175 1.875
-1.575 -74.175 1.575
-1.575 -74.175 1.275
-0.075 -60.375 -0.075
-2.475 -74.025 0.225
-1.725 -74.175 2.925
-1.725 -60.375 0.375
-5.025 -72.825 2.475
-3.075 -73.875 0.825
-3.525 -73.725 0.375
3.225 -61.575 1.575
-2.025 -74.175 2.325
-2.025 -60.375 0.225
-3.225 -73.875 0.375
-2.775 -74.025 0.525
0.525 -60.375 -2.625
-3.975 -73.575 1.575
-0.825 -60.225 -0.075
-0.825 -60.225 0.675
-3.675 -73.725 -0.825
-3.675 -73.725 0.525
-5.175 -72.825 0.975
2.025 -60.825 2.325
2.025 -60.825 2.625
-0.525 -60.225 0.675
0.675 -74.175 0.825
0.675 -60.375 0.525
-0.375 -74.325 0.525
-0.375 -74.325 -0.075
-1.275 -60.225 -1.125
-2.925 -74.025 0.675
-3.375 -73.875 0.825
-0.225 -74.325 0.525
0.825 -74.175 -0.975
0.825 -60.375 0.675
-1.725 -74.325 2.025
-4.125 -73.575 1.725
-3.075 -74.025 1.275
-3.075 -74.025 0.075
-3.075 -74.025 0.375
-3.075 -74.025 0.675
-3.075 -74.025 0.825
-1.875 -74.325 2.175
-1.875 -60.225 0.225
-1.875 -60.225 0.075
0.975 -60.375 0.525
-2.025 -74.325 0.525
-2.025 -60.225 0.525
-3.225 -74.025 0.975
-3.225 -74.025 0.675
-0.825 -74.475 -0.675
-0.825 -60.075 -0.525
-0.675 -74.475 3.075
-0.975 -60.075 0.375
-0.975 -60.075 -0.075
-0.675 -60.075 2.925
-0.525 -74.475 0.675
-0.525 -74.475 0.225
-1.125 -60.075 -0.075
-1.125 -60.075 2.025
0.675 -60.225 1.575
0.675 -60.225 0.375
-2.925 -74.175 0.225
-2.925 -74.175 1.575
-0.375 -74.475 0.075
-1.275 -74.475 2.325
-3.375 -74.025 0.825
-3.375 -74.025 1.275
-3.375 -74.025 0.975
-3.375 -74.025 0.075
-6.225 -72.075 0.075
-1.425 -60.075 1.725
-1.425 -60.075 0.825
-1.575 -60.075 0.225
0.825 -60.225 0.375
0.825 -60.225 1.275
0.825 -60.225 1.575
0.825 -60.225 0.975
-1.725 -74.475 2.775
-1.725 -60.075 1.275
-1.725 -60.075 0.225
-3.075 -74.175 1.275
-3.075 -74.175 0.825
1.425 -60.375 -4.425
1.425 -60.375 0.525
-3.525 -74.025 1.275
-3.525 -74.025 1.125
-3.525 -74.025 1.425
1.875 -60.525 2.175
-2.625 -74.325 4.425
-1.875 -60.075 0.225
0.975 -60.225 0.525
-2.025 -74.475 2.325
-2.025 -60.075 0.375
-2.775 -74.325 1.725
1.125 -60.225 1.275
0.525 -60.075 0.525
-3.675 -74.025 -0.375
-0.825 -59.925 2.625
-0.825 -59.925 -0.075
-0.675 -74.625 3.225
0.675 -60.075 0.525
0.675 -60.075 0.975
-3.375 -74.175 0.675
-3.375 -74.175 0.975
-0.525 -74.625 2.925
-0.525 -74.625 -0.375
-0.525 -74.625 0.675
-0.525 -74.625 1.725
-2.925 -60.225 0.525
-0.375 -74.625 3.075
-0.375 -74.625 0.225
-0.225 -59.925 1.425
0.825 -74.475 -0.225
0.825 -60.075 0.525
-1.575 -59.925 -1.275
-3.075 -74.325 0.375
-3.075 -74.325 3.225
-3.075 -74.325 1.875
-3.075 -74.325 0.825
1.425 -60.225 0.975
-1.725 -74.625 1.725
0.975 -60.075 0.675
0.975 -60.075 1.275
-1.875 -74.625 2.475
-1.875 -74.625 -2.025
-1.875 -59.925 0.375
0.225 -59.925 -0.075
-3.225 -74.325 1.275
-3.225 -74.325 1.725
-2.775 -74.475 1.125
-3.675 -74.175 1.875
2.025 -60.375 2.775
-2.925 -74.475 -1.575
-2.925 -74.475 1.425
-2.925 -60.075 0.225
-2.925 -60.075 0.675
-2.925 -60.075 0.075
-2.325 -74.625 2.175
-0.675 -59.775 1.125
-0.675 -59.775 0.975
-0.525 -74.775 -0.225
-1.125 -59.775 -1.575
-0.375 -74.775 3.075
-0.375 -74.775 3.825
-0.375 -59.775 1.125
-4.425 -73.875 -2.025
2.175 -60.375 1.425
-0.225 -59.775 -1.275
-6.225 -72.525 0.075
0.825 -59.925 1.125
-1.575 -74.775 1.575
-1.575 -59.775 -1.125
-1.575 -59.775 0.825
-3.075 -74.475 1.425
-3.075 -74.475 0.225
1.425 -60.075 -1.425
1.875 -60.225 0.375
-1.725 -74.775 2.625
-1.725 -59.775 -1.425
0.075 -59.775 -0.975
-2.625 -74.625 3.075
0.975 -59.925 1.275
0.225 -74.775 2.475
-1.875 -59.775 1.425
-3.225 -74.475 0.525
1.575 -60.075 0.525
-2.025 -59.775 0.075
-2.775 -74.625 -0.975
-3.675 -74.325 -3.975
-3.675 -60.225 0.675
3.225 -60.825 1.425
-2.175 -74.775 1.575
-3.375 -74.475 0.675
-3.375 -74.475 0.825
1.725 -60.075 -0.225
-6.375 -72.525 0.525
-6.375 -72.525 0.825
-2.925 -74.625 1.425
-2.925 -74.625 1.275
-2.925 -74.625 0.375
1.275 -59.925 0.375
1.275 -59.925 0.975
-0.825 -59.625 1.575
-0.675 -74.925 3.525
-0.975 -74.925 2.475
-0.975 -74.925 2.625
-0.975 -59.625 1.725
-0.525 -74.925 -0.225
-1.125 -59.625 2.175
-0.525 -59.625 -1.425
-0.225 -74.925 3.075
0.825 -59.775 1.125
1.425 -59.925 0.375
1.425 -59.925 0.225
1.875 -60.075 0.375
3.375 -60.825 0.825
0.075 -74.925 2.625
0.075 -59.625 0.075
-1.725 -59.625 -1.425
-2.625 -74.775 1.275
0.975 -59.775 0.825
-1.875 -74.925 1.275
-1.875 -59.625 0.225
-1.875 -59.625 0.075
-1.875 -59.625 0.375
-3.225 -74.625 2.925
-3.225 -74.625 1.125
-3.225 -74.625 0.225
1.575 -59.925 -0.075
-3.675 -74.475 1.275
0.375 -59.625 1.725
-2.025 -59.625 0.375
-2.775 -74.775 2.175
-3.375 -74.625 0.825
-3.375 -74.625 0.225
1.725 -59.925 -0.225
-3.375 -59.925 -0.075
-2.925 -74.775 1.125
1.275 -59.775 -0.075
0.675 -59.625 1.875
-0.825 -59.475 1.575
-0.975 -75.075 2.775
-0.975 -59.475 -1.425
-0.675 -59.475 -1.725
-1.125 -75.075 2.325
-1.125 -75.075 2.175
-0.525 -59.475 1.125
-0.375 -75.075 -0.225
-1.425 -75.075 -0.075
-0.225 -59.475 -1.425
-2.475 -74.925 2.475
0.825 -59.625 -0.225
0.825 -59.625 1.275
0.825 -59.625 0.375
-3.525 -74.625 0.825
-3.525 -74.625 0.375
-3.075 -74.775 0.225
1.425 -59.775 0.075
-1.575 -59.475 1.275
0.075 -75.075 -2.175
-1.725 -59.475 0.225
-1.725 -59.475 0.375
0.975 -59.625 0.975
0.975 -59.625 0.075
0.225 -75.075 -2.175
-1.875 -59.475 0.075
-1.875 -59.475 0.375
-5.925 -73.275 1.575
-3.225 -74.775 0.525
-3.225 -74.775 0.225
-3.225 -74.775 1.425
-3.225 -59.775 0.075
-3.675 -59.925 0.075
-2.775 -74.925 1.275
1.125 -59.625 1.275
2.775 -60.225 -0.675
-3.375 -74.775 -0.825
-2.925 -74.925 1.125
0.675 -59.475 0.225
-0.825 -59.325 -0.075
-0.675 -75.225 -0.675
-0.975 -59.325 -0.075
-0.975 -59.325 0.375
-0.675 -59.325 -0.075
-0.525 -59.325 0.975
-1.125 -59.325 0.075
-1.275 -59.325 0.075
-1.275 -59.325 0.825
-3.525 -74.775 2.025
1.875 -59.775 0.375
-1.425 -75.225 -0.075
-2.475 -75.075 1.275
-1.425 -59.325 2.475
-0.225 -59.325 2.325
0.825 -59.475 0.225
0.825 -59.475 -0.375
0.825 -59.475 0.375
-3.075 -74.925 0.975
-1.575 -59.325 1.275
-5.925 -73.425 0.375
-1.725 -59.325 0.075
-1.725 -59.325 0.975
-1.725 -59.325 0.225
-2.625 -75.075 -2.325
0.975 -59.475 0.225
0.975 -59.475 0.075
-3.225 -74.925 0.525
-3.225 -74.925 0.225
1.125 -59.475 1.275
1.125 -59.475 -0.075
1.125 -59.475 0.675
-3.375 -74.925 1.125
-3.375 -74.925 1.425
-2.925 -75.075 1.125
-2.925 -75.075 2.025
-3.825 -59.775 -3.225
-6.075 -73.425 1.425
-0.675 -75.375 -2.625
-0.975 -75.375 2.175
-0.675 -75.375 -0.675
-0.975 -59.175 0.075
-0.525 -75.375 -0.525
-0.525 -59.175 1.575
-3.525 -74.925 0.975
-0.375 -75.375 3.525
-1.275 -75.375 -0.075
-1.275 -75.375 0.225
1.875 -59.625 0.225
-3.075 -75.075 1.125
-3.075 -75.075 0.675
-3.075 -75.075 1.275
1.425 -59.475 -0.225
-2.475 -75.225 1.275
-0.225 -75.375 3.375
-1.425 -75.375 -0.075
-0.075 -75.375 -1.575
-1.575 -75.375 2.625
-1.575 -75.375 2.325
-3.975 -74.775 1.725
-1.575 -59.175 -1.725
-1.725 -59.175 0.375
-1.725 -59.175 0.675
-1.725 -59.175 0.075
-3.225 -75.075 0.975
-3.225 -75.075 0.675
-3.225 -75.075 0.825
1.575 -59.475 0.675
-3.675 -74.925 1.125
-3.675 -74.925 0.975
-1.875 -59.175 0.075
-1.875 -59.175 0.225
-2.775 -75.225 1.575
1.125 -59.325 1.425
1.125 -59.325 0.825
0.375 -75.375 4.125
-3.375 -75.075 -1.125
-3.375 -75.075 1.125
-3.375 -75.075 0.675
-3.375 -75.075 0.975
-2.925 -75.225 1.725
-2.325 -75.375 1.275
-5.775 -73.875 0.075
-0.825 -59.025 1.875
-0.975 -59.025 0.225
-3.525 -75.075 1.125
1.875 -59.475 0.975
-4.275 -74.775 1.125
-4.275 -74.775 1.275
-3.075 -75.225 0.525
-0.375 -75.525 -0.225
-0.375 -59.025 -1.125
-1.425 -75.525 -0.225
-1.425 -59.025 1.125
-3.975 -74.925 -1.875
-1.575 -59.025 1.275
0.975 -59.175 0.825
0.975 -59.175 0.975
-3.225 -75.225 0.675
1.575 -59.325 0.525
2.025 -59.475 0.675
2.025 -59.475 2.175
-1.875 -75.525 0.975
-1.875 -59.025 0.075
-7.725 -71.925 1.725
-4.125 -74.925 1.425
1.125 -59.175 1.125
-5.925 -73.875 0.375
-3.375 -75.225 0.225
-3.375 -75.225 0.975
1.725 -59.325 1.275
1.725 -59.325 0.375
-2.175 -59.025 -0.075
-3.525 -75.225 -2.625
1.875 -59.325 0.675
-0.825 -58.875 0.825
-0.675 -58.875 -1.125
-0.525 -58.875 -1.125
-3.075 -75.375 2.175
-3.075 -75.375 2.025
-3.075 -75.375 1.575
1.425 -59.175 0.675
1.425 -59.175 1.275
-1.275 -75.675 2.325
-2.475 -59.025 0.075
0.825 -59.025 0.825
-1.425 -75.675 2.925
-1.425 -75.675 3.375
-1.425 -75.675 3.225
-1.425 -75.675 1.275
-1.425 -58.875 -0.075
-0.075 -75.675 2.925
-0.075 -75.675 0.075
-1.575 -75.675 2.625
-0.075 -58.875 -0.075
-1.575 -58.875 0.375
-1.575 -58.875 -1.875
0.975 -59.025 0.975
0.975 -59.025 0.825
0.975 -59.025 0.675
-3.675 -75.225 1.425
0.075 -75.675 -1.575
-3.225 -75.375 0.825
-1.725 -58.875 0.075
1.575 -59.175 1.125
1.575 -59.175 0.525
-7.575 -72.375 2.175
-1.875 -58.875 0.375
3.375 -59.925 0.975
-2.775 -75.525 1.575
-3.375 -75.375 1.575
-3.375 -75.375 0.675
-3.375 -75.375 0.825
-3.375 -75.375 0.225
1.725 -59.175 0.675
1.725 -59.175 0.075
-2.325 -75.675 -0.975
-5.175 -74.625 2.175
-0.825 -75.825 3.075
-0.825 -58.725 1.125
-3.975 -75.225 1.725
-3.975 -75.225 1.275
-0.675 -75.825 -2.325
-0.975 -75.825 -0.225
-3.075 -75.525 0.375
1.425 -59.025 0.225
1.425 -59.025 0.375
-0.525 -75.825 2.775
-0.525 -75.825 4.125
-1.275 -58.725 1.875
-0.375 -58.725 1.275
-1.425 -75.825 0.075
-1.425 -58.725 1.725
-1.575 -75.825 1.125
-1.575 -58.725 1.725
-1.575 -58.725 0.675
-1.575 -58.725 0.075
3.075 -59.625 -2.625
3.075 -59.625 1.875
-3.225 -75.525 1.275
-3.225 -75.525 2.625
