# .PCD v0.7 - Point Cloud Data file format
VERSION 0.7
FIELDS x y z
SIZE 4 4 4
TYPE F F F
COUNT 1 1 1
WIDTH 2048
HEIGHT 1
VIEWPOINT 0 0 0 1 0 0 0
POINTS 2048
DATA ascii
-10.725 -80.775 -3.825
-11.325 -81.825 -1.575
-12.375 -81.975 0.225
-10.875 -82.125 -3.225
-10.575 -82.125 -3.225
-12.825 -82.125 1.125
-10.725 -82.275 -3.075
-12.975 -82.275 0.825
-15.375 -78.675 0.975
-11.925 -82.575 -2.025
-12.225 -82.575 -1.725
-14.925 -76.875 2.025
-11.625 -82.725 -0.075
-11.625 -82.725 0.225
-15.525 -78.975 0.075
-11.025 -82.725 0.375
-12.225 -82.725 -2.625
-10.725 -82.725 -3.525
-14.475 -75.975 0.375
-10.125 -82.575 0.225
-11.325 -82.875 2.925
-15.675 -78.375 0.525
-10.275 -82.725 0.225
-10.725 -82.875 0.825
-13.125 -82.725 3.525
-11.625 -83.025 0.525
-11.925 -83.025 0.975
-10.425 -82.875 0.975
-15.675 -80.025 1.125
-11.175 -83.025 0.675
-8.775 -81.975 -5.175
-10.875 -83.025 0.375
-10.275 -82.875 -3.825
-10.275 -82.875 -3.675
-11.625 -83.175 1.125
-14.775 -75.825 2.175
-11.775 -83.175 -3.675
-11.325 -83.175 3.075
-11.925 -83.175 0.975
-15.975 -79.425 0.375
-8.025 -81.375 0.375
-9.525 -82.725 0.975
-7.575 -80.625 -0.375
-15.975 -77.925 1.575
-7.875 -81.225 1.125
-10.575 -83.175 0.975
-7.575 -80.775 -0.375
-11.775 -83.325 1.125
-7.575 -80.925 -0.675
-9.375 -82.875 0.825
-9.375 -82.875 0.675
-16.275 -78.825 1.275
-11.475 -83.475 -0.675
-11.475 -83.475 0.375
-16.125 -77.625 1.125
-11.925 -83.475 -1.875
-8.475 -82.275 1.875
-11.025 -83.475 0.225
-12.975 -83.325 -1.725
-16.275 -77.925 1.725
-13.125 -83.325 0.825
-13.125 -83.325 0.525
-8.325 -82.275 1.725
-10.425 -83.475 -3.225
-12.075 -83.625 -2.025
-9.525 -83.175 -3.975
-10.875 -83.625 -3.375
-10.725 -83.625 0.525
-10.725 -83.625 -4.425
-14.775 -75.075 1.425
-7.425 -81.375 1.425
-16.575 -78.525 -0.075
-11.325 -83.775 -3.225
-11.325 -83.775 -5.325
-11.175 -83.775 -3.975
-12.975 -83.625 1.575
-8.475 -82.725 1.425
-7.725 -81.975 2.775
-14.625 -74.775 2.025
-16.575 -77.625 0.675
-7.875 -82.275 2.025
-9.225 -83.325 -5.625
-16.575 -77.475 1.425
-10.275 -83.775 -5.025
-6.825 -76.875 0.225
-7.275 -81.675 2.325
-9.975 -83.775 0.225
-10.425 -83.925 0.675
-10.425 -83.925 0.975
-16.425 -76.725 1.575
-11.775 -84.075 0.075
-11.475 -84.075 1.125
-11.325 -84.075 -3.675
-11.175 -84.075 -2.325
-10.275 -83.925 -0.975
-7.275 -81.825 2.175
-11.025 -84.075 -0.375
-11.025 -84.075 -3.825
-9.675 -83.775 1.125
-9.675 -83.775 1.725
-10.725 -84.075 -0.675
-10.725 -84.075 -6.075
-9.525 -83.775 -5.625
-11.625 -84.225 0.375
-11.475 -84.225 1.425
-11.475 -84.225 -0.375
-11.325 -84.225 1.275
-11.925 -84.225 -0.225
-7.575 -82.425 2.325
-10.275 -84.075 0.675
-10.275 -84.075 0.825
-12.225 -84.225 -4.275
-10.875 -84.225 -3.825
-10.875 -84.225 -0.375
-6.975 -81.675 2.625
-9.675 -83.925 0.675
-14.925 -83.175 -6.225
-16.875 -77.325 0.825
-6.525 -76.875 1.125
-9.975 -84.075 0.675
-6.525 -80.925 -0.375
-11.775 -84.375 -4.725
-11.475 -84.375 0.375
-11.775 -84.375 0.375
-15.075 -74.475 0.225
-11.175 -84.375 -0.375
-9.075 -83.775 1.575
-6.825 -81.675 0.525
-17.175 -78.075 2.625
-13.125 -84.225 0.675
-14.775 -83.475 0.375
-12.525 -84.375 -0.075
-10.725 -84.375 -3.225
-12.675 -84.375 0.075
-8.625 -83.625 2.175
-14.625 -83.625 0.975
-10.425 -84.375 -0.375
-12.825 -84.375 0.525
-12.825 -84.375 0.075
-9.825 -84.225 0.675
-17.325 -78.825 0.675
-11.625 -84.525 -0.225
-8.325 -83.475 2.475
-6.975 -82.125 1.575
-6.525 -76.275 1.125
-11.775 -84.525 0.225
-11.475 -84.525 -0.225
-11.325 -84.525 -0.375
-6.675 -81.675 0.525
-12.975 -84.375 0.525
-13.875 -84.075 0.075
-6.375 -76.575 2.025
-13.875 -84.075 -4.725
-8.775 -83.775 1.875
-17.175 -77.475 1.425
-17.325 -79.275 0.825
-17.325 -79.425 -0.225
-11.025 -84.525 -0.375
-6.225 -76.875 1.575
-13.125 -84.375 0.525
-14.325 -83.925 1.575
-17.325 -79.725 -0.075
-10.725 -84.525 -0.225
-14.625 -83.775 1.575
-9.975 -84.375 -1.725
-6.975 -82.275 0.975
-10.575 -84.525 -0.225
-6.825 -82.125 1.425
-10.425 -84.525 -1.725
-12.825 -84.525 0.375
-8.775 -83.925 -0.225
-11.625 -84.675 0.225
-17.025 -76.575 1.875
-11.775 -84.675 -0.225
-11.775 -84.675 -0.075
-11.925 -84.675 -0.225
-17.325 -77.475 2.025
-12.975 -84.525 0.525
-12.975 -84.525 0.975
-10.275 -84.525 -0.225
-12.075 -84.675 0.525
-11.175 -84.675 3.675
-11.175 -84.675 0.825
-17.475 -79.275 0.675
-6.975 -82.425 0.825
-17.475 -79.425 0.975
-10.125 -84.525 -0.225
-5.775 -78.075 2.025
-17.475 -79.575 1.275
-14.325 -84.075 1.425
-17.475 -79.725 -0.375
-17.475 -79.725 -0.225
-17.475 -79.725 1.425
-9.975 -84.525 1.275
-9.975 -84.525 0.975
-9.975 -84.525 1.575
-9.975 -84.525 -0.225
-17.475 -79.875 -0.075
-14.925 -83.775 0.675
-16.125 -74.925 0.525
-12.825 -84.675 0.075
-17.475 -77.625 1.875
-8.775 -84.075 -0.525
-9.825 -84.525 -5.175
-13.875 -84.375 0.075
-13.875 -84.375 1.575
-6.075 -76.575 1.875
-14.775 -83.925 0.825
-6.825 -82.425 0.825
-17.625 -78.825 1.275
-17.625 -78.675 1.725
-10.275 -84.675 0.375
-12.975 -84.675 0.975
-17.475 -77.475 0.975
-17.625 -79.125 0.675
-11.325 -84.825 0.825
-11.175 -84.825 -5.325
-11.025 -84.825 0.825
-11.025 -84.825 -5.475
-8.175 -83.775 5.175
-8.925 -84.225 -0.675
-10.125 -84.675 0.225
-10.125 -84.675 0.075
-9.225 -84.375 4.875
-17.625 -79.575 0.975
-6.075 -76.425 -1.425
-12.525 -84.825 -1.425
-12.525 -84.825 -0.075
-13.725 -84.525 0.075
-13.725 -84.525 0.225
-9.975 -84.675 0.525
-9.975 -84.675 -0.075
-9.975 -84.675 -1.275
-9.975 -84.675 0.375
-17.625 -79.875 -0.375
-6.225 -75.975 1.725
-12.825 -84.825 -0.225
-17.625 -77.625 0.975
-17.625 -77.625 1.425
-17.625 -77.625 1.575
-9.825 -84.675 -0.225
-17.475 -80.625 0.075
-17.475 -77.025 0.525
-14.775 -84.075 0.975
-14.775 -84.075 0.825
-11.625 -84.975 -0.075
-17.625 -80.175 0.525
-10.275 -84.825 0.825
-10.275 -84.825 0.975
-10.275 -84.825 0.675
-17.775 -78.675 1.725
-11.325 -84.975 -1.425
-17.775 -79.125 0.675
-12.075 -84.975 -5.775
-12.075 -84.975 0.675
-13.575 -84.675 -3.825
-17.775 -78.225 -0.225
-10.125 -84.825 0.525
-17.625 -77.325 0.825
-17.625 -80.325 0.225
-17.625 -80.325 -0.225
-14.025 -84.525 0.975
-16.425 -74.925 0.975
-12.375 -84.975 -5.625
-12.375 -84.975 -0.525
-16.575 -75.075 0.675
-12.525 -84.975 -0.075
-10.725 -84.975 -0.525
-13.725 -84.675 1.575
-17.625 -80.475 0.525
-9.975 -84.825 0.225
-10.575 -84.975 -0.525
-10.575 -84.975 -1.125
-17.775 -79.875 -0.075
-17.775 -79.875 0.375
-17.775 -77.775 1.575
-6.075 -75.975 2.025
-15.225 -83.925 1.125
-15.975 -74.325 2.475
-17.625 -80.625 0.075
-12.825 -84.975 0.525
-17.775 -80.025 -0.225
-9.375 -84.675 1.875
-13.875 -84.675 0.225
-10.275 -84.975 2.475
-12.975 -84.975 1.275
-12.975 -84.975 0.675
-12.975 -84.975 0.225
-10.275 -84.975 -5.175
-12.975 -84.975 -0.225
-11.625 -85.125 -1.575
-11.475 -85.125 -0.075
-11.775 -85.125 -0.075
-11.775 -85.125 0.375
-5.925 -76.125 1.875
-14.325 -84.525 -0.375
-13.575 -84.825 5.025
-17.625 -80.775 0.825
-17.775 -80.325 0.075
-12.375 -85.125 0.075
-13.725 -84.825 0.975
-13.725 -84.825 1.425
-13.725 -84.825 -0.525
-12.525 -85.125 -0.075
-15.225 -84.075 0.225
-16.875 -75.225 1.725
-17.775 -77.175 1.125
-5.925 -81.675 1.575
-8.775 -84.525 -0.225
-9.075 -84.675 -0.075
-9.075 -84.675 0.225
-8.475 -84.375 4.575
-5.775 -76.275 -2.625
-6.075 -75.675 1.575
-7.575 -83.775 1.875
-15.075 -84.225 0.525
-13.875 -84.825 -0.525
-5.625 -81.075 1.275
-6.225 -82.275 0.825
-12.825 -85.125 -0.225
-10.425 -85.125 -1.125
-12.825 -85.125 0.525
-15.525 -83.925 -0.075
-5.925 -81.825 1.275
-8.625 -84.525 2.325
-14.625 -84.525 1.875
-8.625 -84.525 2.625
-8.925 -84.675 -0.225
-14.325 -84.675 0.975
-8.925 -84.675 0.225
-10.275 -85.125 -1.425
-12.975 -85.125 -0.225
-13.575 -84.975 1.275
-9.675 -84.975 -0.075
-17.775 -76.875 -0.225
-15.375 -84.075 -0.225
-11.775 -85.275 -0.075
-5.625 -81.225 1.575
-14.025 -84.825 -0.375
-5.175 -79.275 -0.075
-12.075 -85.275 0.825
-11.175 -85.275 2.325
-10.125 -85.125 0.525
-17.925 -77.325 1.125
-17.925 -80.325 -0.225
-17.925 -77.325 0.975
-7.275 -83.625 2.325
-18.075 -79.425 0.225
-11.025 -85.275 3.525
-13.725 -84.975 -0.525
-9.525 -84.975 -0.525
-5.775 -75.975 2.025
-13.275 -85.125 1.575
-16.725 -74.775 0.825
-10.725 -85.275 -1.125
-14.775 -84.525 1.875
-17.625 -76.275 -0.225
-10.575 -85.275 -0.975
-16.875 -74.925 1.425
-18.075 -80.025 -0.075
-10.425 -85.275 -1.575
-12.825 -85.275 -4.575
-8.625 -84.675 0.075
-8.625 -84.675 -0.075
-14.625 -84.675 1.575
-17.625 -81.525 -3.975
-5.925 -82.125 0.975
-14.925 -73.125 0.675
-12.975 -85.275 1.125
-12.975 -85.275 -0.225
-12.975 -85.275 1.275
-13.575 -85.125 -2.625
-9.675 -85.125 -1.275
-9.675 -85.125 -0.675
-13.575 -85.125 0.975
-13.575 -85.125 -0.525
-11.775 -85.425 -0.075
-17.775 -76.425 -0.375
-18.075 -77.325 0.825
-12.225 -85.425 -3.975
-18.225 -79.425 -1.275
-12.375 -85.425 3.225
-10.875 -85.425 -2.775
-5.625 -81.675 1.725
-5.025 -78.075 0.675
-8.475 -84.675 0.075
-14.775 -84.675 1.575
-14.775 -84.675 1.275
-5.775 -75.675 2.025
-14.775 -72.975 0.525
-17.025 -74.925 0.975
-5.925 -75.375 -1.425
-5.925 -82.275 1.575
-15.075 -84.525 -3.825
-8.175 -84.525 -0.525
-10.575 -85.425 -1.425
-13.875 -85.125 -0.225
-13.875 -85.125 -0.675
-5.325 -81.075 0.975
-17.925 -76.575 -0.525
-16.125 -83.775 0.825
-6.075 -75.075 0.525
-17.175 -75.075 1.425
-16.725 -83.175 0.675
-5.625 -81.825 0.975
-5.625 -81.825 1.275
-5.625 -75.825 -2.925
-18.225 -77.625 0.525
-8.325 -84.675 0.075
-5.775 -82.125 1.725
-5.775 -75.525 1.575
-18.075 -76.875 1.125
-9.675 -85.275 -0.675
-9.675 -85.275 -0.225
-8.025 -84.525 -0.675
-5.925 -75.225 3.225
-11.775 -85.575 1.125
-11.925 -85.575 -3.375
-4.875 -78.375 1.125
-13.125 -85.425 -0.975
-5.625 -81.975 0.975
-14.775 -84.825 1.575
-5.475 -81.675 1.575
-5.475 -75.975 2.625
-13.725 -85.275 -3.375
-9.525 -85.275 1.425
-9.525 -85.275 -0.675
-5.175 -76.725 -2.925
-16.425 -83.625 -5.925
-15.075 -84.675 0.225
-5.775 -82.275 2.025
-5.775 -75.375 1.575
-16.125 -83.925 0.825
-16.125 -83.925 -0.375
-16.125 -83.925 0.975
-18.225 -77.175 1.275
-12.525 -85.575 -0.975
-16.875 -83.175 0.525
-16.875 -83.175 2.175
-15.975 -84.075 0.825
-15.975 -84.075 1.275
-18.375 -77.775 0.675
-13.875 -85.275 -0.675
-13.875 -85.275 -2.325
-17.025 -74.625 0.675
-15.825 -73.425 0.225
-14.625 -84.975 -1.725
-5.625 -75.525 1.725
-14.925 -84.825 1.725
-8.325 -84.825 0.075
-12.825 -85.575 -0.675
-12.825 -85.575 -2.175
-10.425 -85.575 2.475
-8.025 -84.675 -0.825
-13.575 -85.425 -0.525
-5.175 -81.225 1.125
-16.275 -83.925 -0.225
-16.275 -83.925 0.225
-16.275 -83.925 0.675
-16.275 -83.925 -0.375
-11.325 -85.725 -0.975
-4.725 -79.125 0.825
-4.725 -79.125 0.975
-4.725 -78.525 1.125
-14.775 -84.975 0.675
-11.175 -85.725 -0.075
-5.325 -81.675 4.575
-5.325 -81.675 1.425
-16.125 -84.075 0.225
-16.125 -84.075 1.275
-4.725 -78.375 0.675
-8.175 -84.825 0.075
-15.075 -84.825 -0.525
-15.075 -84.825 0.825
-12.225 -85.725 -0.225
-12.225 -85.725 0.675
-18.225 -80.925 1.125
-18.075 -76.275 -0.375
-12.375 -85.725 0.075
-9.975 -85.575 -1.575
-7.425 -84.375 0.525
-13.875 -85.425 -3.825
-18.225 -76.575 -0.525
-14.625 -85.125 -1.275
-8.625 -85.125 -0.675
-5.325 -75.825 2.475
-12.675 -85.725 -1.125
-17.775 -75.525 1.725
-5.475 -82.125 2.025
-13.425 -85.575 1.125
-9.825 -85.575 -2.625
-15.225 -72.825 0.375
-17.625 -75.225 2.025
-16.725 -83.625 -5.925
-16.275 -84.075 0.225
-16.275 -84.075 0.825
-16.275 -84.075 0.975
-6.975 -84.075 6.225
-16.875 -74.175 -1.875
-14.025 -85.425 -2.325
-18.225 -76.425 -0.375
-13.575 -85.575 -0.525
-16.125 -84.225 0.975
-16.125 -84.225 0.075
-5.775 -82.725 -2.475
-18.525 -77.475 -3.225
-5.325 -81.975 1.275
-5.325 -81.975 1.125
-14.775 -85.125 -1.125
-17.925 -75.675 1.125
-11.625 -85.875 -0.075
-4.575 -78.825 1.425
-17.175 -83.175 -0.225
-11.775 -85.875 0.675
-11.775 -85.875 -0.075
-4.575 -78.675 1.275
-5.475 -75.375 1.875
-8.775 -85.275 -0.225
-8.775 -85.275 -0.675
-11.325 -85.875 -2.025
-4.575 -79.125 2.325
-12.075 -85.875 0.525
-11.175 -85.875 0.075
-13.725 -85.575 -0.525
-13.725 -85.575 -3.675
-9.075 -85.425 -2.025
-9.075 -85.425 2.025
-12.225 -85.875 1.125
-12.225 -85.875 0.675
-5.025 -76.275 -2.775
-4.575 -79.425 0.675
-17.625 -75.075 1.125
-15.375 -84.825 3.825
-10.875 -85.875 -4.725
-9.975 -85.725 -2.925
-13.275 -85.725 -0.075
-12.525 -85.875 1.275
-12.525 -85.875 0.525
-14.925 -85.125 -1.275
-14.925 -85.125 -1.425
-18.075 -75.825 1.425
-18.075 -81.825 0.225
-16.425 -84.075 0.225
-16.425 -84.075 1.125
-8.625 -85.275 -0.675
-4.875 -81.075 1.275
-17.475 -74.775 0.975
-18.375 -76.575 -0.375
-15.225 -84.975 -0.525
-15.225 -84.975 -0.075
-4.575 -77.775 0.825
-13.425 -85.725 0.075
-13.425 -85.725 0.975
-9.825 -85.725 -3.075
-5.025 -81.525 1.125
-10.425 -85.875 -0.075
-7.725 -84.825 0.075
-14.025 -85.575 -0.375
-18.375 -76.425 -0.375
-7.275 -84.525 0.075
-18.075 -81.975 -2.925
-5.175 -81.975 1.125
-15.075 -85.125 0.075
-15.075 -85.125 -0.525
-8.775 -85.425 -0.825
-15.825 -84.675 2.925
-4.425 -78.675 1.275
-4.425 -78.675 1.875
-11.775 -86.025 0.825
-11.475 -86.025 -5.925
-11.775 -86.025 -0.075
-15.375 -84.975 -0.525
-17.775 -75.075 1.125
-4.425 -79.125 2.175
-11.925 -86.025 -0.075
-13.125 -85.875 0.975
-4.575 -77.325 0.825
-13.725 -85.725 0.075
-13.725 -85.725 -0.375
-18.525 -76.725 -0.825
-12.075 -86.025 -0.075
-16.875 -83.775 -6.525
-11.025 -86.025 0.075
-17.625 -74.775 1.275
-12.375 -86.025 0.525
-12.375 -86.025 1.425
-12.375 -86.025 -1.575
-10.875 -86.025 -0.375
-9.975 -85.875 0.375
-14.625 -85.425 1.875
-14.625 -85.425 -4.125
-8.625 -85.425 -2.325
-5.025 -81.825 0.375
-5.025 -81.825 0.975
-12.525 -86.025 0.075
-9.375 -85.725 0.975
-17.325 -83.325 1.575
-7.125 -84.525 0.225
-8.925 -85.575 -1.725
-4.875 -81.525 1.275
-4.425 -77.775 0.825
-4.425 -77.775 0.975
-12.675 -86.025 0.075
-12.675 -86.025 0.825
-10.575 -86.025 1.875
-5.475 -74.925 -3.225
-17.475 -83.175 2.325
-4.425 -77.625 0.525
-12.825 -86.025 0.075
-14.025 -85.725 -0.375
-18.525 -76.425 -0.375
-8.475 -85.425 -0.675
-5.025 -81.975 0.825
-5.025 -81.975 1.425
-13.575 -85.875 0.075
-13.575 -85.875 1.125
-5.175 -75.375 2.325
-4.425 -77.475 -0.225
-4.875 -81.675 1.275
-18.375 -81.675 1.275
-15.375 -85.125 -0.525
-7.875 -85.125 -1.725
-6.075 -83.625 1.125
-4.275 -78.825 0.975
-4.275 -78.825 -0.675
-4.275 -78.825 2.025
-4.275 -78.975 0.375
-4.425 -77.325 0.825
-13.125 -86.025 0.375
-10.125 -86.025 -0.225
-10.125 -86.025 0.075
-11.925 -86.175 0.225
-11.325 -86.175 -0.825
-13.725 -85.875 -6.075
-13.725 -85.875 0.375
-13.725 -85.875 0.525
-16.275 -73.125 1.575
-16.275 -84.525 -1.125
-11.175 -86.175 -1.275
-4.275 -78.375 0.825
-4.275 -79.275 0.075
-11.025 -86.175 -0.375
-12.225 -86.175 -1.275
-12.225 -86.175 -0.075
-14.925 -85.425 1.275
-5.025 -82.125 0.525
-18.225 -82.125 3.075
-7.125 -84.675 -1.725
-7.125 -84.675 -0.075
-17.475 -83.325 -0.075
-4.425 -80.475 0.975
-14.625 -85.575 0.075
-13.275 -86.025 -0.075
-13.275 -86.025 -0.975
-4.275 -78.075 2.025
-13.875 -85.875 2.325
-13.875 -85.875 -0.975
-13.875 -85.875 0.075
-13.875 -85.875 -0.825
-12.525 -86.175 0.975
-12.525 -86.175 0.375
-12.525 -86.175 1.125
-14.325 -85.725 1.125
-15.525 -85.125 -0.525
-17.925 -74.925 1.125
-17.925 -74.925 1.575
-17.925 -74.925 0.975
-15.975 -84.825 -0.375
-9.825 -86.025 0.525
-13.425 -86.025 0.225
-12.675 -86.175 0.825
-4.275 -77.775 0.675
-4.275 -77.775 2.925
-4.275 -77.775 0.825
-17.025 -83.925 -0.525
-17.175 -83.775 -0.075
-7.425 -84.975 2.925
-12.825 -86.175 3.675
-10.425 -86.175 1.875
-15.075 -85.425 1.125
-15.075 -85.425 1.275
-14.025 -85.875 -2.925
-14.025 -85.875 0.075
-14.025 -85.875 -3.375
-18.225 -82.275 0.825
-18.375 -81.975 0.975
-13.575 -86.025 0.225
-9.675 -86.025 -0.675
-9.675 -86.025 0.825
-18.525 -81.675 -0.225
-4.725 -81.675 0.225
-10.275 -86.175 1.575
-6.975 -84.675 -0.375
-5.325 -74.775 -3.225
-17.925 -82.875 0.825
-17.925 -74.775 0.825
-14.175 -85.875 1.275
-14.175 -85.875 0.225
-14.175 -85.875 0.975
-11.625 -86.325 -0.225
-17.625 -83.325 -0.075
-13.725 -86.025 0.525
-13.725 -86.025 0.675
-13.725 -86.025 0.825
-4.125 -78.675 -0.075
-4.125 -78.675 -0.525
-19.125 -78.675 -3.525
-11.325 -86.325 -1.275
-11.325 -86.325 -0.975
-11.925 -86.325 0.375
-4.875 -82.125 0.675
-4.875 -75.525 2.175
-12.075 -86.325 0.225
-18.225 -82.425 0.675
-14.625 -85.725 0.375
-4.125 -79.425 1.725
-19.125 -79.425 -0.075
-19.125 -79.425 -0.975
-4.125 -79.425 1.575
-12.225 -86.325 -0.375
-12.225 -86.325 0.075
-11.025 -86.325 -0.975
-16.875 -84.225 -3.975
-16.875 -84.225 -0.075
-13.275 -86.175 1.575
-17.775 -83.175 0.075
-4.275 -80.475 0.975
-4.275 -77.175 0.825
-17.775 -74.475 0.225
-17.775 -74.475 0.075
-10.875 -86.325 -0.675
-19.125 -79.575 -2.325
-19.125 -79.575 -1.125
-4.125 -79.575 1.275
-18.075 -74.925 0.825
-13.875 -86.025 0.525
-13.875 -86.025 -1.125
-14.325 -85.875 0.075
-5.925 -73.875 0.375
-4.125 -79.725 2.025
-12.525 -86.325 -0.375
-12.525 -86.325 -1.425
-18.975 -77.025 0.075
-5.325 -74.625 2.325
-5.325 -83.025 0.525
-4.125 -77.775 -0.225
-4.125 -77.775 -0.825
-12.675 -86.325 0.375
-12.675 -86.325 -0.375
-14.775 -85.725 -0.075
-14.775 -85.725 0.225
-4.425 -81.225 1.275
-14.025 -86.025 -0.825
-18.225 -75.075 0.375
-17.625 -74.175 1.575
-10.425 -86.325 -0.075
-12.825 -86.325 0.675
-4.125 -77.625 1.725
-13.575 -86.175 0.825
-13.575 -86.175 -0.675
-9.675 -86.175 1.575
-8.775 -85.875 -0.975
-14.475 -85.875 0.225
-8.775 -85.875 5.025
-4.575 -75.975 1.875
-18.675 -75.975 1.275
-18.075 -74.775 0.675
-7.575 -72.375 2.175
-16.125 -84.975 -0.375
-17.775 -83.325 0.075
-17.775 -74.325 0.375
-10.275 -86.325 0.075
-19.125 -77.475 -0.075
-4.125 -77.475 0.975
-17.025 -84.225 -0.225
-17.175 -84.075 -0.225
-13.725 -86.175 -1.425
-9.525 -86.175 -2.925
-9.525 -86.175 -0.375
-9.525 -86.175 0.975
-14.925 -85.725 0.225
-14.925 -85.725 1.125
-14.925 -85.725 0.075
-18.525 -75.525 0.075
-4.725 -82.125 0.525
-10.125 -86.325 -5.475
-13.125 -86.325 -3.375
-4.125 -77.325 1.125
-4.125 -80.325 0.375
-15.225 -85.575 -0.375
-3.975 -78.825 1.575
-3.975 -78.825 -0.675
-18.375 -75.225 0.225
-18.375 -75.225 -0.075
-11.775 -86.475 -0.225
-11.775 -86.475 0.225
-11.775 -86.475 0.375
-19.275 -78.675 0.375
-3.975 -78.675 1.275
-11.325 -86.475 -1.275
-11.925 -86.475 1.725
-11.925 -86.475 0.525
-19.275 -78.525 0.375
-3.975 -79.125 1.575
-3.975 -78.525 1.725
-3.975 -78.525 2.175
-14.625 -85.875 -0.825
-14.625 -85.875 1.425
-14.625 -85.875 0.375
-18.675 -75.825 1.275
-18.675 -81.825 -0.525
-18.675 -81.825 1.425
-12.075 -86.475 0.675
-12.075 -86.475 -0.375
-12.075 -86.475 -0.075
-19.275 -78.375 0.225
-3.975 -79.275 1.575
-3.975 -78.375 2.775
-5.775 -73.875 0.075
-17.475 -73.875 1.875
-18.225 -74.925 -1.575
-18.225 -74.925 0.825
-18.225 -74.925 0.525
-11.025 -86.475 -0.075
-19.275 -79.425 -2.175
-3.975 -79.425 1.725
-3.975 -79.425 1.425
-3.975 -78.225 1.575
-9.975 -86.325 -0.825
-19.125 -77.175 0.075
-17.625 -83.625 0.075
-5.625 -83.625 0.975
-10.875 -86.475 -0.525
-10.875 -86.475 1.575
-19.275 -79.575 -0.225
-4.275 -81.075 0.375
-4.275 -81.075 1.275
-4.275 -81.075 2.325
-14.325 -86.025 0.225
-5.175 -74.625 2.175
-19.275 -77.925 0.975
-3.975 -77.925 1.725
-3.975 -77.925 1.575
-3.975 -77.925 1.275
-16.275 -84.975 0.675
-16.275 -84.975 -0.375
-19.125 -77.025 -0.075
-13.425 -86.325 -2.175
-13.425 -86.325 -0.525
-9.825 -86.325 -1.275
-15.075 -85.725 0.075
-4.725 -82.275 0.675
-10.575 -86.475 -0.075
-10.575 -86.475 -0.375
-12.675 -86.475 0.075
-12.675 -86.475 0.525
-4.575 -81.975 0.375
-14.775 -85.875 -1.125
-14.775 -85.875 -1.275
-19.275 -79.875 -1.875
-19.275 -79.875 0.075
-18.375 -75.075 0.225
-15.375 -85.575 1.575
-7.875 -85.575 -1.275
-7.875 -85.575 1.425
-7.875 -85.575 1.275
-3.975 -77.775 0.375
-18.675 -75.675 -0.075
-7.125 -85.125 1.875
-16.125 -85.125 -0.375
-5.325 -83.325 1.125
-12.825 -86.475 3.225
-12.825 -86.475 1.875
-4.425 -81.675 0.375
-5.025 -82.875 0.375
-5.025 -82.875 0.225
-3.975 -77.625 0.525
-8.775 -86.025 -0.975
-18.825 -75.975 1.125
-4.425 -75.975 1.875
-4.425 -75.975 2.175
-6.075 -73.425 1.425
-13.575 -86.325 -1.875
-17.325 -84.075 0.825
-17.325 -84.075 -0.075
-13.575 -86.325 -2.025
-9.675 -86.325 2.025
-9.675 -86.325 -2.475
-19.125 -76.875 0.075
-6.525 -84.675 0.525
-17.475 -83.925 0.975
-19.275 -77.475 1.275
-19.275 -77.475 -0.075
-4.275 -81.375 2.175
-7.275 -85.275 1.875
-15.225 -85.725 -0.375
-15.225 -85.725 0.375
-18.525 -82.425 0.675
-18.525 -75.225 -0.075
-4.575 -82.125 0.525
-18.675 -75.525 0.075
-9.525 -86.325 1.725
-9.525 -86.325 -4.275
-9.525 -86.325 -1.425
-13.125 -86.475 0.075
-13.125 -86.475 0.975
-4.875 -82.725 0.525
-19.275 -77.325 0.975
-15.525 -85.575 1.575
-15.525 -85.575 0.975
-15.525 -85.575 3.825
-7.725 -85.575 -1.125
-7.725 -85.575 0.825
-7.725 -85.575 -0.225
-3.975 -77.325 1.125
-11.625 -86.625 2.175
-11.625 -86.625 -1.125
-18.825 -81.825 -5.475
-3.825 -78.825 0.675
-3.825 -78.825 1.275
-3.825 -78.825 2.325
-4.425 -81.825 0.375
-14.625 -86.025 -2.925
-8.625 -86.025 0.975
-6.825 -84.975 2.025
-16.425 -84.975 -4.575
-5.475 -83.625 0.825
-3.825 -78.675 2.025
-3.825 -78.975 1.575
-3.825 -78.975 -0.375
-19.425 -78.675 0.375
-11.925 -86.625 0.525
-3.825 -78.525 1.275
-19.425 -79.125 0.525
-3.825 -79.275 2.175
-3.825 -79.275 1.875
-3.825 -79.275 0.675
-3.825 -79.275 1.425
-3.825 -78.375 1.425
-19.425 -78.375 0.525
-19.425 -79.275 0.525
-19.425 -78.375 -1.125
-19.425 -79.275 0.075
-11.025 -86.625 -2.025
-19.425 -79.425 -0.225
-19.425 -78.225 0.525
-9.975 -86.475 -0.225
-9.975 -86.475 -2.025
-3.975 -80.475 0.375
-19.275 -77.175 1.125
-3.975 -77.175 -1.875
-3.975 -77.175 0.375
-8.925 -86.175 0.825
-8.925 -86.175 0.225
-17.925 -83.475 -4.725
-9.375 -86.325 1.275
-9.375 -86.325 1.575
-9.375 -86.325 -3.225
-3.825 -78.075 1.875
-3.825 -79.575 0.675
-19.425 -79.575 -1.275
-8.175 -85.875 -0.075
-15.075 -85.875 0.225
-4.575 -82.275 0.675
-4.575 -82.275 0.825
-18.675 -75.375 1.275
-12.525 -86.625 -0.225
-3.825 -79.725 1.575
-3.825 -79.725 1.425
-19.425 -77.925 0.075
-19.425 -77.925 -0.225
-5.925 -73.425 0.375
-15.375 -85.725 -0.375
-15.375 -85.725 0.375
-15.375 -85.725 0.075
-18.525 -82.575 2.625
-4.425 -81.975 0.375
-19.275 -77.025 -3.225
-19.275 -77.025 0.075
-19.275 -77.025 -0.075
-14.775 -86.025 0.375
-16.125 -85.275 0.825
-3.825 -79.875 1.575
-3.825 -79.875 2.025
-3.825 -79.875 1.875
-15.675 -85.575 0.675
-15.675 -85.575 -0.525
-15.675 -85.575 1.575
-15.675 -85.575 0.975
-15.675 -85.575 0.075
-15.675 -85.575 -0.375
-7.575 -85.575 -0.525
-7.575 -85.575 2.325
-17.625 -83.925 2.325
-4.125 -81.225 0.525
-17.625 -73.725 1.575
-8.775 -86.175 -5.775
-8.775 -86.175 0.225
-4.275 -75.975 0.825
-3.825 -80.025 2.175
-19.425 -80.025 -0.375
-9.675 -86.475 -3.075
-9.675 -86.475 1.725
-9.675 -86.475 -2.175
-17.775 -83.775 2.025
-3.975 -80.775 -0.075
-15.975 -85.425 0.825
-7.275 -85.425 -0.525
-7.275 -85.425 2.625
-5.025 -83.175 -0.375
-5.025 -83.175 0.225
-15.225 -85.875 -0.525
-4.575 -82.425 0.675
-19.425 -80.175 -0.225
-3.825 -77.475 0.675
-19.425 -77.475 0.825
-19.425 -77.475 0.975
-18.675 -75.225 1.425
-16.425 -85.125 -4.725
-18.825 -75.525 1.125
-5.325 -83.625 0.675
-5.325 -83.625 0.525
-4.425 -82.125 0.525
-14.925 -86.025 -0.225
-4.125 -81.375 0.675
-9.075 -86.325 -5.475
-15.525 -85.725 0.525
-18.525 -74.925 0.075
-7.725 -71.925 1.725
-9.525 -86.475 -2.175
-19.275 -76.725 0.675
-3.975 -76.725 -2.475
-18.975 -81.825 0.675
-10.125 -86.625 -0.225
-13.125 -86.625 -1.875
-3.825 -77.325 1.275
-3.825 -80.325 1.425
-19.425 -80.325 -0.375
-19.575 -78.825 0.225
-15.825 -85.575 0.975
-3.675 -78.825 0.825
-7.425 -85.575 -0.075
-7.425 -85.575 -0.525
-11.625 -86.775 -0.825
-19.575 -78.675 0.375
-19.575 -78.675 1.125
-19.575 -78.675 0.225
-3.675 -78.675 0.975
-3.675 -78.675 -2.175
-3.675 -78.675 2.475
-3.675 -78.975 1.725
-16.275 -85.275 3.975
-11.475 -86.775 -0.975
-11.475 -86.775 -1.425
-11.775 -86.775 0.075
-11.475 -86.775 -0.075
-5.925 -73.275 1.575
-19.575 -78.525 1.125
-19.575 -79.125 0.075
-3.675 -79.125 2.475
-11.325 -86.775 0.975
-19.575 -79.275 0.225
-19.575 -79.275 1.425
-19.575 -78.375 0.225
-3.675 -79.275 0.675
-3.675 -78.375 1.575
-8.925 -86.325 0.375
-3.825 -80.475 1.275
-19.575 -79.425 -0.975
-19.575 -79.425 -0.375
-19.575 -79.425 0.375
-19.575 -79.425 0.075
-19.425 -80.475 0.225
-3.675 -79.425 0.825
-19.575 -78.225 0.675
-19.575 -78.225 1.425
-12.225 -86.775 -0.225
-13.875 -86.475 0.825
-9.375 -86.475 -5.475
-18.825 -75.375 1.275
-4.425 -75.375 0.975
-4.425 -82.275 0.375
-19.575 -78.075 0.825
-19.575 -78.075 -0.075
-19.575 -79.575 -1.275
-19.575 -79.575 0.225
-4.575 -82.575 0.825
-3.675 -79.575 0.975
-12.375 -86.775 1.575
-7.125 -85.425 1.425
-7.125 -85.425 1.275
-7.575 -85.725 -0.525
-15.675 -85.725 0.075
-15.675 -85.725 0.975
-15.675 -85.725 -0.525
-15.675 -85.725 -0.375
-15.675 -85.725 1.575
-18.525 -74.775 0.975
-18.525 -74.775 0.075
-19.575 -79.725 0.375
-19.575 -79.725 0.525
-19.575 -79.725 -1.725
-3.675 -79.725 1.275
-19.575 -77.925 0.825
-12.525 -86.775 -2.025
-3.825 -77.025 -0.225
-3.825 -80.625 0.975
-19.425 -80.625 -0.525
-19.425 -77.025 -0.075
-17.925 -83.775 1.725
-3.975 -81.225 0.525
-3.975 -81.225 0.675
-19.575 -77.775 0.525
-19.575 -77.775 0.825
-10.575 -86.775 -0.375
-12.675 -86.775 -1.425
-8.775 -86.325 -0.675
-14.475 -86.325 -3.825
-14.475 -86.325 0.375
-15.975 -85.575 3.225
-9.675 -86.625 -2.325
-9.675 -86.625 -0.225
-5.175 -83.625 0.525
-19.575 -77.625 0.375
-19.575 -80.025 0.675
-19.575 -80.025 -0.375
-19.575 -80.025 -0.225
-19.425 -76.875 -0.825
-19.425 -80.775 0.525
-15.225 -86.025 0.675
-15.225 -86.025 0.525
-8.025 -86.025 -1.725
-8.025 -86.025 0.225
-14.925 -86.175 -1.725
-4.575 -82.725 0.975
-15.525 -85.875 1.425
-15.525 -85.875 0.825
-4.275 -82.125 0.525
-18.675 -74.925 0.075
-9.075 -86.475 -5.775
-6.075 -84.675 -0.075
-19.575 -80.175 0.525
-19.575 -80.175 0.075
-17.475 -84.375 -1.125
-3.675 -80.175 0.825
-19.575 -77.475 -3.975
-19.575 -77.475 0.675
-12.975 -86.775 1.575
-16.275 -85.425 1.575
-7.425 -85.725 -0.675
-15.825 -85.725 -0.225
-15.825 -85.725 0.225
-15.825 -85.725 0.675
-15.825 -85.725 -0.375
-19.425 -80.925 -0.225
-4.725 -83.025 0.525
-19.425 -76.725 -0.975
-19.425 -76.725 -0.225
-19.425 -76.725 0.525
-16.875 -84.975 -1.275
-19.575 -77.325 -0.375
-19.575 -80.325 -0.375
-3.675 -80.325 0.975
-3.675 -77.325 0.675
-3.525 -78.825 0.975
-19.725 -78.825 0.225
-19.725 -78.825 0.675
-19.725 -78.975 -0.075
-19.725 -78.675 2.475
-19.725 -78.675 -0.075
-19.725 -78.675 0.825
-11.925 -86.925 1.125
-5.325 -83.925 3.075
-16.725 -85.125 -0.825
-3.525 -79.125 0.825
-19.725 -78.525 2.325
-19.725 -78.525 0.075
-19.725 -79.125 0.075
-19.725 -79.125 -0.075
-7.125 -85.575 1.275
-3.525 -79.275 0.975
-3.525 -79.275 1.875
-19.725 -79.275 -0.825
-19.725 -79.275 0.075
-19.725 -78.375 0.825
-18.825 -82.575 1.575
-18.825 -75.075 0.675
-4.425 -82.575 0.825
-19.575 -77.175 -0.075
-19.575 -77.175 0.225
-4.275 -82.275 0.375
-12.225 -86.925 -0.375
-12.225 -86.925 0.225
-3.525 -79.425 0.825
-3.525 -78.225 2.775
-19.725 -79.425 1.275
-19.725 -79.425 -0.075
-19.725 -78.225 -0.075
-19.725 -78.225 0.825
-19.725 -78.225 0.225
-19.725 -78.225 0.075
-15.675 -85.875 0.825
-15.675 -85.875 1.725
-4.575 -82.875 0.525
-4.575 -82.875 0.675
-18.675 -74.775 0.675
-18.675 -74.775 -0.525
-18.675 -74.775 0.075
-18.675 -74.775 0.525
-3.525 -79.575 2.025
-14.775 -86.325 -1.875
-19.725 -79.575 0.525
-19.725 -79.575 0.075
-19.725 -79.575 -0.675
-19.725 -78.075 0.375
-19.725 -78.075 1.725
-12.525 -86.925 -0.525
-19.725 -79.725 1.425
-19.725 -79.725 -0.075
-19.725 -79.725 0.525
-19.725 -79.725 -0.225
-19.725 -77.925 0.075
-19.575 -77.025 0.375
-3.675 -80.625 1.575
-15.975 -85.725 -0.375
-15.975 -85.725 0.225
-15.975 -85.725 0.675
-7.275 -85.725 -0.525
-6.825 -85.425 3.075
-14.025 -86.625 0.825
-3.825 -81.225 0.675
-9.225 -86.625 -0.825
-5.025 -83.625 0.525
-18.225 -74.025 0.375
-14.475 -86.475 -6.375
-17.325 -84.675 -3.825
-5.925 -84.675 0.075
-3.525 -79.875 0.525
-19.725 -77.775 0.225
-19.725 -77.775 1.575
-19.725 -77.775 0.525
-19.725 -79.875 0.225
-19.725 -79.875 1.125
-19.725 -79.875 -0.075
-6.075 -84.825 0.825
-17.025 -84.975 -1.425
-17.025 -84.975 1.275
-8.025 -86.175 0.225
-4.275 -82.425 1.125
-19.575 -80.775 0.525
-19.575 -76.875 0.375
-19.575 -76.875 0.075
-19.575 -80.775 0.225
-10.425 -86.925 -0.225
-12.825 -86.925 1.125
-4.425 -82.725 0.975
-4.425 -82.725 0.825
-3.525 -80.025 0.825
-19.725 -77.625 0.225
-19.725 -80.025 0.075
-19.725 -80.025 -0.075
-19.725 -80.025 0.375
-19.125 -82.125 -5.325
-8.325 -86.325 -1.425
-16.275 -85.575 -0.075
-18.375 -74.175 0.225
-6.375 -72.525 0.825
-6.375 -72.525 0.525
-16.875 -85.125 -1.275
-16.875 -85.125 1.125
-5.325 -84.075 0.675
-17.925 -84.075 -0.675
-14.175 -86.625 -1.575
-14.175 -86.625 -2.025
-9.075 -86.625 1.725
-18.675 -83.025 -3.825
-19.725 -80.175 -0.075
-19.725 -80.175 -0.525
-19.725 -80.175 -2.025
-19.725 -77.475 0.225
-19.725 -77.475 0.825
-19.275 -81.825 0.225
-3.975 -75.825 1.275
-18.075 -83.925 1.275
-5.175 -83.925 0.525
-5.175 -83.925 0.375
-5.175 -83.925 0.675
-19.575 -80.925 0.375
-19.575 -76.725 0.375
-19.575 -76.725 -0.225
-9.525 -86.775 -0.225
-16.125 -85.725 -0.375
-18.525 -74.325 0.225
-3.525 -80.325 1.575
-19.725 -77.325 0.975
-19.725 -77.325 -0.225
-19.725 -77.325 0.225
-19.725 -77.325 2.025
-19.725 -80.325 0.375
-19.725 -80.325 -0.075
-16.575 -85.425 1.575
-3.375 -78.825 0.675
-3.375 -78.825 1.275
-19.875 -78.825 -0.225
-19.875 -78.825 2.475
-5.025 -83.775 0.675
-18.225 -73.875 0.525
-7.875 -86.175 -0.675
-4.275 -82.575 3.075
-3.375 -78.675 1.575
-3.375 -78.675 1.425
-18.975 -82.575 0.825
-18.975 -82.575 0.375
-3.825 -76.125 1.425
-3.825 -76.125 0.975
-8.175 -86.325 -1.875
-19.875 -79.125 0.525
-11.325 -87.075 3.375
-11.325 -87.075 0.675
-19.875 -79.125 0.375
-4.125 -82.275 1.575
-4.125 -75.375 1.125
-4.125 -75.375 1.425
-18.825 -74.775 -0.225
-18.825 -74.775 0.075
-4.425 -82.875 0.075
-4.425 -82.875 1.275
-4.425 -82.875 0.825
-19.575 -76.575 0.375
-19.575 -81.075 0.225
-19.875 -78.375 -0.075
-19.875 -79.275 -0.675
-3.675 -81.075 1.125
-3.675 -81.075 0.975
-13.875 -86.775 0.225
-9.375 -86.775 -0.225
-3.525 -80.475 0.675
-3.525 -80.475 1.425
-19.725 -80.475 -0.675
-19.725 -80.475 0.375
-19.725 -77.175 0.525
-19.725 -77.175 -0.825
-3.375 -79.425 -0.075
-19.875 -79.425 0.675
-12.225 -87.075 1.425
-14.775 -86.475 3.075
-19.275 -81.975 -0.375
-3.975 -81.975 0.975
-5.925 -84.825 1.125
-16.425 -85.575 0.975
-17.175 -84.975 -1.275
-17.775 -84.375 1.125
-19.875 -79.575 -0.075
-18.675 -74.475 -0.975
-13.425 -86.925 1.275
-6.225 -72.525 0.075
-3.525 -80.625 1.275
-19.725 -77.025 -0.375
-19.725 -77.025 0.375
-19.725 -80.625 -0.525
-19.725 -80.625 0.225
-3.375 -79.725 0.825
-19.875 -79.725 -0.525
-19.875 -79.725 0.225
-19.875 -79.725 0.525
-12.525 -87.075 0.825
-19.875 -77.925 0.675
-19.875 -77.925 0.075
-19.575 -81.225 -0.075
-3.675 -81.225 1.725
-3.675 -81.225 1.575
-3.825 -81.675 0.975
-19.875 -79.875 -0.075
-10.575 -87.075 -2.325
-10.575 -87.075 -4.125
-12.675 -87.075 1.275
-12.675 -87.075 0.375
-8.025 -86.325 -1.725
-4.125 -75.225 1.425
-15.525 -86.175 1.125
-4.275 -82.725 1.125
-18.975 -74.925 0.075
-8.325 -86.475 1.125
-19.275 -75.525 0.975
-3.525 -80.775 1.275
-3.525 -80.775 1.125
-19.725 -76.875 -0.075
-19.725 -76.875 0.525
-19.725 -80.775 0.525
-4.425 -83.025 0.825
-15.825 -86.025 0.825
-4.425 -83.025 1.275
-19.875 -80.025 -0.075
-9.075 -86.775 1.275
-14.625 -86.625 -0.375
-19.425 -81.825 0.075
-3.825 -81.825 0.975
-3.825 -75.825 1.575
-19.875 -80.175 0.525
-16.125 -85.875 3.675
-13.725 -86.925 -0.075
-3.525 -80.925 0.825
-3.525 -80.925 0.525
-19.725 -80.925 1.725
-19.725 -80.925 -0.375
-19.725 -76.725 0.525
-16.575 -85.575 0.975
-16.575 -85.575 1.125
-18.375 -73.875 0.225
-5.925 -84.975 0.525
-19.875 -80.325 0.525
-19.875 -80.325 -0.075
-15.375 -86.325 0.525
-7.875 -86.325 0.225
-7.875 -86.325 -5.025
-7.875 -86.325 0.075
-17.775 -84.525 -0.825
-8.175 -86.475 1.125
-7.575 -86.175 1.875
-7.575 -86.175 0.075
-4.275 -74.775 1.125
-4.275 -74.775 1.275
-4.275 -82.875 0.375
-18.975 -74.775 1.275
-18.975 -74.775 -0.075
-6.075 -85.125 1.125
-19.575 -81.525 0.225
-8.925 -86.775 -3.375
-20.025 -78.975 -2.775
-3.225 -78.675 0.975
-11.325 -87.225 -1.875
-6.825 -85.725 4.275
-16.425 -85.725 0.825
-16.425 -85.725 1.425
-16.425 -85.725 0.525
-16.425 -85.725 -0.075
-16.425 -85.725 -0.225
-16.425 -85.725 1.125
-3.225 -78.525 1.425
-3.225 -79.125 1.575
-3.525 -81.075 1.575
-19.725 -81.075 0.225
-11.175 -87.225 1.275
-7.275 -86.025 0.075
-7.275 -86.025 0.375
-7.275 -86.025 2.025
-3.825 -75.675 -0.075
-18.825 -74.475 1.275
-19.875 -80.475 0.375
-19.875 -80.475 0.525
-19.875 -80.475 -0.525
-9.975 -87.075 -0.075
-3.225 -79.425 1.125
-12.375 -87.225 -2.775
-19.875 -80.625 0.675
-19.875 -77.025 0.375
-19.875 -77.025 -1.275
-19.875 -77.025 0.225
-9.825 -87.075 -0.075
-19.575 -81.675 0.075
-3.675 -75.975 -0.825
-8.775 -86.775 0.375
-12.525 -87.225 1.425
-14.025 -86.925 0.225
-14.025 -86.925 0.975
-20.025 -79.725 0.375
-19.725 -81.225 5.625
-19.725 -81.225 -0.225
-3.525 -76.425 0.975
-4.125 -82.725 0.375
-7.725 -86.325 0.075
-7.725 -86.325 -0.075
-7.725 -86.325 0.525
-15.525 -86.325 0.675
-4.125 -74.925 1.425
-19.125 -74.925 0.075
-3.975 -75.225 1.725
-3.975 -75.225 1.275
-4.875 -83.925 0.525
-6.525 -85.575 3.825
-16.725 -85.575 0.975
-12.675 -87.225 0.975
-7.425 -86.175 -1.425
-7.425 -86.175 -0.825
-7.425 -86.175 0.375
-7.425 -86.175 1.425
-15.825 -86.175 -0.825
-20.025 -79.875 -0.075
-3.225 -79.875 -1.575
-4.275 -83.025 0.075
-19.875 -80.775 1.725
-19.875 -80.775 0.375
-3.375 -80.775 1.125
-19.875 -80.775 0.225
-19.875 -76.875 -1.275
-3.375 -76.875 1.425
-12.825 -87.225 -0.525
-12.825 -87.225 0.825
-20.025 -80.025 -1.275
-20.025 -80.025 -0.075
-3.225 -80.025 1.725
-5.775 -84.975 0.375
-5.775 -84.975 1.725
-5.475 -84.675 0.375
-18.825 -83.325 0.375
-7.125 -86.025 2.025
-7.125 -86.025 -1.575
-7.125 -86.025 0.375
-16.575 -85.725 -0.375
-16.575 -85.725 0.975
-16.575 -85.725 -0.225
-16.575 -85.725 0.375
-16.575 -85.725 0.675
-16.575 -85.725 1.125
-16.575 -85.725 1.575
-6.675 -85.725 0.075
-9.075 -86.925 1.275
-14.175 -86.925 0.375
-17.325 -85.125 -1.275
-3.675 -75.825 0.375
-8.625 -86.775 0.975
-12.975 -87.225 0.375
-3.225 -80.175 1.125
-17.175 -72.375 -4.125
-17.175 -85.275 -2.625
-19.875 -80.925 0.825
-19.875 -80.925 0.225
-9.525 -87.075 0.075
-19.275 -75.075 0.225
-19.125 -74.775 1.725
-19.125 -74.775 0.075
-19.125 -74.775 -0.225
-7.575 -86.325 0.975
-15.675 -86.325 0.975
-7.575 -86.325 0.075
-7.575 -86.325 1.725
-7.575 -86.325 -1.125
-7.575 -86.325 0.375
-7.575 -86.325 1.425
-5.025 -84.225 0.675
-17.025 -72.225 1.275
-6.825 -85.875 -1.125
-16.425 -85.875 1.125
-10.125 -87.225 -0.075
-13.125 -87.225 0.375
-8.925 -86.925 1.125
-14.325 -86.925 -0.075
-19.725 -81.525 0.075
-3.075 -78.825 0.375
-3.075 -78.825 1.725
-19.575 -81.975 0.075
-11.475 -87.375 0.525
-13.875 -87.075 0.075
-13.875 -87.075 0.825
-9.375 -87.075 -0.075
-19.875 -81.075 0.075
-3.375 -76.575 -0.075
-18.375 -84.075 1.875
-13.275 -87.225 -1.125
-20.025 -77.175 -0.675
-20.025 -77.175 -0.225
-3.075 -79.275 1.125
-11.025 -87.375 -0.825
-20.175 -78.225 -0.225
-6.975 -86.025 0.675
-6.525 -85.725 -0.375
-16.725 -85.725 -0.075
-16.725 -85.725 1.275
-16.725 -85.725 1.125
-16.725 -85.725 0.375
-12.375 -87.375 0.975
-12.375 -87.375 1.425
-10.875 -87.375 -0.825
-20.175 -79.575 -0.825
-7.725 -86.475 1.425
-7.725 -86.475 1.125
-8.775 -86.925 0.975
-3.975 -82.725 0.675
-3.975 -82.725 1.725
-3.975 -82.725 0.375
-19.725 -81.675 -0.375
-19.275 -74.925 0.075
-19.275 -74.925 -0.075
-3.975 -74.925 -1.875
-8.025 -86.625 0.675
-20.025 -80.625 -0.825
-19.875 -81.225 0.225
-19.875 -81.225 0.075
-17.775 -84.825 -0.225
-14.025 -87.075 0.375
-9.225 -87.075 -0.225
-15.825 -86.325 -0.975
-7.425 -86.325 0.975
-7.425 -86.325 0.075
-7.425 -86.325 0.825
-19.125 -74.625 -0.375
-19.125 -74.625 0.075
-4.125 -83.025 0.075
-10.725 -87.375 -0.825
-17.325 -72.375 0.525
-12.675 -87.375 1.125
-16.575 -85.875 1.725
-6.675 -85.875 -1.275
-6.675 -85.875 -0.375
-18.675 -83.775 -4.275
-7.125 -86.175 0.525
-16.125 -86.175 2.475
-17.175 -85.425 1.125
-5.025 -84.375 0.675
-5.025 -84.375 0.825
-5.025 -84.375 1.425
-3.225 -76.875 1.275
-3.225 -76.875 1.425
-17.175 -72.225 0.825
-12.825 -87.375 -1.275
-10.425 -87.375 -0.225
-19.875 -81.375 -0.225
-14.175 -87.075 0.525
-9.075 -87.075 -0.375
-3.525 -75.825 0.525
-3.525 -75.825 1.725
-19.725 -81.825 -5.175
-18.375 -84.225 -4.725
-6.225 -72.075 0.075
-15.375 -86.625 0.675
-15.375 -86.625 2.325
-19.425 -75.075 0.975
-7.575 -86.475 1.125
-3.975 -82.875 1.725
-3.975 -82.875 0.075
-3.975 -74.775 1.725
-3.975 -82.875 1.425
-20.175 -80.175 1.125
-20.175 -77.475 1.725
-13.725 -87.225 -0.225
-3.225 -80.925 0.975
-8.175 -86.775 -3.675
-16.875 -85.725 -0.075
-16.875 -85.725 0.975
-6.375 -85.725 -0.375
-19.125 -83.175 -0.075
-7.275 -86.325 0.525
-10.125 -87.375 -0.375
-8.925 -87.075 1.275
-19.875 -81.525 0.225
-19.725 -81.975 0.075
-3.525 -75.675 0.825
-3.525 -75.675 1.425
-3.525 -75.675 1.275
-3.225 -81.075 0.525
-17.775 -84.975 0.525
-17.775 -84.975 -0.225
-4.275 -83.475 1.275
-6.975 -86.175 0.375
-5.625 -85.125 0.675
-17.625 -85.125 1.125
-17.625 -85.125 1.725
-17.925 -84.825 0.075
-6.525 -85.875 -0.225
-16.725 -85.875 -0.525
-2.925 -78.975 -3.375
-2.925 -78.675 1.125
-11.475 -87.525 -0.075
-20.325 -78.525 5.925
-13.275 -87.375 0.675
-13.275 -87.375 0.075
-9.975 -87.375 -5.025
-20.175 -80.475 -2.325
-12.075 -87.525 1.425
-7.725 -86.625 -0.675
-7.725 -86.625 1.575
-15.525 -86.625 0.825
-2.925 -79.425 -2.025
-2.925 -79.425 1.425
-20.325 -78.225 0.525
-2.925 -78.225 1.875
-5.025 -84.525 0.975
-19.425 -74.925 -0.075
-11.025 -87.525 -0.225
-17.325 -72.225 0.675
-3.975 -83.025 0.225
-3.675 -75.225 1.425
-19.875 -81.675 0.075
-19.875 -81.675 0.225
-19.875 -75.975 0.525
-20.325 -78.075 1.575
-10.875 -87.525 -0.225
-10.875 -87.525 -0.375
-14.025 -87.225 -3.825
-20.025 -81.225 0.075
-13.425 -87.375 0.225
-13.425 -87.375 -0.375
-4.425 -73.875 -2.025
-6.675 -86.025 -1.875
-4.875 -84.375 1.425
-17.175 -85.575 -0.675
-17.175 -85.575 -0.375
-17.175 -85.575 -0.075
-2.925 -79.725 1.575
-3.525 -75.525 1.425
-3.525 -75.525 1.725
-19.125 -74.325 -0.075
-7.125 -86.325 -1.875
-4.125 -83.325 1.275
-19.125 -83.325 0.075
-19.725 -82.125 0.375
-12.525 -87.525 1.275
-10.725 -87.525 0.525
-17.025 -85.725 -0.075
-2.925 -79.875 -1.725
-20.175 -80.775 0.675
-14.175 -87.225 0.375
-6.825 -86.175 4.425
-20.025 -76.275 0.525
-20.025 -81.375 -0.225
-3.225 -81.375 0.375
-3.375 -75.825 0.525
-3.375 -75.825 0.375
-8.625 -87.075 0.225
-18.975 -74.025 -0.225
-14.625 -87.075 -3.525
-14.625 -87.075 0.525
-20.325 -77.625 -0.525
-7.575 -86.625 3.825
-3.825 -82.875 0.825
-19.425 -74.775 0.975
-19.425 -74.775 -0.075
-19.575 -75.075 0.075
-19.575 -75.075 0.825
-18.675 -73.575 1.875
-7.875 -86.775 1.575
-7.875 -86.775 0.825
-19.275 -83.175 -0.075
-3.975 -83.175 0.225
-3.975 -83.175 1.275
-19.275 -74.475 -0.075
-17.925 -84.975 -0.225
-17.925 -84.975 1.125
-8.175 -86.925 0.225
-15.075 -86.925 1.275
-9.525 -87.375 1.425
-17.775 -85.125 -0.075
-17.775 -85.125 1.875
-5.475 -85.125 0.675
-2.925 -80.175 1.125
-20.325 -77.475 1.275
-12.975 -87.525 0.225
-12.975 -87.525 1.125
-12.975 -87.525 1.275
-10.275 -87.525 -0.075
-5.175 -72.825 0.975
-17.625 -72.375 0.525
-5.025 -84.675 1.425
-18.225 -84.675 1.875
-8.925 -87.225 0.675
-14.325 -87.225 0.075
-6.525 -86.025 -2.175
-6.975 -86.325 1.875
-6.975 -86.325 0.525
-13.125 -87.525 0.225
-10.125 -87.525 -0.225
-19.875 -81.975 -0.225
-3.375 -75.675 0.975
-3.375 -75.675 0.825
-3.375 -75.675 1.575
-3.375 -75.675 2.025
-19.875 -75.675 -1.125
-17.325 -85.575 -0.075
-11.625 -87.675 -0.075
-2.775 -78.825 1.425
-11.475 -87.675 -0.075
-11.775 -87.675 1.275
-2.775 -78.975 1.575
-20.475 -78.675 -0.975
-11.925 -87.675 1.125
-11.325 -87.675 2.925
-20.325 -80.475 -2.625
-2.925 -80.475 1.425
-2.775 -79.125 1.725
-19.575 -74.925 -0.075
-3.675 -74.925 0.975
-3.675 -74.925 1.125
-15.825 -86.625 -0.375
-7.425 -86.625 1.425
-11.175 -87.675 -0.225
-2.775 -79.275 1.725
-4.275 -83.775 1.125
-3.525 -75.225 -2.625
-14.475 -87.225 -0.825
-2.775 -78.225 1.875
-16.125 -86.475 -0.375
-3.975 -83.325 1.275
-18.675 -84.225 0.975
-9.225 -87.375 -0.225
-9.225 -87.375 1.725
-18.675 -73.425 1.275
-10.875 -87.675 -0.975
-2.925 -80.625 1.575
-2.925 -80.625 -0.225
-20.325 -80.625 -2.625
-13.425 -87.525 2.625
-13.425 -87.525 0.525
-3.375 -75.525 0.825
-3.375 -75.525 2.325
-3.375 -75.525 -1.875
-3.375 -75.525 0.225
-19.875 -82.125 0.075
-8.325 -87.075 0.225
-8.325 -87.075 0.075
-8.325 -87.075 0.525
-10.725 -87.675 -0.375
-19.125 -74.025 -0.225
-4.125 -83.625 1.125
-6.825 -86.325 0.675
-17.925 -85.125 1.275
-17.925 -85.125 -0.225
-18.825 -84.075 2.625
-16.875 -86.025 -3.675
-5.175 -84.975 -1.425
-5.175 -84.975 1.125
-10.575 -87.675 -0.375
-10.575 -87.675 -0.225
-10.575 -87.675 -4.875
-10.575 -87.675 0.975
-2.925 -80.775 1.125
-2.925 -80.775 1.725
-2.925 -80.775 0.975
-8.625 -87.225 2.025
-20.025 -81.825 -0.075
-3.225 -75.825 1.425
-3.225 -75.825 1.275
-3.225 -75.825 0.375
-5.025 -84.825 1.425
-5.025 -84.825 1.275
-5.025 -72.825 2.475
-3.225 -81.825 -0.975
-14.175 -87.375 0.225
-19.575 -82.875 0.225
-19.575 -82.875 -2.625
-7.875 -86.925 1.725
-7.875 -86.925 0.375
-3.525 -75.075 1.125
-12.825 -87.675 1.275
-15.975 -86.625 -4.725
-5.775 -85.575 1.725
-17.475 -85.575 0.675
-3.375 -75.375 0.675
-3.375 -75.375 1.575
-3.375 -75.375 0.825
-3.375 -75.375 0.225
-6.525 -86.175 1.275
-6.525 -86.175 -0.375
-6.525 -86.175 -1.425
-18.975 -73.725 -0.075
-18.975 -73.725 0.075
-18.975 -73.725 2.025
-17.325 -85.725 -0.375
-20.325 -76.725 -0.525
-6.975 -86.475 0.075
-10.275 -87.675 -0.075
-10.275 -87.675 -0.225
-3.975 -83.475 0.675
-14.325 -87.375 -0.525
-8.475 -87.225 -3.825
-14.775 -87.225 0.525
-3.225 -75.675 0.975
-3.225 -75.675 0.375
-3.225 -75.675 0.825
-3.225 -75.675 2.475
-18.675 -73.275 1.875
-10.125 -87.675 -0.375
-6.675 -86.325 0.075
-6.675 -86.325 0.675
-6.675 -86.325 0.525
-6.675 -86.325 1.575
-6.675 -86.325 1.875
-6.675 -86.325 -0.825
-19.125 -73.875 -0.225
-13.875 -87.525 1.125
-13.875 -87.525 -0.525
-13.875 -87.525 -3.375
-3.525 -82.725 0.675
-19.725 -82.725 0.225
-3.525 -74.925 0.975
-19.575 -74.625 1.125
-18.825 -84.225 2.475
-4.425 -84.225 1.425
-2.625 -78.825 1.125
-2.625 -78.825 1.275
-20.625 -78.825 -0.975
-17.025 -86.025 0.525
-19.875 -82.425 -0.375
-8.025 -87.075 1.275
-11.475 -87.825 0.075
-11.475 -87.825 1.575
-2.625 -78.975 1.725
-2.625 -78.675 0.825
-3.375 -75.225 0.975
-3.375 -75.225 0.225
-9.975 -87.675 -0.525
-13.275 -87.675 1.125
-7.125 -86.625 0.075
-16.125 -86.625 -0.225
-16.125 -86.625 -0.375
-16.125 -86.625 -0.975
-3.825 -83.325 1.275
-11.925 -87.825 0.975
-2.625 -79.125 1.725
-19.425 -74.325 0.075
-12.075 -87.825 0.975
-20.175 -81.675 -0.225
-5.175 -85.125 0.075
-12.225 -87.825 2.175
-5.025 -84.975 -0.075
-5.025 -84.975 1.575
-8.325 -87.225 0.375
-8.325 -87.225 3.825
-20.025 -82.125 0.075
-20.025 -82.125 1.125
-3.225 -82.125 -0.075
-3.225 -75.525 2.325
-3.225 -82.125 0.825
-3.225 -75.525 2.625
-3.225 -75.525 1.275
-3.225 -75.525 2.025
-6.825 -86.475 0.075
-6.825 -86.475 0.975
-6.825 -86.475 1.125
-13.425 -87.675 0.225
-19.275 -74.025 -0.075
-4.875 -84.825 0.075
-10.875 -87.825 0.525
-10.875 -87.825 0.975
-2.625 -79.575 1.875
-18.375 -72.825 0.375
-18.975 -84.075 2.625
-2.625 -79.725 1.875
-12.525 -87.825 -1.425
-12.525 -87.825 0.525
-5.775 -85.725 1.725
-17.475 -85.725 -0.225
-18.525 -84.675 -5.925
-4.725 -84.675 2.175
-7.575 -86.925 0.975
-3.525 -74.775 2.025
-14.625 -87.375 0.525
-8.625 -87.375 4.275
-12.675 -87.825 -0.075
-10.575 -87.825 1.125
-10.575 -87.825 -0.375
-13.575 -87.675 0.225
-3.675 -83.175 0.825
-3.375 -75.075 0.675
-3.375 -75.075 1.125
-3.375 -75.075 -1.125
-19.875 -75.075 0.675
-19.875 -82.575 0.225
-3.375 -75.075 0.975
-20.475 -76.875 -0.375
-7.275 -86.775 0.975
-7.275 -86.775 1.425
-19.575 -74.475 0.825
-3.675 -74.475 1.275
-20.325 -81.375 1.425
-5.925 -85.875 -2.475
-6.525 -86.325 -0.375
-6.525 -86.325 0.075
-6.525 -86.325 1.425
-2.625 -80.025 1.275
-8.175 -87.225 0.675
-8.175 -87.225 0.075
-19.425 -83.475 0.225
-3.225 -75.375 0.825
-19.425 -74.175 -0.375
-18.825 -73.275 -0.375
-12.975 -87.825 1.275
-14.325 -87.525 -3.075
-6.675 -86.475 0.975
-6.675 -86.475 0.825
-6.675 -86.475 -0.975
-14.775 -87.375 -2.775
-3.975 -83.775 -0.375
-3.075 -75.675 2.025
-3.975 -83.775 1.725
-4.275 -84.225 1.275
-18.975 -73.425 0.075
-18.975 -73.425 -0.525
-18.075 -85.275 -0.225
-5.175 -85.275 -0.225
-5.175 -85.275 0.825
-7.425 -86.925 0.825
-7.425 -86.925 1.425
-17.925 -85.425 0.675
-17.925 -85.425 -0.075
-17.925 -85.425 1.725
-5.025 -85.125 3.675
-18.225 -85.125 0.525
-13.125 -87.825 -0.075
-3.525 -74.625 0.825
-3.525 -74.625 0.375
-19.725 -74.625 0.675
-19.725 -83.025 -0.225
-19.875 -82.725 0.375
-7.725 -87.075 1.725
-7.725 -87.075 -0.675
-7.725 -87.075 1.875
-3.375 -74.925 1.125
-3.375 -74.925 1.425
-19.875 -74.925 0.375
-4.875 -84.975 1.275
-4.875 -84.975 1.425
-4.875 -84.975 1.125
-18.375 -84.975 -3.225
-17.775 -85.575 0.375
-19.575 -74.325 0.675
-3.675 -74.325 -3.975
-8.025 -87.225 0.075
-20.025 -82.425 0.225
-3.225 -75.225 0.675
-4.725 -84.825 1.275
-9.975 -87.825 0.075
-2.475 -78.825 0.975
-11.775 -87.975 1.275
-11.325 -87.975 2.025
-11.925 -87.975 1.575
-2.925 -81.675 2.475
-20.325 -81.675 -0.675
-6.375 -86.325 0.825
-19.125 -73.575 0.375
-19.125 -73.575 0.075
-4.125 -84.075 0.975
-4.125 -73.575 1.725
-2.925 -75.975 2.475
-16.425 -86.625 -0.375
-16.425 -86.625 -0.825
-12.075 -87.975 -4.875
-17.475 -85.875 0.075
-14.925 -87.375 0.525
-14.925 -87.375 0.375
-20.175 -82.125 0.525
-20.175 -82.125 -0.075
-3.075 -75.525 0.375
-12.225 -87.975 0.525
-20.625 -77.025 -1.575
-2.625 -77.025 0.075
-2.625 -80.625 0.825
-2.625 -80.625 4.575
-13.425 -87.825 1.125
