# .PCD v0.7 - Point Cloud Data file format
VERSION 0.7
FIELDS x y z
SIZE 4 4 4
TYPE F F F
COUNT 1 1 1
WIDTH 2048
HEIGHT 1
VIEWPOINT 0 0 0 1 0 0 0
POINTS 2048
DATA ascii
10.275 38.475 -0.375
10.275 38.475 -0.075
10.275 38.625 -0.075
10.125 38.475 0.075
10.125 38.325 -0.075
10.725 38.925 -0.375
10.725 38.925 -0.075
10.875 38.175 -1.425
10.575 39.075 0.075
9.825 38.475 -2.175
10.725 39.075 -0.075
10.875 39.075 0.375
11.175 38.475 -5.925
10.725 39.225 -0.075
10.725 39.225 -0.225
10.425 39.375 -2.325
10.725 39.375 -0.225
11.025 39.225 -0.075
9.675 37.875 0.075
10.875 39.375 -0.075
10.425 39.525 -2.475
10.425 39.525 -1.575
10.575 39.525 -2.775
11.025 39.375 -0.375
11.025 39.375 -0.225
11.025 39.375 0.525
11.325 39.075 1.125
9.525 37.875 0.225
11.325 37.875 1.425
11.175 39.375 0.375
11.175 39.375 0.225
10.575 39.675 -3.075
10.575 39.675 -2.925
9.525 37.725 -0.225
9.525 37.725 0.075
9.675 37.575 0.075
11.025 39.525 -0.075
11.625 38.325 -1.725
10.875 39.675 -0.225
11.475 39.225 -1.575
9.525 37.575 0.075
11.625 38.025 0.225
11.625 38.025 -0.225
9.375 37.725 0.075
9.375 37.725 0.225
11.475 37.725 0.375
11.475 37.725 0.675
11.475 37.725 0.225
11.175 37.425 -3.225
11.175 37.425 0.225
11.175 37.425 0.525
11.025 39.675 -0.225
11.625 39.075 -1.725
11.625 37.875 0.375
11.775 38.625 0.225
11.325 39.525 -1.275
11.025 37.275 0.225
11.775 38.175 0.225
11.775 38.175 0.525
9.375 37.575 0.075
9.375 37.575 -0.225
9.525 37.425 0.525
11.325 37.425 0.225
11.325 37.425 0.525
10.725 37.125 0.075
11.625 37.725 -1.125
11.625 37.725 0.225
11.625 37.725 -0.975
11.775 38.025 0.825
11.775 38.025 0.525
11.175 37.275 0.525
11.175 37.275 0.225
11.775 39.075 -1.875
11.325 39.675 0.525
11.325 39.675 0.075
11.625 39.375 -0.825
11.775 37.875 0.075
11.775 37.875 0.375
11.775 37.875 0.525
11.025 37.125 0.225
10.125 39.975 -0.075
11.925 38.475 0.525
11.925 38.475 0.675
11.475 37.425 0.225
11.925 38.625 0.225
11.625 37.575 0.525
11.625 37.575 0.675
11.625 37.575 -0.375
11.325 37.275 0.225
11.325 37.275 0.075
10.575 36.975 0.075
11.925 38.175 1.125
9.975 39.975 -0.075
10.725 36.975 0.225
11.775 37.725 0.075
11.775 37.725 0.525
11.175 37.125 0.375
11.925 38.025 0.225
11.475 39.675 -0.825
11.475 39.675 -0.075
10.875 36.975 0.225
11.025 39.975 -0.225
11.325 39.825 -0.075
11.325 39.825 -2.025
11.775 39.375 -0.825
11.625 37.425 0.375
11.475 37.275 0.225
11.925 37.875 -0.075
11.025 36.975 0.225
11.325 37.125 0.075
10.125 40.125 -1.275
9.675 39.975 0.525
12.075 38.475 0.525
12.075 38.475 0.225
11.175 39.975 -0.075
12.075 38.325 -1.425
12.075 38.325 1.725
12.075 38.325 -0.075
12.075 38.775 0.375
10.575 36.825 0.075
12.075 38.175 -0.375
12.075 38.175 0.375
11.925 37.725 0.225
11.475 39.825 -0.375
11.475 39.825 -0.075
11.475 39.825 -0.825
11.175 36.975 0.075
11.175 36.975 0.225
10.725 36.825 0.075
12.075 38.025 0.375
12.075 38.025 0.225
9.825 40.125 0.525
11.475 37.125 -0.225
10.875 36.825 0.075
10.875 36.825 0.225
12.075 39.075 0.225
10.425 40.275 -0.075
10.275 40.275 -0.075
10.575 40.275 -0.225
9.675 40.125 0.375
10.725 40.275 -1.575
10.725 40.275 -0.075
12.225 38.475 0.375
12.225 38.475 0.525
12.225 38.475 0.225
12.075 39.225 -1.275
12.075 39.225 -2.175
11.475 39.975 -0.975
11.475 39.975 0.375
11.475 39.975 -1.125
12.225 38.325 -0.075
12.225 38.775 0.675
12.075 37.725 0.225
10.875 40.275 -2.175
10.875 40.275 -2.325
12.225 38.175 -0.375
12.225 38.175 -0.675
11.925 37.425 -3.975
10.125 36.675 -2.475
10.725 36.675 -0.075
12.225 38.025 0.075
10.875 36.675 0.075
12.225 39.075 -0.075
12.225 39.075 -0.225
11.625 39.975 2.325
11.325 36.825 0.225
11.925 39.675 -1.425
11.175 40.275 -3.075
12.225 39.225 -0.975
12.225 39.225 -1.425
12.225 39.225 -0.225
10.125 40.425 -1.425
10.125 40.425 0.075
12.375 38.475 0.225
12.375 38.475 0.975
12.375 38.475 -0.225
12.375 38.475 -0.375
12.375 38.775 0.525
12.375 38.775 -0.375
10.875 40.425 -1.425
11.325 40.275 -0.075
12.375 38.925 -1.875
11.775 39.975 0.075
11.625 40.125 0.075
12.375 39.075 -0.375
12.375 39.075 0.075
11.475 40.275 -0.075
10.425 40.575 -0.075
10.275 40.575 -1.125
12.375 39.225 -0.225
10.725 40.575 0.075
12.225 37.425 -2.925
12.525 38.475 0.075
12.525 38.475 -0.375
11.925 39.975 -2.025
12.525 38.625 -0.675
12.525 38.625 -0.225
11.775 40.125 -2.025
11.775 40.125 0.075
11.775 40.125 -0.075
11.775 40.125 -0.225
11.175 36.525 -1.425
12.525 38.775 1.275
12.525 38.775 0.375
10.425 36.375 -0.225
11.625 40.275 -1.875
12.525 38.925 0.075
12.525 38.925 2.625
12.375 37.575 0.075
9.975 36.375 -0.975
12.525 39.075 0.825
12.525 39.075 0.075
12.525 39.075 -0.525
12.525 37.875 -0.225
12.525 39.225 -0.075
10.575 40.725 0.975
10.575 40.725 0.075
11.775 40.275 0.375
11.775 40.275 0.525
12.525 37.725 0.075
12.525 37.725 -1.425
10.125 40.725 1.725
10.725 40.725 0.225
12.675 38.625 -0.075
12.675 38.625 0.075
12.675 38.625 0.375
10.875 40.725 0.375
12.675 38.775 -0.375
12.675 38.775 0.375
12.675 38.775 -4.275
12.525 39.375 0.825
12.525 39.375 0.375
12.525 39.375 0.225
12.675 38.925 0.675
12.525 37.575 0.825
11.025 40.725 0.375
11.325 36.375 1.125
12.675 39.075 -1.875
11.475 40.575 2.325
11.175 40.725 0.375
10.425 40.875 0.525
10.275 40.875 0.675
10.575 40.875 0.075
12.825 38.475 -0.375
12.825 38.625 0.375
9.975 40.875 -0.525
10.875 40.875 0.375
10.875 40.875 0.525
12.675 39.375 0.075
12.675 39.375 0.225
12.825 38.775 -0.375
12.825 38.175 -0.075
12.825 38.925 0.975
12.825 38.925 0.225
10.125 36.075 0.525
10.125 36.075 -1.125
11.025 40.875 1.725
9.975 36.075 -1.125
12.675 39.525 0.525
12.675 39.525 1.125
12.525 39.825 -1.275
9.675 40.875 -0.825
11.175 40.875 0.375
12.825 39.225 1.275
9.075 36.375 0.225
10.575 41.025 0.675
11.625 40.725 2.175
12.375 40.125 -2.625
10.125 41.025 -0.525
10.725 41.025 0.525
12.825 39.375 0.075
9.975 41.025 -0.525
10.875 41.025 0.525
10.275 35.925 -1.125
12.975 38.925 0.375
11.025 41.025 0.375
8.925 36.375 0.225
11.775 40.725 2.325
11.775 40.725 2.475
12.825 39.525 0.525
12.825 39.525 0.225
9.975 35.925 0.375
12.975 39.075 0.225
9.375 36.075 0.075
9.825 35.925 0.375
9.075 36.225 0.075
9.075 36.225 0.225
12.975 39.225 0.075
10.425 41.175 0.375
10.575 41.175 -0.975
11.325 41.025 -1.725
12.975 39.375 0.525
9.225 36.075 0.075
10.875 41.175 0.225
8.925 36.225 -0.075
13.125 38.925 -1.425
10.125 35.775 -2.175
12.975 39.525 0.375
9.975 35.775 0.375
12.075 40.725 -2.475
12.075 40.725 0.225
11.175 41.175 0.075
11.625 41.025 2.025
11.625 41.025 1.875
13.125 39.225 0.225
11.925 40.875 0.075
11.325 41.175 0.225
11.325 41.175 2.325
10.425 41.325 -1.725
10.575 41.325 0.375
9.225 35.925 0.075
13.125 39.375 0.675
8.925 36.075 0.525
11.925 36.075 -2.025
10.875 41.325 0.075
12.225 40.725 -2.625
12.225 40.725 0.075
11.775 41.025 0.075
9.525 35.775 0.075
11.325 35.775 -5.175
12.975 39.825 -1.425
11.025 41.325 0.525
11.025 41.325 0.075
11.025 41.325 0.675
13.125 39.525 0.375
12.075 40.875 -0.225
12.075 40.875 0.075
12.075 40.875 0.675
12.075 40.875 0.525
9.075 35.925 0.825
11.175 41.325 0.225
11.175 41.325 0.075
11.625 41.175 2.025
11.925 41.025 0.075
13.125 39.675 -0.375
13.125 39.675 1.125
9.675 35.625 -1.125
13.275 39.375 -0.075
11.775 41.175 -2.325
12.375 36.225 -3.675
9.975 41.475 0.375
10.875 41.475 0.075
13.275 39.525 0.225
11.025 41.475 0.225
11.925 41.175 -2.475
11.175 41.475 0.225
11.175 41.475 -0.075
13.275 39.675 0.225
13.425 39.225 -0.075
10.575 41.625 -0.525
10.725 41.625 1.425
13.275 39.825 -0.075
10.875 41.625 0.075
12.525 40.875 1.575
9.075 35.625 2.325
10.275 35.325 -4.125
11.025 41.625 0.225
8.775 35.775 0.375
12.375 41.025 0.075
11.925 41.325 -1.575
9.375 35.475 -1.275
11.475 35.475 -1.875
13.575 39.075 -0.975
10.875 35.325 0.525
9.675 41.625 -5.925
11.175 41.625 1.425
11.175 41.625 0.075
11.175 41.625 -0.825
12.225 41.175 0.075
13.575 39.225 0.525
11.325 41.625 -0.825
11.325 41.625 -1.725
11.325 41.625 1.125
11.325 41.625 -0.075
8.625 35.775 0.225
12.075 41.325 -2.625
12.075 41.325 0.075
10.275 41.775 -3.825
10.725 41.775 1.425
11.475 41.625 4.875
11.475 41.625 -0.975
10.875 41.775 1.275
12.375 41.175 0.075
12.375 41.175 0.525
9.825 41.775 0.825
11.025 41.775 1.125
11.025 41.775 1.575
11.025 41.775 -0.075
11.925 41.475 -2.625
11.925 41.475 -1.425
9.225 41.625 -2.325
11.625 41.625 -2.175
12.225 41.325 0.075
13.725 39.075 0.225
10.875 35.175 0.375
10.875 35.175 0.675
9.675 41.775 0.675
11.175 41.775 -0.975
11.025 35.175 -4.125
12.675 41.025 -3.975
8.625 35.625 0.825
8.625 35.625 -0.075
8.625 35.625 0.225
9.225 35.325 0.375
11.625 35.325 -1.575
11.325 41.775 -0.375
11.325 41.775 -1.125
11.325 41.775 0.825
12.525 41.175 0.075
10.575 41.925 1.425
12.375 41.325 -0.225
10.725 41.925 1.575
10.725 41.925 0.975
9.525 35.175 -1.125
8.775 35.475 -0.675
8.775 35.475 0.225
11.925 41.625 -0.825
11.925 41.625 -1.425
11.025 41.925 1.275
11.025 41.925 1.125
13.575 39.975 0.525
9.375 35.175 -1.125
9.375 35.175 -0.975
10.125 35.025 -2.775
11.625 41.775 -0.675
10.725 35.025 0.675
12.675 41.175 1.275
8.925 35.325 0.075
11.025 35.025 0.375
9.225 35.175 -1.125
9.225 35.175 0.075
9.225 35.175 0.375
12.075 41.625 -0.225
8.775 35.325 0.225
10.725 42.075 0.975
9.075 35.175 0.075
9.525 35.025 0.975
12.975 41.025 -3.675
8.475 35.475 0.675
9.975 42.075 1.575
13.575 40.275 1.875
13.575 40.275 1.575
12.975 35.925 -0.075
10.575 34.875 0.375
10.725 34.875 0.675
12.675 35.625 1.275
12.075 41.775 -0.375
9.225 35.025 0.375
13.725 40.125 0.375
12.075 35.175 0.375
13.575 36.525 2.025
10.275 42.225 -0.375
9.075 35.025 -0.675
9.075 35.025 0.375
9.075 35.025 0.225
13.125 35.925 0.075
8.925 41.925 -1.425
7.575 36.075 -0.225
8.025 35.625 2.925
13.275 36.075 0.075
13.425 36.225 0.075
9.825 42.225 2.475
11.625 42.075 -0.675
9.375 34.875 0.375
13.725 36.675 2.025
13.725 36.675 2.175
10.725 34.725 0.225
13.575 36.375 -3.075
12.525 35.325 -3.675
9.225 34.875 0.525
9.225 34.875 -1.575
11.775 42.075 2.175
12.825 41.475 -1.275
12.825 41.475 -1.125
9.525 42.225 0.825
11.325 42.225 -2.475
13.125 35.775 0.075
13.275 35.925 0.075
12.975 35.625 2.325
12.975 35.625 0.075
8.175 41.625 -0.075
12.675 41.625 1.875
12.675 41.625 1.575
7.425 36.075 -0.375
14.025 37.125 0.675
13.575 40.725 1.125
9.075 34.875 -0.975
12.225 41.925 -0.975
12.225 41.925 2.475
11.475 42.225 1.275
9.525 34.725 -0.525
10.125 42.375 3.225
10.125 42.375 -2.775
8.325 41.775 -0.675
13.875 36.675 0.225
13.875 36.675 0.675
13.125 41.325 -1.425
9.225 42.225 4.125
14.025 36.975 0.375
11.625 42.225 -0.825
11.625 42.225 3.075
11.625 42.225 -2.475
9.375 34.725 0.525
12.975 41.475 -0.825
12.975 41.475 -1.275
12.975 41.475 2.775
8.925 34.875 -0.825
12.075 42.075 0.525
12.375 41.925 -0.825
9.675 42.375 0.825
13.275 35.775 0.525
13.125 35.625 0.075
7.425 35.925 -0.225
13.425 35.925 1.425
13.425 35.925 -0.375
13.425 35.925 0.525
13.425 35.925 1.875
9.825 34.575 1.725
14.025 36.825 0.375
12.675 41.775 1.875
13.575 36.075 1.875
13.875 36.525 2.175
8.625 42.075 -0.225
9.075 34.725 -0.375
8.175 35.175 -0.975
8.325 41.925 0.975
11.475 42.375 1.275
11.475 42.375 1.425
13.125 41.475 -0.975
13.425 41.175 1.275
10.575 42.525 -0.225
14.025 36.675 2.175
8.625 34.875 -5.325
9.225 42.375 0.225
13.875 36.375 0.675
11.625 42.375 1.575
11.625 42.375 1.425
11.625 42.375 1.875
13.125 35.475 0.825
8.325 35.025 -0.975
8.325 35.025 -0.225
8.325 35.025 -1.125
8.325 35.025 -0.075
9.375 34.575 0.075
9.825 42.525 0.825
11.025 42.525 1.425
12.075 42.225 0.675
10.275 34.425 1.125
10.125 34.425 0.675
9.675 42.525 1.125
12.675 41.925 -1.125
12.825 35.175 1.125
11.775 42.375 1.425
14.175 36.825 0.075
14.175 36.825 0.375
8.475 34.875 -0.975
8.775 34.725 1.425
9.525 42.525 0.675
13.575 41.175 1.425
9.075 34.575 -0.375
12.975 41.775 1.275
12.975 41.775 0.225
13.725 41.025 1.125
14.025 40.575 -0.075
13.425 35.625 0.975
13.275 35.475 1.875
13.275 35.475 0.525
13.575 35.775 0.825
13.575 35.775 0.675
14.175 36.675 1.425
12.825 41.925 0.225
13.875 40.875 0.375
10.875 42.675 -5.475
8.475 42.225 -0.375
14.625 38.625 -0.075
9.375 34.425 -0.525
11.475 34.425 -0.225
12.075 42.375 0.675
12.075 42.375 1.275
12.675 42.075 0.075
10.575 34.275 0.075
14.175 36.525 0.975
14.175 36.525 1.575
13.125 41.775 0.075
14.025 36.225 1.875
13.425 35.475 0.825
13.575 35.625 1.125
9.525 42.675 0.525
12.975 41.925 -0.075
12.975 41.925 0.075
13.725 35.775 0.975
9.075 34.425 -0.525
9.075 34.425 -0.375
9.075 34.425 0.525
9.375 42.675 2.025
12.825 42.075 0.075
13.875 35.925 0.825
14.325 36.675 1.425
12.975 35.025 0.075
8.625 34.575 -5.325
8.325 34.725 -0.825
8.325 34.725 -0.975
8.325 34.725 -1.125
10.275 42.825 0.525
11.625 42.675 1.425
8.175 42.225 0.525
12.075 42.525 -1.725
7.725 41.925 -0.675
13.125 41.925 0.525
13.125 41.925 -1.575
13.125 41.925 0.675
13.875 41.175 1.125
14.175 36.225 0.675
12.525 42.375 -1.275
12.225 42.525 0.225
9.525 42.825 0.075
11.325 42.825 2.775
14.625 37.125 1.425
7.875 34.875 2.475
9.075 34.275 0.525
9.075 34.275 -0.375
9.075 34.275 0.825
14.175 40.875 0.525
8.325 34.575 0.975
12.675 42.375 -0.975
10.125 42.975 1.125
12.075 42.675 1.125
14.325 40.725 0.225
9.975 42.975 0.825
9.825 42.975 0.375
14.175 41.025 0.375
14.625 36.825 0.825
11.175 42.975 -0.975
9.525 42.975 2.175
9.525 42.975 2.025
14.775 37.125 -4.275
14.775 37.125 0.825
14.325 40.875 0.225
13.275 42.075 0.375
7.125 35.325 -1.875
9.075 34.125 0.675
9.075 34.125 0.975
9.075 34.125 0.525
14.025 41.325 0.675
9.375 42.975 1.125
14.325 36.075 -0.075
14.175 41.175 0.375
14.775 36.975 1.125
6.675 35.775 0.825
12.975 42.375 -2.775
14.325 41.025 0.675
14.325 41.025 0.825
9.825 43.125 -5.325
11.025 43.125 2.325
14.775 36.825 3.375
13.425 42.075 0.225
12.525 42.675 -2.175
8.775 34.125 0.075
9.225 33.975 0.975
9.225 33.975 0.525
6.825 35.475 0.375
9.525 43.125 -0.075
9.075 33.975 0.675
6.675 35.625 0.525
9.375 43.125 2.175
6.525 35.775 1.125
15.075 39.525 -0.075
12.975 42.525 -2.925
13.125 34.575 -0.825
6.225 36.225 -3.375
9.225 43.125 2.025
9.225 43.125 0.975
14.625 36.225 0.075
13.425 42.225 -0.075
13.425 42.225 0.225
14.475 35.925 0.375
7.875 34.425 0.675
7.875 34.425 -1.875
12.525 42.825 -0.525
13.275 42.375 0.225
6.675 35.475 0.525
6.675 35.475 0.675
9.225 33.825 0.525
10.575 33.675 0.375
10.725 33.675 0.675
13.125 42.525 -1.125
13.125 42.525 0.225
9.075 33.825 0.525
12.375 42.975 1.125
7.725 34.425 0.525
7.725 34.425 0.375
15.225 37.575 0.375
13.425 42.375 0.525
8.775 43.125 2.175
8.925 33.825 0.525
14.775 36.225 2.925
9.225 43.275 0.975
15.225 37.425 0.375
15.225 37.425 0.525
6.525 35.475 0.675
6.525 35.475 0.525
13.275 42.525 0.225
8.325 42.975 -4.125
12.525 42.975 -0.675
15.375 38.775 -1.875
11.775 43.275 0.525
6.375 35.625 0.525
15.375 38.175 1.125
15.375 38.175 0.675
7.575 34.425 0.975
14.025 41.925 -1.125
9.225 33.675 0.075
9.225 33.675 0.225
13.125 42.675 1.275
13.575 42.375 -1.125
11.925 43.275 0.825
9.075 33.675 0.525
9.075 33.675 0.225
11.775 33.675 0.975
11.775 33.675 0.675
7.725 34.275 0.675
7.725 34.275 -0.975
15.375 37.725 0.375
12.375 43.125 0.525
12.375 43.125 0.975
9.375 43.425 1.425
8.775 43.275 1.875
6.375 35.475 0.525
12.075 43.275 0.525
9.225 43.425 2.025
11.625 43.425 0.225
11.625 43.425 0.525
11.625 43.425 1.575
11.625 43.425 -5.025
12.825 42.975 -1.425
8.775 33.675 0.525
12.225 43.275 1.125
9.075 43.425 1.725
11.775 43.425 0.375
7.275 42.525 -3.975
14.775 41.175 0.525
13.575 42.525 -0.975
15.525 39.075 0.975
7.425 42.675 -4.275
7.725 34.125 -0.975
15.525 37.875 0.825
10.875 33.375 -0.225
11.925 43.425 0.825
8.625 33.675 0.375
14.625 41.475 0.825
9.075 33.525 0.525
9.075 33.525 0.675
11.775 33.525 -2.025
12.375 43.275 0.525
12.375 43.275 2.475
11.025 33.375 -1.575
9.375 43.575 -0.225
9.375 43.575 1.275
11.475 43.575 0.075
14.325 41.925 -0.975
12.075 43.425 2.325
14.475 41.775 -0.825
12.825 43.125 -1.425
12.825 43.125 0.375
11.625 43.575 0.075
7.575 34.125 0.525
8.775 33.525 0.825
8.775 33.525 0.675
12.225 43.425 0.375
11.775 43.575 0.525
13.425 42.825 2.625
14.775 41.475 0.525
15.675 38.025 0.525
9.675 43.725 2.025
11.175 43.725 -1.125
5.175 37.875 2.925
10.725 33.225 -0.375
11.925 43.575 0.825
11.925 43.575 1.875
11.925 43.575 0.225
10.875 33.225 -0.525
12.375 43.425 0.675
12.375 43.425 0.525
9.525 43.725 -2.025
11.325 43.725 0.375
7.875 33.825 -0.825
11.475 43.725 -1.275
12.825 43.275 0.375
12.525 43.425 0.675
14.775 41.625 4.575
14.775 41.625 0.075
14.775 41.625 -0.525
11.625 43.725 0.225
11.625 43.725 0.675
10.125 43.875 2.325
12.225 43.575 0.375
9.075 43.725 2.475
11.775 43.725 0.525
11.775 43.725 0.225
11.775 43.725 0.825
11.775 43.725 0.675
7.725 33.825 -0.675
14.475 42.075 -0.075
8.175 43.425 -1.725
14.625 41.925 0.075
8.625 33.375 0.675
11.325 43.875 0.375
6.975 34.275 0.075
13.575 42.975 3.225
11.475 43.875 -0.075
12.825 43.425 0.375
8.475 33.375 0.525
13.125 43.275 0.675
12.525 43.575 0.825
9.225 43.875 1.275
11.625 43.875 0.375
11.625 43.875 0.975
11.625 43.875 0.075
8.625 43.725 0.975
8.775 33.225 0.525
10.125 44.025 2.925
6.675 34.425 -1.125
8.325 33.375 -0.825
8.325 33.375 -1.575
11.775 43.875 0.525
11.775 43.875 -1.425
12.975 43.425 0.675
12.975 43.425 -1.425
12.675 43.575 0.375
12.675 43.575 1.125
9.825 44.025 0.075
9.675 44.025 2.175
9.675 44.025 -0.075
9.675 44.025 2.025
11.175 44.025 0.375
10.275 32.925 3.225
10.275 32.925 0.825
8.925 43.875 2.325
11.775 33.075 -2.925
9.525 44.025 2.475
11.325 44.025 0.225
12.825 43.575 0.525
12.825 43.575 0.375
9.375 44.025 1.125
12.075 43.875 1.725
8.475 33.225 0.525
11.475 44.025 0.075
11.625 44.025 -0.075
8.625 43.875 0.525
10.425 44.175 2.925
11.775 44.025 0.825
11.775 44.025 -0.225
6.975 33.975 -0.375
12.675 43.725 0.975
8.475 43.875 0.375
12.375 43.875 0.825
12.375 43.875 0.225
11.175 44.175 2.325
14.175 42.825 2.775
10.125 32.775 0.825
9.975 32.775 0.525
11.325 44.175 0.675
11.325 44.175 0.225
13.125 43.575 1.575
13.125 43.575 0.675
12.825 43.725 0.225
12.825 43.725 0.375
9.825 32.775 0.525
8.475 33.075 0.675
8.475 33.075 0.825
12.075 44.025 1.575
8.325 43.875 -0.075
15.075 41.925 4.575
12.225 44.025 0.525
12.975 43.725 1.725
12.975 43.725 0.375
8.325 33.075 0.225
13.275 43.575 -1.875
10.275 44.325 0.825
10.125 44.325 0.675
11.775 44.175 -0.825
5.625 35.175 0.975
7.125 33.675 0.975
7.125 33.675 0.825
15.825 40.725 0.375
6.375 34.275 -3.075
14.025 43.125 0.225
11.175 44.325 1.725
11.175 44.325 0.675
10.275 32.625 3.075
5.475 35.325 0.975
10.125 32.625 0.675
12.825 43.875 0.075
9.975 32.625 0.675
8.475 32.925 0.975
9.825 32.625 0.675
9.825 32.625 0.525
11.475 44.325 0.525
7.725 33.225 -0.375
6.975 33.675 1.275
8.025 33.075 -0.825
4.575 37.425 2.775
11.625 44.325 -0.375
12.975 43.875 -0.225
12.975 43.875 0.675
12.975 43.875 1.125
12.225 44.175 -0.525
14.175 43.125 0.225
6.075 34.425 -0.375
5.475 35.175 1.125
4.575 37.275 3.075
10.125 44.475 0.975
15.525 41.625 -1.425
10.875 44.475 0.375
12.375 44.175 -0.375
5.325 35.325 0.975
8.175 32.925 0.225
13.125 43.875 1.425
6.825 33.675 1.425
11.175 44.475 0.375
11.175 44.475 0.675
12.825 44.025 0.675
13.425 43.725 -1.125
10.275 32.475 0.375
10.125 32.475 0.525
9.975 32.475 0.675
11.325 44.475 0.375
11.325 44.475 0.675
14.325 43.125 0.675
6.975 33.525 0.525
6.975 33.525 0.825
6.975 33.525 0.975
12.075 44.325 0.825
11.475 44.475 -0.375
14.175 43.275 0.225
5.325 35.175 -0.225
13.275 43.875 0.525
8.325 32.775 0.675
16.275 40.275 -0.075
10.275 44.625 2.025
10.275 44.625 0.675
10.125 44.625 2.775
6.825 33.525 -0.225
10.875 44.625 0.975
8.175 32.775 0.975
13.125 44.025 0.825
11.025 44.625 0.375
14.325 43.275 -0.075
14.325 43.275 2.325
9.675 44.625 2.175
11.175 44.625 0.225
6.975 33.375 0.825
10.125 32.325 0.675
10.125 32.325 0.075
6.375 33.825 0.525
4.425 36.975 -1.275
9.975 32.325 -0.075
14.175 43.425 0.225
14.175 43.425 0.375
11.475 44.625 -0.225
11.475 44.625 0.225
13.275 44.025 0.525
12.975 44.175 -0.075
6.675 33.525 3.075
5.025 35.325 -0.225
6.825 33.375 -0.375
11.475 32.325 -2.775
5.925 34.125 -0.825
10.425 44.775 1.575
10.275 44.775 0.975
10.575 44.775 0.825
10.575 44.775 1.275
10.125 44.775 1.125
10.725 44.775 1.125
6.225 33.825 0.525
13.425 44.025 0.675
9.975 44.775 1.725
8.175 32.625 0.375
5.625 34.425 0.975
12.825 44.325 0.825
6.975 33.225 0.975
9.825 44.775 1.725
16.725 38.625 -0.225
14.175 43.575 0.225
11.175 44.775 0.075
11.175 44.775 -0.675
10.275 32.175 -0.075
10.275 32.175 1.125
10.275 32.175 1.425
10.125 32.175 0.075
9.525 44.775 0.975
5.025 35.175 -0.075
11.325 44.775 0.975
5.325 34.725 0.825
13.275 44.175 0.975
12.975 44.325 0.375
15.375 42.525 0.225
13.875 43.875 -1.125
5.625 34.275 0.675
14.325 43.575 1.275
14.325 43.575 0.225
5.475 34.425 0.675
5.475 34.425 0.975
4.275 36.675 1.125
4.125 37.275 2.475
7.725 44.325 2.175
13.425 44.175 0.825
13.425 44.175 0.375
10.425 44.925 0.675
10.425 44.925 1.275
10.425 44.925 0.225
10.425 44.925 1.125
10.425 44.925 0.825
10.275 44.925 0.675
10.125 44.925 1.575
10.125 44.925 1.275
10.725 44.925 1.425
5.325 34.575 0.825
8.025 44.475 2.175
12.825 44.475 0.975
15.675 42.225 -0.525
16.575 40.425 0.075
15.225 42.825 0.225
15.225 42.825 -1.275
9.675 44.925 1.275
11.175 44.925 -0.525
10.275 32.025 1.425
10.275 32.025 2.475
4.125 36.975 1.275
15.375 42.675 0.375
15.375 42.675 -0.975
13.275 44.325 0.525
5.925 33.825 -2.025
9.975 32.025 1.425
13.575 44.175 1.725
14.475 43.575 0.225
14.475 43.575 0.075
15.525 42.525 0.075
5.025 34.875 0.075
9.375 44.925 1.125
6.825 33.075 3.225
6.825 33.075 0.225
6.825 33.075 -0.825
5.325 34.425 0.675
15.675 42.375 -0.525
8.775 32.175 -3.225
7.875 32.475 2.325
7.875 32.475 -0.075
5.175 34.575 2.025
5.175 34.575 1.875
5.175 34.575 0.975
13.425 44.325 0.375
13.425 44.325 0.525
4.125 36.675 1.125
4.125 36.675 1.425
15.225 42.975 -0.825
16.425 41.175 1.425
10.425 45.075 0.375
10.275 45.075 1.425
10.275 45.075 1.725
6.825 44.025 0.225
6.675 33.075 0.375
8.925 44.925 2.175
14.475 43.725 0.225
7.575 44.475 2.175
5.325 34.275 0.825
9.525 45.075 0.675
6.975 44.175 2.025
14.325 43.875 1.425
13.875 44.175 2.925
5.175 34.425 0.225
15.825 42.375 -0.075
5.025 34.575 0.975
9.225 45.075 0.075
15.975 42.225 0.675
15.525 42.825 0.075
3.975 36.675 -0.375
14.625 43.725 -1.425
14.625 43.725 -0.075
4.875 34.725 2.325
4.875 34.725 1.125
10.425 45.225 0.525
10.425 45.225 0.375
10.125 45.225 1.875
14.475 43.875 2.775
5.175 34.275 -0.225
15.825 42.525 0.375
13.575 44.475 0.075
13.575 44.475 0.825
12.525 44.925 -0.825
14.325 44.025 -1.275
17.175 38.925 -1.125
13.875 44.325 2.325
13.875 44.325 2.475
15.975 42.375 0.375
15.975 42.375 0.525
15.525 42.975 4.425
9.975 31.725 3.225
6.675 44.175 1.425
14.775 43.725 -1.425
5.625 33.675 -0.525
14.175 44.175 1.875
8.325 32.025 1.575
5.775 33.525 -0.525
7.875 32.175 1.125
14.625 43.875 1.725
13.725 44.475 0.975
13.725 44.475 0.225
15.825 42.675 4.425
7.725 44.775 2.175
9.225 45.225 0.975
9.225 45.225 1.275
6.675 32.775 2.775
3.825 36.675 -0.675
14.475 44.025 1.275
5.025 34.275 -0.075
8.175 32.025 1.875
12.375 45.075 -0.075
10.425 45.375 0.675
10.425 45.375 2.175
10.425 45.375 0.825
10.125 45.375 -0.675
10.125 45.375 -0.525
10.125 45.375 1.575
4.875 34.425 0.075
9.975 45.375 -0.675
9.975 45.375 1.575
16.125 42.375 0.525
16.125 42.375 -0.075
13.875 44.475 0.525
5.475 33.675 -0.525
7.875 44.925 1.575
14.775 43.875 1.425
4.725 34.575 1.725
6.525 32.775 3.075
10.575 31.575 3.075
5.175 33.975 1.275
15.975 42.675 0.525
13.725 44.625 0.075
13.725 44.625 -0.075
4.575 34.725 1.875
9.675 31.575 0.675
9.675 31.575 0.825
4.875 34.275 1.275
9.525 31.575 -0.075
8.025 45.075 2.025
8.025 45.075 1.875
15.675 43.125 0.825
7.125 32.325 2.475
7.125 32.325 2.625
5.475 33.525 0.225
5.475 33.525 0.825
15.825 42.975 -0.825
13.125 32.025 1.125
5.325 33.675 -0.225
16.275 42.375 -0.075
10.425 45.525 2.175
7.575 44.925 1.875
13.875 44.625 1.725
9.825 45.525 1.125
14.625 44.175 1.425
9.675 45.525 0.975
7.275 32.175 -1.125
16.125 42.675 0.525
16.125 42.675 0.375
8.775 45.375 0.225
6.075 32.925 -2.025
17.475 39.075 0.825
9.525 45.525 0.825
4.425 34.725 3.075
13.725 44.775 0.375
15.525 43.425 1.875
14.475 44.325 -0.975
14.475 44.325 1.275
14.025 44.625 1.125
15.825 43.125 1.725
5.475 33.375 0.975
4.575 34.425 0.675
14.925 44.025 1.725
14.925 44.025 0.075
14.925 44.025 1.575
14.925 44.025 6.375
5.175 33.675 -0.225
15.975 42.975 -0.825
9.525 31.425 1.125
6.375 32.625 0.525
6.375 32.625 1.875
5.025 33.825 1.125
13.125 31.875 0.975
13.875 44.775 1.725
4.425 34.575 2.925
16.875 41.625 1.125
6.525 32.475 2.775
6.525 32.475 3.075
6.525 32.475 0.675
9.225 31.425 1.125
10.875 45.675 1.275
16.275 42.675 0.225
16.275 42.675 0.675
9.075 31.425 0.525
6.975 32.175 3.375
15.825 43.275 1.425
15.825 43.275 1.575
13.275 31.875 0.975
15.075 44.025 1.725
13.725 44.925 0.675
13.725 44.925 0.375
15.975 43.125 4.275
10.575 31.275 1.875
5.325 33.375 0.525
5.325 33.375 0.825
9.525 45.675 1.125
5.025 33.675 -0.225
14.925 44.175 1.275
14.925 44.175 0.075
14.925 44.175 -0.225
16.125 42.975 4.275
9.375 45.675 0.675
4.875 33.825 1.125
5.775 32.925 -1.725
6.375 32.475 0.225
6.375 32.475 0.525
6.375 32.475 2.025
7.425 31.875 2.925
14.775 44.325 0.075
9.225 45.675 0.975
6.825 32.175 1.725
16.275 42.825 -0.225
14.025 32.175 1.575
9.525 31.275 1.125
9.525 31.275 1.425
13.875 44.925 0.675
6.525 32.325 0.525
6.525 32.325 -0.225
15.525 43.725 2.025
15.675 43.575 1.425
16.875 41.925 -0.525
14.175 44.775 1.275
15.975 43.275 1.125
8.325 45.525 1.125
15.075 44.175 -0.075
15.075 44.175 1.875
15.075 44.175 0.525
6.225 32.475 2.175
6.225 32.475 0.975
16.125 43.125 -0.525
11.025 45.825 0.375
6.675 32.175 3.075
17.475 40.575 2.625
5.625 32.925 2.475
4.725 33.825 1.125
10.575 31.125 2.325
6.375 32.325 2.325
6.375 32.325 2.625
9.975 31.125 0.225
9.975 31.125 0.975
5.925 32.625 1.575
16.425 42.825 0.075
16.425 42.825 0.525
15.675 43.725 1.125
15.675 43.725 1.425
8.775 31.275 0.525
15.825 43.575 1.425
9.225 45.825 0.975
15.975 43.425 2.025
13.875 45.075 0.525
13.875 45.075 0.375
6.525 32.175 0.525
6.075 32.475 1.275
14.175 44.925 1.725
14.175 44.925 1.425
14.175 44.925 1.875
15.075 44.325 1.725
15.075 44.325 0.075
15.075 44.325 1.425
15.075 44.325 -0.225
4.725 33.675 1.125
6.225 32.325 2.325
6.975 31.875 -0.975
8.025 31.425 2.625
8.925 45.825 0.825
14.925 44.475 5.025
14.925 44.475 0.075
14.175 32.025 0.975
16.425 42.975 0.675
16.425 42.975 0.825
9.075 31.125 1.725
9.075 31.125 0.375
11.025 45.975 2.325
3.375 35.925 -0.375
3.225 36.375 1.125
17.175 41.775 -0.075
6.375 32.175 2.775
17.025 42.075 0.075
2.925 38.025 1.425
14.775 44.625 -0.675
15.675 43.875 2.025
15.825 43.725 1.275
15.825 43.725 1.425
12.975 31.425 1.425
15.975 43.575 1.125
15.975 43.575 1.875
16.875 42.375 -0.075
8.625 45.825 2.325
4.275 34.125 2.925
9.825 30.975 0.825
15.225 44.325 0.225
16.275 43.275 -0.225
6.525 32.025 0.525
15.075 44.475 0.075
4.575 33.675 1.275
17.025 42.225 -0.225
17.025 42.225 0.225
17.025 42.225 0.075
6.225 32.175 2.925
4.425 33.825 1.425
16.875 42.525 -0.825
7.275 31.575 1.725
16.575 42.975 0.075
8.325 45.825 1.125
8.925 45.975 1.125
14.025 45.225 0.675
14.025 45.225 0.075
14.775 44.775 -0.675
9.075 30.975 0.225
14.325 45.075 0.975
14.325 45.075 1.275
14.325 45.075 1.875
14.325 45.075 1.725
15.375 44.325 1.275
16.275 43.425 -1.725
5.175 32.925 3.825
5.325 32.775 -2.325
15.225 44.475 1.725
6.825 31.725 3.975
16.425 43.275 0.075
10.275 30.825 0.675
5.475 32.625 2.625
5.475 32.625 2.475
10.125 30.825 -0.075
7.425 31.425 1.725
16.575 43.125 0.825
16.575 43.125 3.975
16.575 43.125 -0.075
9.825 30.825 -0.375
17.325 41.925 -0.075
8.175 31.125 2.325
7.725 31.275 0.675
6.225 32.025 2.775
11.625 46.125 1.575
5.775 32.325 -0.075
5.775 32.325 0.675
15.975 43.875 -1.725
6.975 31.575 2.025
8.625 30.975 0.675
9.075 46.125 1.275
2.775 37.275 1.125
2.775 37.275 2.475
4.875 33.075 -3.525
5.025 32.925 3.375
14.775 44.925 -0.825
14.775 44.925 -0.975
15.375 44.475 -0.975
15.375 44.475 0.075
15.375 44.475 1.725
2.775 37.125 0.975
8.925 46.125 1.275
17.325 42.075 -0.075
14.325 45.225 1.425
14.325 45.225 1.125
16.575 43.275 0.675
16.575 43.275 0.075
4.425 33.525 0.075
6.075 32.025 0.375
7.125 31.425 -3.375
15.075 44.775 -0.975
16.725 43.125 0.525
10.725 30.675 1.425
5.775 32.175 -0.675
5.775 32.175 2.625
11.025 30.675 2.775
14.475 45.225 0.825
14.475 45.225 1.275
16.425 43.575 0.225
11.625 46.275 1.275
5.025 32.775 -2.475
15.375 44.625 0.975
15.375 44.625 0.075
16.575 43.425 0.825
5.925 32.025 0.225
5.925 32.025 2.925
5.925 32.025 -0.075
14.775 45.075 -0.975
6.375 31.725 -0.525
8.025 30.975 -3.675
12.825 30.975 0.975
7.575 31.125 0.825
6.075 31.875 0.225
15.075 44.925 -0.075
16.875 43.125 2.625
14.175 45.525 1.275
14.925 45.075 -0.525
5.775 32.025 -0.675
5.775 32.025 2.775
4.875 32.775 0.075
16.575 43.575 3.975
16.575 43.575 0.225
5.025 32.625 3.675
14.475 45.375 1.575
14.475 45.375 1.425
15.375 44.775 0.075
16.725 43.425 0.225
16.725 43.425 0.825
16.725 43.425 0.375
4.275 33.375 -0.075
5.925 31.875 -0.825
5.925 31.875 2.775
5.925 31.875 0.675
5.925 31.875 0.825
17.175 42.825 1.875
6.375 31.575 -0.525
4.125 33.525 -0.225
16.875 43.275 0.375
5.475 32.175 -0.525
12.225 30.675 2.325
14.325 45.525 0.225
2.475 37.275 1.275
6.075 31.725 -0.525
6.075 31.725 0.225
6.075 31.725 1.875
15.075 45.075 -0.825
15.075 45.075 -0.675
17.925 41.475 3.525
4.875 32.625 3.375
4.425 33.075 2.325
5.775 31.875 2.925
16.725 43.575 0.825
16.725 43.575 0.675
6.225 31.575 0.225
4.275 33.225 2.325
14.475 45.525 1.575
14.475 45.525 1.125
15.375 44.925 1.725
15.375 44.925 0.525
8.925 30.525 -0.075
5.925 31.725 -0.675
5.925 31.725 2.475
14.775 45.375 0.825
15.225 45.075 -0.075
15.225 45.075 1.125
6.375 31.425 1.575
6.075 31.575 1.575
15.075 45.225 -0.075
17.175 43.125 1.275
14.625 45.525 1.125
7.575 30.825 2.025
4.875 32.475 -2.475
15.525 44.925 -0.375
15.525 44.925 -0.075
15.525 44.925 6.375
16.875 43.575 0.675
16.875 43.575 0.825
4.125 33.225 2.325
14.925 45.375 -0.225
15.375 45.075 -0.375
12.975 30.675 1.275
14.475 45.675 0.525
14.475 45.675 1.125
5.925 31.575 -0.375
15.225 45.225 -0.675
14.775 45.525 0.825
15.975 44.625 3.525
6.675 31.125 -1.125
10.425 30.225 0.825
10.725 30.225 0.075
16.725 43.875 0.225
15.675 44.925 0.375
14.325 45.825 0.375
5.625 31.725 2.775
16.875 43.725 0.225
16.875 43.725 0.825
6.075 31.425 3.075
9.225 46.725 2.025
17.775 42.375 3.525
14.625 45.675 0.525
14.625 45.675 0.375
14.625 45.675 0.825
14.625 45.675 1.575
14.625 45.675 1.125
15.525 45.075 0.075
15.525 45.075 -0.225
15.525 45.075 0.525
17.025 43.575 -1.425
17.025 43.575 0.225
3.975 33.225 0.825
15.375 45.225 0.375
5.325 31.875 2.625
16.575 44.175 -1.875
14.475 45.825 0.525
15.225 45.375 -0.225
5.475 31.725 2.775
18.375 41.175 -2.025
16.875 43.875 0.375
16.875 43.875 1.575
15.675 45.075 -0.225
15.675 45.075 -0.075
17.025 43.725 0.525
17.025 43.725 0.825
5.625 31.575 2.775
15.075 45.525 0.075
5.025 32.025 0.825
14.625 45.825 1.125
14.625 45.825 0.825
5.775 31.425 0.075
14.925 45.675 0.975
14.925 45.675 0.375
6.525 30.975 -2.025
6.525 30.975 0.675
6.825 30.825 -3.825
5.325 31.725 2.475
16.125 44.775 3.375
17.625 42.975 0.075
6.225 31.125 -1.125
6.225 31.125 0.075
14.475 45.975 -0.975
4.125 32.775 0.975
5.475 31.575 -0.375
2.175 36.375 0.675
17.475 43.275 1.125
3.975 32.925 2.475
15.675 45.225 0.075
3.825 33.075 0.375
6.675 30.825 0.225
15.075 45.675 0.225
15.075 45.675 0.075
17.625 43.125 0.225
15.525 45.375 0.525
15.525 45.375 2.325
15.525 45.375 1.725
14.625 45.975 0.825
13.725 46.425 0.525
13.725 46.425 0.375
17.925 42.675 3.675
5.775 31.275 3.075
16.125 44.925 0.075
16.875 44.175 1.725
16.875 44.175 0.975
5.325 31.575 -0.375
5.325 31.575 2.025
5.325 31.575 2.775
12.375 46.875 2.175
15.975 45.075 -0.975
15.975 45.075 -0.375
6.525 30.825 0.825
6.225 30.975 0.075
6.225 30.975 -1.275
3.975 32.775 2.175
17.175 43.875 0.375
14.175 46.275 0.675
15.225 45.675 -0.075
14.475 46.125 0.675
5.925 31.125 -0.825
17.625 43.275 0.225
13.875 46.425 -0.975
14.775 45.975 -0.825
15.675 45.375 2.175
15.675 45.375 0.075
17.925 42.825 -1.125
16.725 44.475 -1.875
5.175 31.575 2.475
6.075 30.975 -0.975
6.075 30.975 -0.075
6.075 30.975 -1.725
16.875 44.325 1.875
17.025 44.175 0.225
17.025 44.175 0.825
17.025 44.175 0.375
15.375 45.675 -0.675
18.375 42.075 -0.975
3.975 32.625 0.975
17.175 44.025 0.375
17.175 44.025 0.525
3.825 32.775 2.625
6.525 30.675 0.525
6.525 30.675 -1.875
6.525 30.675 -0.075
6.525 30.675 0.225
3.675 32.925 0.225
9.675 29.775 -0.525
5.925 30.975 -0.975
5.925 30.975 -1.275
18.675 41.475 1.125
3.525 33.075 -0.975
5.025 31.575 2.475
9.375 29.775 -0.075
5.625 31.125 2.775
16.275 45.075 1.425
16.275 45.075 0.225
6.375 30.675 -1.725
16.125 45.225 5.475
6.075 30.825 -1.425
6.075 30.825 -0.675
17.175 44.175 0.675
17.175 44.175 0.825
14.325 46.425 0.675
18.975 40.725 0.675
5.325 31.275 2.775
17.325 44.025 0.375
3.675 32.775 -1.125
3.675 32.775 1.725
14.925 46.125 1.725
14.925 46.125 0.825
12.225 47.175 1.875
3.525 32.925 2.625
17.475 43.875 0.225
17.475 43.875 -1.275
6.525 30.525 -1.575
10.275 29.625 0.375
18.975 40.875 0.225
18.975 40.875 0.825
5.475 31.125 2.775
6.825 30.375 0.225
16.725 44.775 0.825
5.925 30.825 0.375
9.825 29.625 2.025
9.825 29.625 1.875
17.025 44.475 0.825
17.175 44.325 1.725
5.625 30.975 2.925
3.825 32.475 3.375
17.325 44.175 0.975
17.325 44.175 0.525
18.075 43.125 1.125
6.375 30.525 0.825
3.675 32.625 2.625
6.675 30.375 0.525
6.075 30.675 1.575
15.975 45.525 0.975
15.975 45.525 1.575
5.325 31.125 0.075
2.475 34.275 1.125
2.475 34.275 0.975
16.725 44.925 -1.875
16.575 45.075 0.225
17.025 44.625 -5.025
17.025 44.625 2.475
12.225 47.325 1.725
6.225 30.525 0.675
17.175 44.475 0.075
17.775 43.725 -1.275
4.125 32.025 1.875
17.325 44.325 0.075
17.325 44.325 3.075
3.675 32.475 2.775
8.025 29.775 3.075
17.475 44.175 0.675
9.675 29.475 0.375
3.525 32.625 1.575
3.525 32.625 1.875
15.075 46.275 0.675
15.975 45.675 0.225
15.975 45.675 1.725
15.975 45.675 2.475
6.375 30.375 0.975
6.675 30.225 0.975
6.675 30.225 0.675
5.325 30.975 -1.575
11.925 47.475 1.575
18.075 43.425 1.875
9.225 29.475 -0.525
16.725 45.075 -1.725
17.775 43.875 -5.175
17.325 44.475 1.725
2.325 34.275 1.425
15.675 45.975 0.075
15.225 46.275 1.125
16.275 45.525 0.525
16.275 45.525 -0.825
16.275 45.525 1.575
6.525 30.225 0.525
12.225 47.475 1.725
16.125 45.675 -0.375
16.125 45.675 0.075
2.625 33.675 1.125
5.175 30.975 0.225
5.625 30.675 -0.075
5.625 30.675 0.675
2.775 33.375 -3.375
17.025 44.925 2.175
6.675 30.075 0.825
17.925 43.875 -0.075
6.975 29.925 0.525
17.475 44.475 0.225
3.525 32.325 0.975
18.525 42.975 3.075
16.275 45.675 0.075
16.275 45.675 -0.075
5.025 30.975 1.125
17.625 44.325 1.125
6.525 30.075 0.675
17.775 44.175 -0.375
6.825 29.925 0.375
5.625 30.525 -0.225
15.975 45.975 -0.525
15.075 46.575 0.975
16.875 45.225 -2.025
7.575 29.625 0.675
16.725 45.375 1.875
17.325 44.775 2.475
17.475 44.625 0.225
15.825 46.125 -4.125
15.825 46.125 -0.075
15.825 46.125 -0.525
15.825 46.125 0.075
6.075 30.225 0.675
4.875 30.975 -2.025
4.875 30.975 2.775
3.975 31.725 1.125
16.425 45.675 1.425
3.525 32.175 1.425
6.675 29.925 0.825
17.625 44.475 0.675
17.625 44.475 0.225
17.625 44.475 -0.075
4.125 31.575 0.825
9.525 29.175 0.975
3.375 32.325 0.975
16.275 45.825 0.225
16.275 45.825 -0.075
14.925 46.725 0.675
17.775 44.325 0.225
17.775 44.325 -0.075
17.775 44.325 -0.225
17.775 44.325 -0.375
17.775 44.325 0.375
19.425 41.175 0.825
17.925 44.175 0.375
17.925 44.175 0.075
6.525 29.925 0.825
17.025 45.225 0.525
5.625 30.375 -0.225
15.075 46.725 -0.225
15.075 46.725 1.125
3.525 32.025 1.125
3.975 31.575 0.675
13.425 47.475 2.925
4.875 30.825 2.925
16.425 45.825 -0.075
16.425 45.825 -0.225
15.375 46.575 1.575
15.375 46.575 4.125
17.775 44.475 -0.225
12.375 47.775 2.475
12.375 47.775 2.325
6.075 30.075 -0.525
3.225 32.325 0.975
8.025 29.325 2.775
16.275 45.975 -0.075
16.275 45.975 0.225
6.675 29.775 0.975
17.925 44.325 -0.375
17.925 44.325 0.075
17.925 44.325 -0.075
15.675 46.425 0.225
14.925 46.875 0.525
14.925 46.875 0.975
9.525 29.025 1.875
16.125 46.125 -0.075
18.075 44.175 -0.375
18.075 44.175 0.975
18.075 44.175 -0.225
18.075 44.175 -0.075
18.075 44.175 0.525
16.875 45.525 4.875
5.925 30.075 -0.075
16.725 45.675 -0.075
9.225 29.025 0.975
15.525 46.575 0.075
17.625 44.775 -2.025
18.225 44.025 -0.075
18.225 44.025 1.425
18.225 44.025 0.225
16.575 45.825 -1.125
3.375 32.025 0.675
3.375 32.025 1.125
9.075 29.025 1.125
3.975 31.425 0.675
15.075 46.875 1.125
15.075 46.875 0.075
3.225 32.175 0.825
1.275 35.625 2.475
17.925 44.475 -0.375
18.375 43.875 0.225
18.375 43.875 0.525
15.375 46.725 0.225
15.375 46.725 1.125
15.375 46.725 0.975
13.875 47.475 3.225
8.775 29.025 0.375
18.075 44.325 -0.075
18.075 44.325 1.725
5.775 30.075 0.225
10.125 28.875 1.725
15.675 46.575 0.075
5.475 30.225 0.075
18.225 44.175 0.225
18.225 44.175 -0.075
18.225 44.175 1.575
18.225 44.175 1.425
16.875 45.675 -4.575
15.225 46.875 0.375
9.675 28.875 1.725
3.675 31.575 0.525
15.525 46.725 0.825
3.225 32.025 0.675
16.575 45.975 -0.375
16.575 45.975 -0.225
16.575 45.975 0.225
18.375 44.025 0.675
17.925 44.625 -1.575
3.075 32.175 0.675
5.625 30.075 0.225
5.625 30.075 -0.675
5.625 30.075 0.075
9.225 28.875 0.075
18.075 44.475 -0.225
15.075 47.025 0.225
15.075 47.025 0.825
4.875 30.525 2.775
15.825 46.575 0.075
15.825 46.575 0.225
18.525 43.875 0.525
15.375 46.875 1.275
15.375 46.875 0.825
18.225 44.325 0.975
18.225 44.325 2.475
18.225 44.325 1.275
18.225 44.325 -0.375
18.225 44.325 0.075
8.925 28.875 0.525
17.175 45.525 -3.675
17.475 45.225 2.475
17.475 45.225 0.225
17.475 45.225 -0.225
6.075 29.775 -0.225
17.025 45.675 -1.725
5.775 29.925 0.075
5.775 29.925 -0.675
15.675 46.725 0.225
16.875 45.825 -0.225
16.125 46.425 -0.075
8.775 28.875 0.375
5.475 30.075 0.225
18.375 44.175 0.375
18.375 44.175 0.825
19.575 41.925 3.375
17.925 44.775 -1.425
17.925 44.775 1.275
17.925 44.775 0.075
15.225 47.025 0.825
16.575 46.125 -0.225
16.575 46.125 -0.075
15.975 46.575 -1.125
19.425 42.375 1.275
18.075 44.625 0.075
18.525 44.025 1.575
6.225 29.625 -0.675
16.425 46.275 1.125
19.875 41.175 0.075
18.225 44.475 0.075
9.375 28.725 1.125
4.275 30.825 -0.075
15.825 46.725 0.825
15.075 47.175 0.525
15.075 47.175 -1.125
5.325 30.075 0.075
5.325 30.075 -0.075
17.625 45.225 0.075
18.375 44.325 -0.375
15.375 47.025 1.275
17.775 45.075 1.725
16.875 45.975 1.275
17.925 44.925 -0.375
16.125 46.575 1.575
16.125 46.575 2.175
16.725 46.125 -0.525
16.725 46.125 -0.375
16.725 46.125 0.075
18.525 44.175 -0.225
7.575 29.025 -2.925
18.825 43.725 2.925
18.075 44.775 -0.825
18.075 44.775 0.075
5.475 29.925 0.075
14.925 47.325 -0.375
16.575 46.275 1.425
16.575 46.275 1.875
16.575 46.275 -0.225
16.575 46.275 1.275
15.225 47.175 0.975
15.225 47.175 -0.225
15.225 47.175 -0.375
18.225 44.625 0.675
18.225 44.625 -1.125
4.725 30.375 -0.825
4.725 30.375 2.775
15.975 46.725 2.925
15.975 46.725 -1.275
4.125 30.825 -0.075
4.125 30.825 -0.375
16.425 46.425 1.275
16.425 46.425 1.575
16.425 46.425 2.325
18.375 44.475 -0.075
4.275 30.675 -0.225
9.675 28.575 1.425
17.325 45.675 -1.125
17.925 45.075 1.575
4.425 30.525 -0.225
16.875 46.125 2.025
18.075 44.925 1.875
18.075 44.925 1.425
18.075 44.925 -0.075
18.075 44.925 1.275
3.075 31.725 2.775
3.075 31.725 0.975
16.725 46.275 -0.225
16.725 46.275 1.725
18.225 44.775 0.075
18.675 44.175 2.625
9.075 28.575 0.525
5.775 29.625 0.375
19.725 42.225 -0.225
1.125 34.725 1.425
16.575 46.425 1.125
16.575 46.425 1.425
16.575 46.425 1.275
18.375 44.625 -1.275
18.375 44.625 -0.525
4.725 30.225 -0.675
5.175 29.925 -0.525
17.325 45.825 1.425
17.325 45.825 1.575
4.275 30.525 0.225
17.925 45.225 0.975
17.925 45.225 0.225
17.025 46.125 1.275
18.075 45.075 1.425
18.075 45.075 0.525
18.075 45.075 2.025
18.075 45.075 0.375
16.875 46.275 0.825
16.875 46.275 -0.375
18.225 44.925 -0.525
18.225 44.925 -0.075
18.225 44.925 -1.425
18.225 44.925 2.025
16.725 46.425 2.025
16.725 46.425 1.875
18.375 44.775 1.425
18.375 44.775 0.075
15.675 47.175 0.375
15.675 47.175 1.725
5.775 29.475 0.525
16.575 46.575 0.975
16.575 46.575 2.325
16.575 46.575 1.425
18.525 44.625 0.075
19.875 42.225 0.525
12.825 48.375 1.575
17.775 45.525 0.525
0.975 34.725 1.425
14.925 47.625 1.125
2.325 32.325 -0.075
17.175 46.125 -2.325
18.075 45.225 2.175
18.075 45.225 0.075
18.075 45.225 0.825
18.075 45.225 1.725
18.075 45.225 0.675
18.075 45.225 0.525
18.075 45.225 1.575
18.675 44.475 2.325
18.225 45.075 -1.575
18.225 45.075 1.725
18.225 45.075 0.675
18.225 45.075 0.225
2.925 31.575 2.775
2.175 32.475 -0.375
2.775 31.725 2.775
5.625 29.475 0.675
18.375 44.925 -1.875
18.975 44.175 3.525
15.675 47.325 1.425
15.675 47.325 1.275
16.575 46.725 0.975
16.575 46.725 1.125
1.125 34.125 1.125
12.675 48.525 1.125
17.475 45.975 -1.125
14.175 48.075 0.075
18.075 45.375 2.175
18.225 45.225 0.075
18.225 45.225 1.575
18.225 45.225 1.275
18.225 45.225 1.725
18.225 45.225 0.375
18.225 45.225 1.875
14.925 47.775 1.125
18.825 44.475 -2.475
2.775 31.575 2.475
2.775 31.575 2.025
18.375 45.075 0.675
18.375 45.075 -0.075
16.875 46.575 -0.375
16.875 46.575 0.825
1.125 33.975 0.375
14.325 48.075 -0.375
20.325 41.475 0.225
18.525 44.925 -0.225
18.525 44.925 -0.075
5.925 29.175 -0.075
5.625 29.325 0.675
20.025 42.375 -0.525
19.275 43.875 -3.525
16.725 46.725 2.325
4.575 29.925 3.075
17.925 45.675 0.675
17.475 46.125 1.125
18.075 45.525 -1.425
18.075 45.525 -0.375
18.075 45.525 2.175
16.575 46.875 1.875
16.575 46.875 2.025
18.225 45.375 -0.225
18.225 45.375 -0.075
18.225 45.375 -1.575
18.225 45.375 2.025
17.175 46.425 1.125
17.175 46.425 0.975
18.375 45.225 1.725
18.375 45.225 0.225
18.375 45.225 0.375
18.375 45.225 -0.075
2.775 31.425 2.475
15.975 47.325 1.725
17.025 46.575 -0.525
17.025 46.575 -0.675
