# .PCD v0.7 - Point Cloud Data file format
VERSION 0.7
FIELDS x y z
SIZE 4 4 4
TYPE F F F
COUNT 1 1 1
WIDTH 2048
HEIGHT 1
VIEWPOINT 0 0 0 1 0 0 0
POINTS 2048
DATA ascii
-28.575 -3.225 0.375
-28.575 -3.075 -0.225
-28.425 -3.075 -1.425
-28.425 -3.075 -1.725
-28.425 -3.075 -2.025
-28.575 -3.375 -0.225
-28.575 -3.375 0.225
-28.425 -3.375 -0.825
-28.725 -3.225 -0.075
-28.725 -3.075 -0.075
-28.275 -3.225 -1.575
-28.275 -3.075 -1.875
-28.275 -3.075 -2.325
-28.275 -3.075 -2.475
-28.575 -2.925 0.225
-28.575 -2.925 -1.125
-28.575 -2.925 -0.225
-28.575 -2.925 2.025
-28.575 -2.925 -1.575
-28.725 -3.375 -0.075
-28.725 -3.375 -1.125
-28.275 -3.375 -1.725
-28.725 -2.925 -1.125
-28.725 -2.925 -1.275
-28.725 -2.925 -0.225
-28.275 -2.925 -1.575
-28.575 -3.525 -0.225
-28.425 -3.525 0.225
-28.425 -3.525 -2.025
-28.425 -3.525 -0.975
-28.425 -3.525 0.375
-28.425 -3.525 -1.875
-28.875 -3.225 -1.125
-28.875 -3.075 -0.075
-28.125 -3.225 -2.175
-28.125 -3.225 2.025
-28.125 -3.075 -1.125
-28.725 -3.525 -0.075
-28.575 -2.775 -0.225
-28.575 -2.775 -1.425
-28.875 -3.375 -2.625
-28.875 -3.375 -0.075
-28.275 -3.525 -1.875
-28.275 -3.525 -2.175
-28.125 -3.375 -1.275
-28.125 -3.375 -1.875
-28.725 -2.775 -0.225
-28.725 -2.775 -0.075
-28.725 -2.775 -0.825
-28.725 -2.775 -1.275
-28.725 -2.775 -1.725
-28.125 -2.925 -1.425
-28.125 -2.925 1.725
-28.275 -2.775 -2.175
-28.575 -3.675 -1.275
-28.575 -3.675 1.425
-28.575 -3.675 -0.075
-28.425 -3.675 -2.175
-28.425 -3.675 -0.225
-29.025 -3.225 0.975
-28.125 -3.525 -1.275
-29.025 -3.075 1.875
-28.725 -3.675 -1.275
-27.975 -3.075 -2.025
-27.975 -3.075 -0.225
-28.275 -3.675 0.225
-28.275 -3.675 0.375
-28.275 -3.675 -0.075
-28.575 -2.625 0.225
-28.125 -2.775 1.275
-28.125 -2.775 -0.675
-28.125 -2.775 -2.025
-28.425 -2.625 2.025
-28.425 -2.625 -2.175
-27.975 -3.375 -0.825
-27.975 -3.375 -0.975
-27.975 -3.375 -1.275
-29.025 -2.925 1.875
-29.025 -2.925 -0.375
-28.725 -2.625 -0.225
-27.975 -2.925 -1.725
-29.025 -3.525 2.025
-28.125 -3.675 0.225
-28.125 -3.675 -1.275
-28.125 -3.675 -0.075
-27.975 -3.525 1.725
-27.975 -3.525 -0.825
-27.975 -3.525 -1.125
-28.425 -3.825 0.675
-28.425 -3.825 -0.075
-29.025 -2.775 0.375
-28.875 -2.625 -2.325
-28.875 -2.625 -0.225
-29.175 -3.225 2.025
-29.175 -3.225 -0.375
-29.175 -3.225 0.975
-29.175 -3.075 1.875
-29.175 -3.075 0.975
-27.975 -2.775 0.225
-27.975 -2.775 -2.175
-27.975 -2.775 -6.375
-27.975 -2.775 -0.225
-27.975 -2.775 0.375
-28.125 -2.625 1.425
-28.125 -2.625 1.575
-28.125 -2.625 -8.025
-28.125 -2.625 -0.225
-28.275 -3.825 -0.225
-28.275 -3.825 -1.275
-28.275 -3.825 -0.075
-28.275 -3.825 -1.125
-27.825 -3.225 -2.175
-27.825 -3.225 0.225
-27.825 -3.225 -5.325
-27.825 -3.225 -2.475
-27.825 -3.225 -1.125
-27.825 -3.225 1.275
-27.825 -3.225 0.375
-29.175 -3.375 0.825
-29.175 -3.375 -0.825
-27.825 -3.075 0.225
-27.825 -3.075 -0.225
-27.825 -3.075 -5.175
-28.575 -2.475 0.375
-28.575 -2.475 -0.525
-28.425 -2.475 2.175
-28.425 -2.475 2.925
-28.425 -2.475 2.325
-29.175 -2.925 1.725
-27.825 -3.375 -1.275
-27.825 -3.375 -0.675
-27.825 -3.375 -2.025
-27.825 -3.375 0.375
-27.825 -3.375 -0.075
-27.825 -3.375 0.525
-27.825 -3.375 -2.325
-27.975 -3.675 3.075
-27.825 -2.925 -1.725
-27.825 -2.925 0.375
-27.825 -2.925 0.525
-27.825 -2.925 -2.325
-27.825 -2.925 -2.025
-27.825 -2.925 -0.075
-28.725 -2.475 1.575
-28.725 -2.475 -0.225
-28.275 -2.475 -5.475
-29.175 -3.525 -0.225
-28.125 -3.825 -1.275
-28.125 -3.825 -0.225
-29.025 -2.625 2.775
-27.825 -3.525 -0.975
-27.825 -3.525 -1.125
-27.975 -2.625 2.925
-27.975 -2.625 -0.075
-28.875 -2.475 -2.475
-28.575 -3.975 1.875
-28.425 -3.975 0.375
-28.125 -2.475 -0.225
-28.125 -2.475 0.375
-28.125 -2.475 0.225
-28.125 -2.475 -1.875
-29.325 -3.225 -0.525
-29.325 -3.225 0.975
-29.325 -3.225 -0.075
-29.325 -3.225 1.875
-29.325 -3.075 2.025
-28.725 -3.975 -1.425
-29.175 -3.675 -1.425
-29.175 -3.675 1.875
-28.275 -3.975 -4.125
-27.675 -3.225 -0.225
-27.675 -3.225 -1.125
-27.675 -3.225 1.125
-27.675 -3.225 -0.075
-27.675 -3.225 -2.175
-27.975 -3.825 -1.125
-27.975 -3.825 -0.225
-27.975 -3.825 1.575
-27.975 -3.825 -0.075
-27.675 -3.075 -2.025
-27.675 -3.075 -1.425
-27.675 -3.075 -0.075
-27.675 -3.075 -0.975
-27.675 -3.075 -2.175
-27.825 -3.675 0.375
-27.825 -3.675 -1.725
-27.825 -3.675 0.225
-29.325 -2.925 2.025
-29.325 -2.925 1.425
-29.325 -2.925 2.475
-29.325 -2.925 0.675
-28.575 -2.325 -0.525
-28.575 -2.325 -2.775
-28.575 -2.325 -1.425
-28.575 -2.325 1.725
-28.575 -2.325 -0.225
-28.575 -2.325 0.225
-28.425 -2.325 0.525
-28.425 -2.325 -2.025
-27.675 -3.375 -0.075
-27.675 -3.375 -2.025
-27.675 -3.375 -3.075
-27.675 -3.375 1.275
-29.175 -2.625 1.575
-29.025 -2.475 2.025
-29.025 -2.475 -0.975
-29.025 -2.475 -2.025
-27.675 -2.925 -0.975
-28.725 -2.325 -2.325
-27.825 -2.625 -1.875
-27.825 -2.625 -0.225
-27.825 -2.625 -2.775
-29.325 -3.525 -1.425
-28.125 -3.975 -1.725
-28.125 -3.975 -0.075
-28.125 -3.975 -1.425
-28.125 -3.975 -1.575
-27.975 -2.475 -1.425
-27.975 -2.475 -1.875
-28.275 -2.325 -0.225
-28.275 -2.325 1.875
-28.275 -2.325 -0.075
-27.675 -3.525 -2.025
-27.675 -3.525 -0.075
-27.675 -3.525 -1.275
-29.325 -2.775 -1.425
-29.325 -2.775 2.175
-29.325 -2.775 1.875
-29.325 -2.775 1.575
-29.325 -2.775 2.625
-29.325 -2.775 2.475
-29.325 -2.775 1.125
-29.175 -3.825 -0.825
-28.875 -2.325 -0.225
-27.675 -2.775 -1.275
-27.675 -2.775 -0.225
-27.675 -2.775 1.425
-27.675 -2.775 -1.425
-28.125 -2.325 -4.875
-27.825 -3.825 -0.225
-27.825 -3.825 -1.275
-27.825 -3.825 -0.075
-27.825 -3.825 -1.425
-28.425 -4.125 -0.675
-28.425 -4.125 -4.275
-28.425 -4.125 -0.525
-28.425 -4.125 -0.375
-28.425 -4.125 -0.225
-29.325 -3.675 2.325
-27.975 -3.975 2.025
-29.475 -3.225 1.275
-29.475 -3.225 -1.725
-29.475 -3.225 -0.675
-29.475 -3.225 -0.525
-29.475 -3.225 0.975
-29.475 -3.225 -0.075
-29.175 -2.475 -1.725
-29.175 -2.475 -4.725
-29.475 -3.075 -0.225
-29.475 -3.075 1.725
-28.725 -4.125 -0.375
-27.675 -3.675 -1.275
-27.675 -3.675 0.975
-27.675 -3.675 -1.125
-27.675 -3.675 -0.975
-27.675 -3.675 -0.225
-27.675 -3.675 -1.575
-27.675 -3.675 2.175
-27.825 -2.475 1.275
-29.325 -2.625 2.325
-29.325 -2.625 2.175
-29.325 -2.625 -1.725
-29.325 -2.625 1.725
-29.325 -2.625 1.425
-27.525 -3.225 1.575
-27.525 -3.225 -0.075
-27.525 -3.225 -2.025
-27.525 -3.075 -1.575
-27.525 -3.075 -0.975
-27.525 -3.075 1.425
-29.475 -2.925 2.025
-29.475 -2.925 1.725
-29.475 -2.925 0.225
-29.475 -2.925 0.975
-29.475 -2.925 1.575
-27.675 -2.625 1.875
-27.675 -2.625 -0.975
-27.675 -2.625 -1.125
-27.525 -3.375 0.075
-27.525 -3.375 -2.175
-27.525 -3.375 1.575
-27.525 -3.375 1.425
-27.525 -3.375 -1.875
-27.525 -3.375 0.675
-27.525 -3.375 1.725
-27.525 -3.375 -0.075
-27.525 -3.375 0.825
-28.575 -2.175 -0.225
-28.425 -2.175 -0.075
-28.425 -2.175 -0.225
-28.425 -2.175 0.225
-27.975 -2.325 -0.675
-27.975 -2.325 -0.225
-27.525 -2.925 -1.125
-27.525 -2.925 -2.925
-27.525 -2.925 -1.575
-28.125 -4.125 1.575
-29.475 -3.525 -1.725
-29.475 -3.525 2.025
-29.475 -3.525 0.675
-28.725 -2.175 -0.075
-28.725 -2.175 -0.975
-28.275 -2.175 0.525
-28.275 -2.175 -0.075
-28.275 -2.175 -1.725
-28.275 -2.175 -2.025
-28.275 -2.175 0.375
-28.275 -2.175 2.175
-29.175 -3.975 -2.775
-29.325 -3.825 2.325
-29.325 -3.825 0.525
-29.475 -2.775 2.325
-29.475 -2.775 -1.875
-29.475 -2.775 1.575
-27.525 -3.525 -0.975
-27.525 -3.525 -0.075
-27.525 -3.525 1.575
-27.525 -3.525 0.375
-27.525 -3.525 -4.575
-27.825 -3.975 -1.275
-27.825 -3.975 2.475
-27.825 -3.975 -0.075
-27.675 -3.825 0.075
-27.675 -3.825 -2.025
-27.675 -3.825 -0.225
-27.675 -3.825 -0.075
-27.675 -3.825 -6.525
-27.525 -2.775 -0.825
-27.525 -2.775 -1.725
-27.525 -2.775 -0.225
-27.525 -2.775 1.725
-28.875 -2.175 -4.425
-28.875 -2.175 -2.475
-29.325 -2.475 0.975
-28.125 -2.175 -2.025
-28.125 -2.175 -0.075
-29.475 -3.675 0.975
-29.475 -3.675 0.675
-29.475 -3.675 0.825
-27.975 -4.125 -1.575
-27.675 -2.475 1.425
-27.675 -2.475 -1.425
-27.675 -2.475 -1.575
-27.825 -2.325 6.525
-27.825 -2.325 -0.225
-28.575 -4.275 2.025
-28.575 -4.275 -0.375
-28.425 -4.275 -4.575
-28.425 -4.275 -0.225
-28.425 -4.275 -0.675
-27.525 -3.675 0.225
-27.525 -3.675 1.575
-27.525 -3.675 2.175
-27.525 -3.675 -0.075
-27.525 -3.675 2.025
-29.475 -2.625 2.625
-29.475 -2.625 1.575
-29.475 -2.625 -0.375
-29.475 -2.625 0.975
-29.625 -3.225 1.275
-29.625 -3.225 -0.075
-29.625 -3.225 -0.375
-29.625 -3.225 2.475
-28.725 -4.275 0.525
-28.725 -4.275 1.875
-28.725 -4.275 2.025
-29.625 -3.075 -0.225
-28.275 -4.275 0.825
-29.025 -2.175 -4.725
-29.625 -3.375 -1.425
-29.625 -3.375 -0.375
-29.625 -3.375 1.425
-29.625 -3.375 0.675
-27.525 -2.625 -1.275
-29.325 -3.975 1.275
-27.375 -3.225 -1.575
-27.375 -3.225 1.725
-27.375 -3.225 2.025
-27.975 -2.175 -1.125
-27.375 -3.075 -0.075
-29.625 -2.925 1.725
-29.625 -2.925 0.975
-27.375 -3.375 -1.125
-28.875 -4.275 0.375
-27.675 -3.975 2.175
-27.675 -3.975 -4.275
-27.675 -3.975 -1.125
-29.175 -4.125 1.425
-28.575 -2.025 -0.075
-28.575 -2.025 -1.425
-28.425 -2.025 -0.225
-28.425 -2.025 2.625
-28.425 -2.025 -0.075
-28.425 -2.025 0.225
-28.425 -2.025 -2.175
-28.425 -2.025 0.375
-28.425 -2.025 -1.125
-29.475 -3.825 1.275
-29.475 -3.825 0.675
-29.475 -3.825 3.075
-29.475 -3.825 0.975
-29.475 -3.825 2.775
-29.475 -3.825 0.825
-29.475 -3.825 2.475
-29.475 -3.825 2.325
-27.375 -2.925 -3.825
-27.375 -2.925 -1.275
-27.375 -2.925 0.075
-27.375 -2.925 -1.425
-29.625 -3.525 2.325
-29.625 -3.525 0.075
-29.625 -3.525 -0.225
-28.275 -2.025 -0.375
-28.275 -2.025 -2.025
-28.275 -2.025 -2.175
-28.275 -2.025 -0.075
-28.275 -2.025 -2.775
-28.275 -2.025 -1.875
-28.275 -2.025 -2.625
-28.275 -2.025 2.925
-29.325 -2.325 2.325
-29.325 -2.325 2.175
-29.325 -2.325 2.475
-29.325 -2.325 -3.825
-29.325 -2.325 0.525
-27.525 -3.825 2.325
-27.525 -3.825 -0.075
-27.525 -3.825 1.875
-27.525 -3.825 -0.225
-29.625 -2.775 1.875
-29.625 -2.775 2.475
-29.625 -2.775 1.125
-29.625 -2.775 2.025
-27.375 -3.525 -0.075
-27.375 -3.525 -0.825
-27.375 -3.525 0.675
-27.375 -3.525 0.225
-29.475 -2.475 0.225
-29.475 -2.475 -2.175
-29.475 -2.475 -5.775
-27.675 -2.325 -2.325
-27.675 -2.325 0.975
-29.175 -2.175 -1.275
-29.175 -2.175 2.175
-27.375 -2.775 2.925
-27.375 -2.775 -0.225
-28.875 -2.025 2.025
-28.875 -2.025 0.075
-27.525 -2.475 -0.675
-27.525 -2.475 -5.025
-27.825 -2.175 -3.075
-27.825 -2.175 -1.875
-27.825 -2.175 -0.525
-28.125 -2.025 -0.075
-29.625 -3.675 0.525
-29.625 -3.675 0.975
-29.625 -3.675 1.875
-29.625 -3.675 2.025
-27.975 -4.275 -1.275
-27.375 -3.675 -0.075
-27.375 -3.675 -0.225
-27.375 -3.675 -0.975
-27.375 -3.675 1.725
-29.625 -2.625 1.725
-29.625 -2.625 0.975
-29.625 -2.625 -0.825
-29.625 -2.625 -0.075
-29.325 -4.125 2.325
-28.575 -4.425 -0.375
-28.575 -4.425 2.325
-28.425 -4.425 -0.225
-29.475 -3.975 0.525
-29.475 -3.975 1.125
-29.475 -3.975 1.725
-27.675 -4.125 2.025
-29.025 -2.025 1.725
-29.025 -2.025 -1.275
-28.725 -4.425 -0.525
-28.725 -4.425 -0.225
-28.725 -4.425 0.375
-29.775 -3.225 0.075
-29.775 -3.225 -0.075
-27.375 -2.625 1.275
-27.375 -2.625 -1.575
-29.775 -3.075 0.075
-29.775 -3.075 0.525
-29.775 -3.075 -0.975
-29.775 -3.075 1.575
-27.525 -3.975 2.775
-27.525 -3.975 1.875
-27.525 -3.975 -0.075
-28.275 -4.425 -0.675
-27.975 -2.025 -0.375
-27.975 -2.025 -4.425
-27.975 -2.025 -0.075
-29.775 -3.375 0.075
-29.775 -3.375 0.225
-29.775 -3.375 -0.375
-29.175 -4.275 1.275
-29.175 -4.275 1.875
-29.175 -4.275 -0.375
-29.625 -3.825 2.175
-29.625 -3.825 2.475
-29.625 -3.825 2.325
-29.625 -3.825 1.425
-29.625 -3.825 1.725
-29.625 -3.825 0.825
-29.475 -2.325 -0.225
-27.225 -3.225 1.125
-27.225 -3.225 1.875
-27.225 -3.225 0.975
-29.775 -2.925 0.075
-29.775 -2.925 2.625
-29.775 -2.925 -2.025
-29.775 -2.925 0.825
-29.775 -2.925 0.375
-27.225 -3.075 2.325
-27.225 -3.075 1.725
-29.325 -2.175 1.575
-29.325 -2.175 1.425
-29.325 -2.175 2.025
-29.325 -2.175 -4.725
-27.825 -4.275 -2.025
-27.825 -4.275 2.025
-27.825 -4.275 -0.525
-28.875 -4.425 0.075
-28.875 -4.425 1.725
-27.225 -3.375 -0.075
-27.225 -3.375 -4.575
-27.225 -3.375 0.375
-28.125 -4.425 -4.875
-28.125 -4.425 -0.525
-28.125 -4.425 2.475
-27.525 -2.325 -1.125
-27.525 -2.325 3.225
-27.525 -2.325 -0.825
-28.575 -1.875 -0.225
-28.575 -1.875 2.475
-28.575 -1.875 -0.975
-28.575 -1.875 -0.075
-28.425 -1.875 -1.575
-28.425 -1.875 3.975
-28.425 -1.875 -1.875
-28.425 -1.875 -0.075
-27.675 -2.175 -0.825
-27.675 -2.175 -2.025
-27.675 -2.175 -3.525
-27.375 -3.825 -1.275
-27.375 -3.825 1.875
-27.375 -3.825 1.275
-27.375 -3.825 2.025
-27.375 -3.825 -0.075
-29.775 -3.525 2.025
-29.775 -3.525 -1.425
-27.225 -2.925 -2.325
-27.225 -2.925 -2.175
-27.225 -2.925 -1.575
-29.625 -2.475 -0.375
-29.625 -2.475 -0.825
-29.625 -2.475 2.775
-28.725 -1.875 -0.975
-28.725 -1.875 1.725
-28.275 -1.875 -0.525
-28.275 -1.875 -4.725
-28.275 -1.875 -1.875
-29.775 -2.775 0.225
-27.225 -3.525 0.375
-27.225 -3.525 -1.425
-27.225 -3.525 0.975
-27.225 -3.525 -0.825
-27.225 -3.525 -0.075
-27.225 -3.525 0.075
-27.225 -3.525 2.475
-27.375 -2.475 -0.525
-27.375 -2.475 -1.575
-27.375 -2.475 2.775
-27.825 -2.025 2.475
-27.825 -2.025 1.575
-29.025 -4.425 -0.225
-27.225 -2.775 -1.125
-27.225 -2.775 0.075
-29.475 -4.125 2.475
-28.875 -1.875 0.375
-28.875 -1.875 0.825
-28.875 -1.875 -5.325
-27.975 -4.425 1.725
-27.975 -4.425 -0.075
-27.975 -4.425 -1.425
-29.775 -3.675 0.525
-29.775 -3.675 -0.075
-29.775 -3.675 0.825
-29.775 -3.675 0.375
-29.775 -3.675 0.975
-28.125 -1.875 1.725
-28.125 -1.875 -1.875
-27.525 -4.125 2.175
-27.525 -4.125 -1.125
-27.525 -4.125 0.825
-29.625 -3.975 0.675
-27.225 -3.675 0.075
-27.225 -3.675 -0.225
-27.225 -3.675 -0.975
-27.225 -3.675 -0.075
-29.775 -2.625 1.575
-29.775 -2.625 0.975
-29.775 -2.625 0.375
-29.775 -2.625 0.825
-29.775 -2.625 -3.525
-29.775 -2.625 0.675
-29.475 -2.175 -1.575
-28.575 -4.575 -0.225
-28.575 -4.575 1.275
-28.575 -4.575 -0.525
-28.575 -4.575 -0.375
-28.425 -4.575 1.875
-28.425 -4.575 -0.675
-28.425 -4.575 -0.375
-28.425 -4.575 0.675
-27.225 -2.625 -0.975
-27.225 -2.625 -1.125
-29.025 -1.875 -4.875
-29.025 -1.875 0.375
-29.025 -1.875 -5.025
-29.625 -2.325 1.125
-29.625 -2.325 0.525
-27.525 -2.175 -0.975
-27.525 -2.175 -0.825
-27.525 -2.175 1.875
-27.525 -2.175 -0.375
-29.325 -2.025 -4.725
-29.325 -2.025 -2.325
-28.725 -4.575 -0.225
-28.725 -4.575 3.525
-29.925 -3.225 0.225
-29.925 -3.225 -0.975
-28.275 -4.575 0.075
-28.275 -4.575 2.625
-28.275 -4.575 -0.525
-28.275 -4.575 -0.375
-29.775 -3.825 1.575
-29.775 -3.825 2.025
-29.775 -3.825 0.975
-29.775 -3.825 -1.425
-29.775 -3.825 0.075
-29.775 -3.825 0.225
-29.775 -3.825 0.375
-27.375 -2.325 -0.675
-27.375 -2.325 -1.275
-27.375 -2.325 -2.025
-27.375 -2.325 0.975
-27.825 -4.425 0.075
-29.925 -3.375 -0.375
-29.925 -3.375 0.525
-27.075 -3.225 2.325
-27.075 -3.225 3.075
-27.075 -3.225 -0.525
-27.075 -3.225 -2.025
-27.075 -3.225 2.175
-27.075 -3.225 1.575
-27.075 -3.225 0.375
-27.225 -3.825 -2.325
-27.225 -3.825 -6.825
-27.225 -3.825 1.125
-27.075 -3.075 -0.225
-27.075 -3.075 -0.675
-27.075 -3.075 0.525
-27.075 -3.075 -2.025
-28.875 -4.575 1.125
-28.875 -4.575 -0.375
-28.875 -4.575 0.525
-28.875 -4.575 0.225
-29.775 -2.475 0.375
-28.125 -4.575 -0.525
-28.125 -4.575 0.375
-28.125 -4.575 -0.375
-28.125 -4.575 -1.125
-28.125 -4.575 0.225
-27.075 -3.375 0.075
-27.075 -3.375 -0.075
-27.075 -3.375 -1.875
-27.075 -3.375 2.175
-29.925 -3.525 1.875
-29.925 -3.525 -0.075
-28.575 -1.725 0.075
-28.575 -1.725 -0.975
-28.575 -1.725 -0.225
-28.575 -1.725 -1.725
-28.575 -1.725 -0.075
-28.425 -1.725 0.075
-28.425 -1.725 1.875
-28.425 -1.725 0.225
-28.425 -1.725 -0.825
-28.425 -1.725 0.375
-27.075 -2.925 -0.375
-27.075 -2.925 -0.075
-27.075 -2.925 -1.575
-29.625 -4.125 1.725
-29.625 -4.125 2.325
-29.625 -4.125 -0.225
-29.625 -4.125 1.425
-29.625 -4.125 0.975
-29.175 -1.875 0.975
-29.175 -1.875 1.425
-29.175 -1.875 -1.125
-28.725 -1.725 -0.075
-28.725 -1.725 1.575
-28.725 -1.725 0.075
-28.725 -1.725 1.425
-28.725 -1.725 1.275
-28.725 -1.725 -0.975
-29.925 -2.775 0.525
-29.925 -2.775 0.225
-29.925 -2.775 0.075
-29.925 -2.775 -0.075
-28.275 -1.725 -1.875
-28.275 -1.725 -0.075
-28.275 -1.725 -0.525
-27.825 -1.875 -1.875
-27.825 -1.875 -0.375
-27.825 -1.875 -1.275
-27.825 -1.875 -0.825
-27.525 -4.275 -3.975
-27.075 -3.525 2.175
-27.075 -3.525 0.675
-27.075 -3.525 3.225
-27.075 -3.525 0.075
-27.075 -3.525 -0.075
-27.075 -3.525 1.725
-29.025 -4.575 1.425
-29.025 -4.575 -0.375
-29.325 -4.425 0.975
-27.075 -2.775 -1.725
-29.775 -3.975 -0.225
-29.775 -3.975 1.425
-29.775 -3.975 0.975
-29.775 -3.975 0.675
-27.975 -4.575 -0.675
-27.975 -4.575 0.075
-29.925 -3.675 -0.075
-29.925 -3.675 -2.025
-29.925 -3.675 0.375
-29.625 -2.175 1.125
-29.625 -2.175 1.875
-27.675 -4.425 -4.125
-27.675 -4.425 2.625
-27.675 -4.425 0.375
-29.475 -2.025 0.225
-29.475 -2.025 -3.525
-29.475 -2.025 -1.875
-29.475 -2.025 1.125
-29.475 -2.025 -1.725
-28.125 -1.725 3.375
-28.125 -1.725 -0.675
-28.125 -1.725 -1.125
-27.225 -3.975 1.875
-27.225 -3.975 -1.125
-27.225 -3.975 2.175
-27.225 -3.975 -1.575
-29.925 -2.625 2.475
-29.925 -2.625 0.225
-27.525 -2.025 2.475
-27.525 -2.025 -0.825
-27.525 -2.025 -2.025
-27.525 -2.025 1.725
-27.525 -2.025 -0.975
-27.525 -2.025 -0.225
-27.075 -3.675 -0.075
-27.075 -3.675 1.725
-29.775 -2.325 2.925
-29.325 -1.875 1.425
-29.325 -1.875 1.575
-27.075 -2.625 -0.975
-27.075 -2.625 -1.125
-27.075 -2.625 -1.575
-29.025 -1.725 -1.125
-27.225 -2.325 3.375
-27.225 -2.325 -0.525
-27.225 -2.325 -1.275
-27.225 -2.325 -0.225
-29.175 -4.575 -0.075
-29.175 -4.575 1.425
-28.575 -4.725 0.825
-28.575 -4.725 -0.525
-28.425 -4.725 -0.225
-28.425 -4.725 -0.375
-28.425 -4.725 2.625
-28.425 -4.725 0.075
-27.675 -1.875 -0.825
-27.675 -1.875 -5.325
-27.675 -1.875 1.575
-29.925 -3.825 1.425
-29.925 -3.825 0.975
-29.925 -3.825 0.225
-29.925 -3.825 1.725
-29.925 -3.825 0.375
-29.925 -3.825 0.525
-29.925 -3.825 0.075
-27.825 -4.575 -0.225
-29.625 -4.275 2.025
-30.075 -3.225 -0.375
-28.275 -4.725 0.075
-28.275 -4.725 -0.075
-28.275 -4.725 1.575
-28.275 -4.725 2.475
-30.075 -3.075 -0.975
-30.075 -3.075 -0.375
-27.075 -3.825 -0.075
-27.075 -3.825 3.075
-27.075 -3.825 1.125
-27.075 -3.825 0.075
-27.075 -3.825 -1.425
-30.075 -3.375 0.225
-30.075 -3.375 -0.075
-29.925 -2.475 1.125
-29.925 -2.475 2.625
-29.925 -2.475 0.375
-27.375 -4.275 2.175
-30.075 -2.925 -0.225
-30.075 -2.925 0.525
-30.075 -2.925 1.125
-30.075 -2.925 1.425
-26.925 -3.225 -3.225
-26.925 -3.225 1.575
-26.925 -3.225 -0.075
-26.925 -3.225 2.925
-26.925 -3.075 -2.175
-26.925 -3.075 0.225
-26.925 -3.075 0.375
-26.925 -3.075 0.525
-28.125 -4.725 0.075
-28.125 -4.725 -0.975
-28.125 -4.725 0.225
-28.125 -4.725 0.525
-27.225 -4.125 1.125
-27.225 -4.125 -1.125
-27.225 -4.125 1.575
-27.225 -4.125 -1.275
-27.225 -4.125 1.875
-27.225 -4.125 -1.575
-29.175 -1.725 1.575
-26.925 -3.375 0.075
-26.925 -3.375 2.475
-26.925 -3.375 2.625
-26.925 -3.375 -0.075
-27.075 -2.475 -4.425
-27.075 -2.475 1.725
-29.625 -2.025 0.075
-28.575 -1.575 1.275
-28.575 -1.575 -0.225
-28.575 -1.575 0.075
-28.575 -1.575 -0.075
-28.425 -1.575 0.375
-28.425 -1.575 0.075
-28.425 -1.575 1.425
-28.425 -1.575 -2.175
-26.925 -2.925 -1.425
-26.925 -2.925 -1.875
-26.925 -2.925 0.375
-27.825 -1.725 -0.225
-27.825 -1.725 -0.825
-27.825 -1.725 -1.125
-27.825 -1.725 -0.675
-27.825 -1.725 0.375
-29.775 -2.175 -0.375
-30.075 -2.775 -2.925
-30.075 -2.775 -0.075
-30.075 -2.775 0.075
-28.725 -1.575 0.075
-27.375 -2.025 -0.525
-27.375 -2.025 -0.375
-27.375 -2.025 -2.175
-27.375 -2.025 -0.075
-27.375 -2.025 -0.975
-27.375 -2.025 2.325
-29.475 -1.875 -0.675
-29.475 -1.875 0.675
-29.475 -1.875 1.575
-28.275 -1.575 -2.175
-28.275 -1.575 -0.525
-28.275 -1.575 1.725
-29.925 -3.975 1.725
-29.925 -3.975 1.275
-29.925 -3.975 0.525
-26.925 -3.525 1.125
-26.925 -3.525 1.425
-26.925 -3.525 0.075
-29.025 -4.725 0.075
-27.225 -2.175 0.825
-27.225 -2.175 -0.525
-27.225 -2.175 -0.975
-27.225 -2.175 -0.225
-27.525 -1.875 2.475
-27.525 -1.875 2.775
-27.975 -4.725 0.225
-27.975 -4.725 -1.125
-27.975 -4.725 0.075
-27.975 -4.725 0.675
-27.975 -4.725 0.525
-26.925 -2.775 1.125
-26.925 -2.775 -1.425
-30.075 -3.675 0.075
-30.075 -3.675 0.375
-30.075 -3.675 0.225
-27.075 -3.975 -1.875
-27.075 -3.975 2.175
-27.075 -3.975 1.725
-27.075 -3.975 2.025
-27.075 -3.975 -0.225
-27.075 -3.975 1.425
-27.075 -3.975 -0.075
-28.125 -1.575 0.825
-28.125 -1.575 -0.525
-28.125 -1.575 0.225
-28.125 -1.575 -4.275
-30.075 -2.625 -0.075
-30.075 -2.625 0.225
-30.075 -2.625 -1.125
-26.925 -3.675 -1.275
-26.925 -3.675 0.375
-26.925 -3.675 3.375
-26.925 -3.675 0.075
-26.925 -3.675 -0.075
-26.925 -3.675 0.525
-29.325 -1.725 0.675
-27.075 -2.325 -2.025
-27.075 -2.325 -1.875
-27.075 -2.325 2.175
-27.075 -2.325 -3.525
-27.675 -1.725 -1.275
-27.675 -1.725 -0.525
-27.675 -1.725 -0.675
-26.925 -2.625 -0.075
-29.175 -4.725 2.625
-29.175 -4.725 -0.675
-29.025 -1.575 -2.025
-29.025 -1.575 -1.575
-29.025 -1.575 -1.875
-27.375 -4.425 1.725
-27.375 -4.425 0.675
-27.375 -4.425 1.575
-27.375 -4.425 -2.925
-27.225 -4.275 -0.075
-27.225 -4.275 1.425
-27.225 -4.275 1.575
-27.225 -4.275 -0.825
-27.225 -4.275 1.875
-30.075 -3.825 0.225
-30.075 -3.825 0.075
-30.075 -3.825 0.525
-30.075 -3.825 -0.225
-30.075 -3.825 1.725
-27.825 -4.725 -0.825
-27.975 -1.575 0.525
-27.975 -1.575 1.875
-27.975 -1.575 -1.275
-29.475 -4.575 1.725
-28.575 -4.875 -1.125
-28.575 -4.875 -0.075
-28.425 -4.875 0.825
-28.425 -4.875 -0.225
-28.425 -4.875 2.475
-28.725 -4.875 -0.075
-28.725 -4.875 0.225
-27.525 -4.575 -1.575
-28.275 -4.875 2.175
-28.275 -4.875 0.075
-28.275 -4.875 0.225
-26.925 -3.825 2.925
-26.925 -3.825 1.575
-26.925 -3.825 -6.375
-26.925 -3.825 -0.975
-26.925 -3.825 -0.075
-26.925 -3.825 3.225
-30.225 -3.225 -1.425
-30.075 -2.475 0.075
-29.625 -1.875 1.575
-29.625 -1.875 2.175
-29.625 -1.875 1.875
-29.625 -1.875 0.675
-27.075 -4.125 -0.375
-27.075 -4.125 1.575
-27.075 -4.125 0.225
-27.075 -4.125 -0.525
-27.075 -4.125 1.275
-27.075 -4.125 1.425
-27.225 -2.025 -0.375
-27.225 -2.025 -0.225
-27.375 -1.875 -1.725
-27.375 -1.875 -1.125
-27.375 -1.875 1.725
-29.925 -2.175 -2.775
-29.175 -1.575 -2.025
-29.175 -1.575 -0.375
-26.925 -2.475 -1.275
-26.925 -2.475 1.575
-26.925 -2.475 3.975
-26.925 -2.475 -0.075
-26.925 -2.475 2.025
-26.775 -3.225 0.075
-26.775 -3.225 1.575
-26.775 -3.225 1.275
-26.775 -3.225 -0.075
-26.775 -3.225 1.725
-28.125 -4.875 0.375
-28.125 -4.875 0.225
-28.125 -4.875 0.075
-28.125 -4.875 1.725
-26.775 -3.075 -0.075
-26.775 -3.075 1.275
-26.775 -3.075 0.375
-26.775 -3.075 2.175
-26.775 -3.075 0.075
-29.475 -1.725 1.275
-29.475 -1.725 0.525
-27.825 -1.575 1.275
-27.825 -1.575 -0.375
-29.325 -4.725 1.575
-29.325 -4.725 2.475
-30.225 -3.525 -0.375
-30.225 -3.525 0.375
-26.775 -3.375 1.875
-26.775 -3.375 1.275
-26.775 -3.375 -0.375
-26.775 -3.375 1.575
-26.775 -3.375 -3.225
-27.075 -2.175 -0.525
-27.075 -2.175 -0.675
-27.075 -2.175 -1.875
-27.075 -2.175 -0.375
-30.075 -3.975 0.675
-30.075 -3.975 -0.225
-28.575 -1.425 -0.075
-28.575 -1.425 0.075
-28.575 -1.425 0.825
-28.575 -1.425 0.675
-26.775 -2.925 -2.325
-28.425 -1.425 -0.075
-28.425 -1.425 1.875
-27.525 -1.725 -1.275
-27.525 -1.725 -1.425
-27.525 -1.725 -0.675
-27.525 -1.725 2.325
-27.525 -1.725 1.425
-27.525 -1.725 2.475
-27.675 -4.725 0.225
-27.675 -4.725 -1.575
-30.225 -2.775 0.975
-28.725 -1.425 -0.675
-28.275 -1.425 -0.075
-28.275 -1.425 -1.275
-28.275 -1.425 -0.975
-28.275 -1.425 -2.175
-28.275 -1.425 -1.125
-28.275 -1.425 -1.425
-26.775 -3.525 1.425
-26.775 -3.525 1.875
-26.775 -3.525 0.825
-29.025 -4.875 -0.075
-29.775 -4.425 0.525
-26.925 -3.975 2.475
-26.925 -3.975 -0.525
-26.925 -3.975 -0.225
-26.925 -3.975 -0.375
-26.925 -3.975 2.625
-27.975 -4.875 0.075
-27.975 -4.875 0.525
-27.975 -4.875 2.625
-30.075 -2.325 0.975
-26.775 -2.775 0.375
-26.775 -2.775 -2.175
-26.775 -2.775 1.575
-26.775 -2.775 -0.075
-30.225 -3.675 0.075
-29.625 -4.575 -2.475
-27.225 -4.425 0.075
-27.225 -4.425 0.975
-27.225 -4.425 -0.375
-28.875 -1.425 -1.425
-28.125 -1.425 -0.525
-28.125 -1.425 -0.675
-29.325 -1.575 1.875
-29.325 -1.575 1.575
-29.325 -1.575 0.675
-30.225 -2.625 -0.075
-30.225 -2.625 0.225
-30.225 -2.625 -0.675
-30.225 -2.625 2.775
-26.925 -2.325 -1.425
-26.925 -2.325 2.325
-26.925 -2.325 -0.525
-26.775 -3.675 -1.125
-26.775 -3.675 2.625
-26.775 -3.675 -0.075
-26.775 -3.675 3.975
-26.775 -3.675 0.375
-26.775 -3.675 0.525
-27.075 -4.275 -1.275
-27.075 -4.275 -0.225
-27.075 -4.275 -0.525
-27.075 -4.275 -0.375
-27.675 -1.575 -0.825
-27.675 -1.575 1.875
-27.675 -1.575 0.525
-29.775 -1.875 2.175
-29.775 -1.875 0.675
-29.475 -4.725 2.475
-26.775 -2.625 -1.425
-26.775 -2.625 -0.825
-29.925 -2.025 0.525
-30.075 -4.125 -1.875
-30.075 -4.125 -0.675
-29.025 -1.425 -1.575
-29.025 -1.425 1.275
-29.025 -1.425 2.175
-29.025 -1.425 1.725
-27.825 -4.875 0.375
-27.825 -4.875 -1.125
-30.225 -3.825 -0.075
-30.225 -3.825 0.375
-29.625 -1.725 0.225
-29.625 -1.725 0.525
-29.625 -1.725 1.125
-29.625 -1.725 1.875
-29.625 -1.725 0.825
-29.625 -1.725 0.075
-29.625 -1.725 2.175
-29.625 -1.725 0.375
-27.225 -1.875 -0.225
-27.225 -1.875 -2.025
-27.225 -1.875 -0.375
-27.225 -1.875 2.925
-27.225 -1.875 -1.875
-27.525 -4.725 0.525
-27.525 -4.725 -1.275
-27.975 -1.425 1.425
-27.975 -1.425 -0.975
-27.975 -1.425 -1.275
-27.975 -1.425 0.225
-27.075 -2.025 -0.825
-27.075 -2.025 -1.425
-27.075 -2.025 -0.225
-27.075 -2.025 2.175
-27.075 -2.025 -0.675
-27.075 -2.025 -1.125
-27.075 -2.025 1.125
-27.075 -2.025 -0.375
-27.375 -1.725 -0.525
-27.375 -1.725 -1.275
-28.575 -5.025 0.225
-28.575 -5.025 -2.025
-28.575 -5.025 -0.525
-28.575 -5.025 -0.075
-26.925 -4.125 -0.225
-26.925 -4.125 1.275
-26.925 -4.125 -0.525
-26.925 -4.125 -0.375
-28.425 -5.025 0.675
-28.425 -5.025 -8.325
-28.425 -5.025 0.525
-28.425 -5.025 0.075
-30.225 -2.475 0.225
-30.225 -2.475 -0.375
-26.775 -3.825 1.425
-26.775 -3.825 1.575
-26.775 -3.825 2.025
-26.775 -3.825 0.075
-26.775 -3.825 -0.225
-26.775 -3.825 -0.075
-30.075 -2.175 -0.525
-28.725 -5.025 0.675
-28.725 -5.025 0.075
-28.725 -5.025 -0.225
-28.725 -5.025 0.825
-28.725 -5.025 2.325
-28.725 -5.025 1.275
-28.275 -5.025 0.375
-28.275 -5.025 2.175
-28.275 -5.025 0.825
-28.275 -5.025 2.475
-28.275 -5.025 2.025
-28.275 -5.025 0.225
-30.375 -3.075 -5.325
-29.475 -1.575 0.525
-29.475 -1.575 0.675
-29.475 -1.575 1.425
-29.475 -1.575 -1.425
-29.475 -1.575 2.325
-26.925 -2.175 0.375
-26.925 -2.175 -0.375
-26.925 -2.175 -0.225
-30.375 -2.925 0.375
-29.325 -4.875 0.975
-29.325 -4.875 1.575
-29.325 -4.875 -7.575
-28.875 -5.025 2.325
-28.875 -5.025 0.225
-29.775 -4.575 0.375
-27.525 -1.575 1.875
-27.525 -1.575 -0.225
-27.525 -1.575 -0.675
-27.525 -1.575 -7.575
-27.825 -1.425 -0.225
-28.125 -5.025 0.975
-28.125 -5.025 0.525
-28.125 -5.025 0.375
-28.125 -5.025 0.225
-28.125 -5.025 0.825
-26.625 -3.225 0.975
-26.625 -3.225 1.275
-26.625 -3.225 1.725
-26.625 -3.075 1.425
-26.625 -3.075 1.725
-26.625 -3.075 0.075
-26.625 -3.075 1.125
-26.625 -3.075 0.975
-26.625 -3.075 1.275
-27.675 -4.875 1.875
-27.675 -4.875 1.725
-27.675 -4.875 1.125
-30.375 -3.525 0.525
-26.625 -3.375 -0.075
-26.625 -3.375 -1.425
-26.625 -3.375 1.125
-26.625 -3.375 0.975
-26.625 -3.375 1.725
-27.225 -4.575 -1.125
-27.075 -4.425 0.225
-27.075 -4.425 0.675
-27.075 -4.425 -0.375
-27.075 -4.425 -0.225
-27.075 -4.425 1.725
-26.625 -2.925 1.125
-26.625 -2.925 1.575
-26.625 -2.925 0.075
-26.625 -2.925 -0.075
-26.625 -2.925 2.325
-29.625 -4.725 2.325
-28.575 -1.275 1.575
-28.575 -1.275 0.825
-28.575 -1.275 2.025
-28.575 -1.275 -1.875
-28.425 -1.275 1.575
-30.375 -2.775 -0.225
-26.775 -3.975 2.325
-26.775 -3.975 0.225
-26.775 -3.975 -0.225
-30.225 -2.325 -0.075
-30.225 -2.325 -0.375
-29.025 -5.025 -0.675
-28.725 -1.275 1.575
-28.725 -1.275 -1.725
-26.625 -3.525 0.825
-26.625 -3.525 -0.225
-26.625 -3.525 0.075
-26.625 -3.525 1.275
-26.625 -3.525 -1.725
-26.625 -3.525 -2.775
-27.375 -4.725 1.125
-28.275 -1.275 0.075
-27.975 -5.025 0.825
-27.975 -5.025 0.675
-27.975 -5.025 0.375
-27.975 -5.025 0.225
-27.975 -5.025 0.075
-27.975 -5.025 0.525
-29.925 -1.875 -0.075
-29.925 -1.875 1.575
-29.775 -1.725 0.225
-29.775 -1.725 0.075
-29.775 -1.725 -0.075
-26.925 -4.275 -0.375
-26.925 -4.275 -1.125
-26.925 -4.275 -0.225
-26.925 -4.275 1.575
-26.925 -4.275 1.875
-26.925 -4.275 -4.575
-26.925 -4.275 -6.225
-26.625 -2.775 -1.275
-26.625 -2.775 -0.075
-27.075 -1.875 -0.375
-27.075 -1.875 -0.225
-27.075 -1.875 0.075
-27.075 -1.875 -1.875
-27.075 -1.875 2.025
-27.225 -1.725 -0.375
-27.225 -1.725 -0.225
-27.225 -1.725 -0.975
-27.225 -1.725 -1.725
-27.225 -1.725 -1.125
-28.125 -1.275 0.225
-28.125 -1.275 0.075
-28.125 -1.275 1.575
-27.675 -1.425 1.425
-30.375 -2.625 0.975
-30.375 -2.625 0.525
-30.375 -2.625 0.375
-29.475 -4.875 -2.475
-29.475 -4.875 0.525
-29.475 -4.875 -1.125
-29.475 -4.875 0.975
-29.475 -4.875 -0.225
-29.475 -4.875 1.425
-26.625 -3.675 2.775
-26.625 -3.675 -0.375
-26.625 -3.675 -0.225
-26.625 -3.675 -0.075
-29.625 -1.575 0.975
-29.625 -1.575 1.425
-29.625 -1.575 0.675
-29.625 -1.575 0.525
-29.175 -5.025 1.125
-27.525 -4.875 0.225
-27.525 -4.875 -0.675
-27.525 -4.875 -1.425
-26.925 -2.025 -0.525
-26.925 -2.025 -2.325
-26.925 -2.025 0.375
-27.375 -1.575 -0.825
-27.375 -1.575 -0.525
-27.375 -1.575 -0.975
-27.375 -1.575 -1.575
-27.375 -1.575 2.325
-26.625 -2.625 1.275
-26.625 -2.625 0.375
-27.825 -5.025 -1.125
-27.825 -5.025 0.675
-27.825 -5.025 0.525
-27.825 -5.025 0.375
-29.025 -1.275 1.875
-26.775 -4.125 3.075
-26.775 -4.125 1.275
-26.775 -4.125 -0.225
-26.775 -4.125 -0.375
-26.775 -4.125 2.025
-27.975 -1.275 0.675
-27.975 -1.275 -0.075
-27.975 -1.275 -1.275
-30.225 -2.175 0.975
-29.925 -4.575 0.375
-29.925 -4.575 -2.175
-30.375 -2.475 -0.225
-30.375 -2.475 2.625
-30.375 -2.475 0.525
-30.375 -2.475 -3.975
-26.625 -3.825 0.225
-26.625 -3.825 0.525
-26.625 -3.825 -0.075
-26.625 -3.825 0.375
-29.775 -4.725 2.475
-29.775 -4.725 0.825
-29.775 -4.725 2.325
-28.575 -5.175 3.525
-28.575 -5.175 -0.075
-28.575 -5.175 -1.875
-28.575 -5.175 0.225
-28.575 -5.175 0.825
-28.575 -5.175 -0.225
-28.425 -5.175 -0.225
-28.425 -5.175 0.075
-28.425 -5.175 0.675
-28.425 -5.175 -0.675
-30.075 -4.425 0.375
-30.075 -4.425 0.225
-29.475 -1.425 2.025
-29.475 -1.425 -1.575
-29.475 -1.425 0.225
-29.475 -1.425 1.425
-27.075 -4.575 1.425
-27.075 -4.575 1.875
-27.075 -4.575 -1.425
-26.775 -2.175 1.725
-26.775 -2.175 -4.125
-28.725 -5.175 -0.075
-28.725 -5.175 -0.225
-28.725 -5.175 0.225
-28.275 -5.175 1.875
-28.275 -5.175 2.325
-28.275 -5.175 0.525
-28.275 -5.175 0.225
-27.525 -1.425 -0.525
-27.525 -1.425 2.325
-26.625 -2.475 -1.425
-26.625 -2.475 -0.225
-29.175 -1.275 -1.125
-26.925 -4.425 -1.275
-26.925 -4.425 -5.325
-26.925 -4.425 -0.375
-26.925 -4.425 0.675
-26.925 -4.425 -1.125
-26.925 -4.425 -0.225
-27.825 -1.275 -1.275
-27.675 -5.025 1.875
-27.675 -5.025 0.525
-27.675 -5.025 1.725
-27.675 -5.025 2.025
-29.925 -1.725 -4.125
-29.925 -1.725 -0.075
-29.925 -1.725 -0.675
-29.925 -1.725 2.025
-29.925 -1.725 -1.575
-29.925 -1.725 0.225
-29.925 -1.725 0.975
-29.625 -4.875 1.275
-29.625 -4.875 0.675
-29.625 -4.875 1.425
-29.625 -4.875 2.325
-29.625 -4.875 1.575
-29.625 -4.875 2.175
-29.625 -4.875 0.825
-28.875 -5.175 0.075
-28.875 -5.175 3.075
-30.525 -2.925 -5.175
-28.125 -5.175 0.675
-28.125 -5.175 0.075
-30.225 -4.275 -1.875
-30.225 -4.275 -0.075
-30.075 -1.875 0.525
-30.075 -1.875 -0.075
-30.075 -1.875 0.675
-26.475 -3.225 1.575
-26.475 -3.225 1.275
-26.475 -3.225 1.725
-26.475 -3.225 -1.125
-26.475 -3.075 1.425
-26.475 -3.075 0.975
-26.475 -3.075 1.125
-27.375 -4.875 0.675
-27.375 -4.875 -5.175
-27.375 -4.875 -1.575
-27.375 -4.875 1.425
-27.375 -4.875 1.125
-27.375 -4.875 -2.025
-29.775 -1.575 0.225
-29.775 -1.575 0.675
-29.775 -1.575 1.875
-29.775 -1.575 2.325
-27.075 -1.725 1.875
-27.075 -1.725 -0.525
-27.075 -1.725 -1.275
-27.075 -1.725 0.675
-27.075 -1.725 1.275
-27.075 -1.725 2.625
-27.075 -1.725 -0.975
-26.475 -3.375 2.625
-26.475 -3.375 1.275
-26.475 -3.375 1.125
-26.625 -3.975 -0.375
-26.625 -3.975 0.525
-30.375 -2.325 0.675
-26.475 -2.925 0.075
-26.475 -2.925 -1.725
-26.475 -2.925 -0.825
-26.775 -4.275 0.075
-26.925 -1.875 2.175
-26.925 -1.875 0.075
-26.925 -1.875 -0.375
-26.925 -1.875 -0.525
-26.925 -1.875 -0.825
-28.575 -1.125 -0.075
-27.225 -1.575 2.175
-27.225 -1.575 -3.075
-27.225 -1.575 -0.525
-27.225 -1.575 -0.675
-27.225 -1.575 2.625
-27.225 -1.575 3.075
-29.025 -5.175 -0.525
-30.225 -2.025 0.225
-30.225 -2.025 0.075
-26.475 -3.525 -0.825
-26.475 -3.525 0.675
-27.975 -5.175 -2.925
-27.975 -5.175 0.825
-27.975 -5.175 -5.175
-27.975 -5.175 0.375
-28.275 -1.125 -0.375
-28.275 -1.125 -1.275
-28.275 -1.125 -1.125
-26.625 -2.325 -1.425
-26.625 -2.325 -1.575
-26.625 -2.325 0.825
-26.475 -2.775 0.075
-26.475 -2.775 0.975
-26.475 -2.775 0.825
-27.675 -1.275 -1.425
-29.475 -5.025 2.625
-29.475 -5.025 2.475
-26.775 -2.025 2.025
-26.775 -2.025 -0.525
-26.775 -2.025 -1.725
-28.875 -1.125 -1.875
-28.875 -1.125 -2.175
-28.875 -1.125 0.975
-30.375 -4.125 0.975
-28.125 -1.125 -2.175
-28.125 -1.125 -1.275
-28.125 -1.125 2.625
-28.125 -1.125 -0.975
-28.125 -1.125 0.525
-28.125 -1.125 0.375
-27.375 -1.425 -1.575
-27.375 -1.425 -0.675
-27.525 -5.025 0.225
-27.525 -5.025 1.125
-27.525 -5.025 1.575
-30.075 -4.575 0.225
-26.475 -3.675 -0.825
-26.475 -3.675 -6.225
-26.475 -3.675 1.875
-26.475 -3.675 1.575
-27.075 -4.725 0.675
-27.075 -4.725 -7.125
-27.075 -4.725 0.825
-27.075 -4.725 0.225
-26.625 -4.125 2.775
-26.625 -4.125 3.075
-27.825 -5.175 -4.425
-27.825 -5.175 -3.975
-27.825 -5.175 0.825
-27.825 -5.175 1.275
-27.825 -5.175 0.525
-27.825 -5.175 0.375
-26.475 -2.625 -1.125
-26.475 -2.625 0.375
-26.475 -2.625 0.075
-26.925 -4.575 -4.425
-26.925 -4.575 -0.225
-30.525 -3.825 -1.125
-29.775 -4.875 2.325
-29.775 -4.875 0.225
-29.775 -4.875 -0.225
-29.775 -4.875 2.475
-29.775 -4.875 0.975
-27.975 -1.125 -1.125
-27.975 -1.125 -1.275
-27.975 -1.125 0.075
-27.975 -1.125 2.175
-27.225 -4.875 -1.125
-27.225 -4.875 -0.075
-27.225 -4.875 -5.475
-27.225 -4.875 0.075
-30.525 -2.475 -1.725
-29.475 -1.275 1.875
-29.475 -1.275 -0.075
-29.475 -1.275 1.125
-30.075 -1.725 1.425
-30.075 -1.725 -0.525
-30.075 -1.725 -2.025
-30.075 -1.725 1.575
-26.475 -3.825 1.575
-26.475 -3.825 -0.225
-26.475 -3.825 0.375
-26.475 -3.825 -2.925
-26.475 -3.825 1.425
-26.775 -4.425 0.225
-26.775 -4.425 0.075
-26.775 -4.425 1.575
-26.775 -4.425 0.525
-26.775 -4.425 -4.575
-26.775 -4.425 1.875
-26.625 -2.175 0.225
-26.625 -2.175 2.325
-29.925 -1.575 2.025
-29.925 -1.575 1.575
-29.925 -1.575 0.375
-29.925 -1.575 0.225
-29.925 -1.575 0.075
-29.925 -1.575 1.725
-29.925 -1.575 -0.075
-27.525 -1.275 2.325
-28.575 -5.325 1.275
-28.575 -5.325 -0.225
-28.575 -5.325 0.675
-28.575 -5.325 1.725
-28.575 -5.325 0.375
-28.575 -5.325 -0.375
-28.575 -5.325 -0.075
-28.575 -5.325 0.075
-28.575 -5.325 0.225
-28.425 -5.325 0.375
-28.425 -5.325 -0.825
-28.425 -5.325 0.225
-28.425 -5.325 -0.075
-28.425 -5.325 0.825
-26.925 -1.725 0.975
-26.925 -1.725 -1.875
-27.075 -1.575 0.525
-27.075 -1.575 -0.375
-27.075 -1.575 0.675
-27.075 -1.575 -0.975
-27.075 -1.575 0.225
-29.325 -5.175 2.175
-29.325 -5.175 0.225
-26.475 -2.475 0.075
-26.475 -2.475 -0.975
-26.475 -2.475 -2.025
-29.625 -5.025 0.975
-29.625 -5.025 2.475
-29.625 -5.025 0.525
-29.625 -5.025 0.825
-29.625 -5.025 0.375
-29.625 -5.025 2.325
-29.625 -5.025 -0.075
-28.725 -5.325 -0.525
-28.725 -5.325 0.975
-28.725 -5.325 -0.075
-28.725 -5.325 -0.675
-28.725 -5.325 -0.975
-28.725 -5.325 1.275
-28.725 -5.325 -0.375
-29.175 -1.125 -0.825
-29.175 -1.125 -0.675
-29.175 -1.125 -0.225
-28.275 -5.325 -0.525
-28.275 -5.325 0.525
-28.275 -5.325 0.675
-28.275 -5.325 -0.375
-28.275 -5.325 1.275
-28.275 -5.325 0.075
-28.275 -5.325 -0.075
-30.375 -4.275 -0.075
-29.775 -1.425 0.375
-27.675 -5.175 2.325
-27.675 -5.175 0.225
-27.675 -5.175 -0.675
-27.675 -5.175 -0.825
-27.675 -5.175 0.375
-27.675 -5.175 1.725
-30.525 -3.975 1.275
-27.825 -1.125 -1.275
-27.825 -1.125 0.075
-27.375 -5.025 -1.125
-27.375 -5.025 -1.575
-27.375 -5.025 -4.425
-27.375 -5.025 2.325
-27.375 -5.025 -0.525
-26.775 -1.875 -0.525
-26.775 -1.875 -0.675
-26.775 -1.875 -1.275
-26.775 -1.875 -1.575
-26.775 -1.875 -2.175
-26.775 -1.875 -0.975
-26.775 -1.875 1.575
-28.875 -5.325 2.475
-28.125 -5.325 0.225
-28.125 -5.325 -0.675
-28.125 -5.325 -1.725
-28.125 -5.325 0.375
-28.125 -5.325 -0.075
-26.625 -4.275 0.825
-26.625 -4.275 2.025
-26.625 -4.275 -4.425
-26.625 -4.275 0.225
-26.475 -3.975 -1.275
-26.475 -3.975 -1.125
-26.475 -3.975 2.325
-26.475 -3.975 1.575
-26.475 -3.975 1.425
-30.525 -2.325 -0.075
-30.525 -2.325 0.075
-26.325 -3.225 -0.825
-26.325 -3.225 1.875
-26.325 -3.075 -0.825
-26.325 -3.375 1.275
-26.325 -3.375 -0.225
-26.325 -3.375 -0.375
-26.325 -3.375 2.325
-26.325 -3.375 2.475
-26.325 -3.375 2.775
-30.075 -4.725 0.825
-30.075 -4.725 0.225
-26.325 -2.925 1.275
-26.325 -2.925 1.125
-26.325 -2.925 1.575
-26.325 -2.925 -0.225
-28.575 -0.975 0.825
-28.575 -0.975 -1.275
-29.625 -1.275 1.875
-29.625 -1.275 -1.575
-29.625 -1.275 2.175
-28.425 -0.975 2.625
-28.425 -0.975 -2.325
-29.025 -5.325 0.225
-29.925 -4.875 0.525
-29.925 -4.875 -0.075
-26.475 -2.325 -1.575
-26.475 -2.325 -1.275
-26.475 -2.325 -0.075
-29.325 -1.125 2.025
-29.325 -1.125 -2.025
-30.225 -4.575 -0.075
-27.975 -5.325 0.225
-27.975 -5.325 -5.025
-27.975 -5.325 -0.225
-27.975 -5.325 -0.075
-27.975 -5.325 0.525
-27.975 -5.325 0.375
-26.325 -3.525 2.025
-28.725 -0.975 0.675
-28.725 -0.975 -4.425
-26.925 -4.725 0.675
-26.925 -4.725 -5.775
-29.475 -5.175 2.325
-29.475 -5.175 0.375
-29.475 -5.175 0.075
-29.475 -5.175 -7.275
-28.275 -0.975 -3.225
-28.275 -0.975 -1.425
-28.275 -0.975 0.225
-27.375 -1.275 -1.725
-27.375 -1.275 2.175
-27.375 -1.275 2.325
-27.375 -1.275 -1.875
-27.675 -1.125 2.925
-27.075 -4.875 -0.525
-27.075 -4.875 0.525
-27.075 -4.875 1.125
-26.325 -2.775 -0.525
-30.525 -4.125 1.575
-30.525 -4.125 0.825
-27.525 -5.175 1.125
-27.525 -5.175 1.275
-27.525 -5.175 0.975
-26.775 -4.575 -0.375
-26.775 -4.575 1.875
-28.875 -0.975 -1.425
-29.775 -5.025 2.475
-29.775 -5.025 0.825
-29.775 -5.025 1.425
-29.775 -5.025 2.025
-29.775 -5.025 0.525
-29.775 -5.025 0.375
-28.125 -0.975 0.675
-28.125 -0.975 -1.125
-28.125 -0.975 0.525
-30.075 -1.575 1.425
-30.075 -1.575 0.975
-26.325 -3.675 -0.825
-26.325 -3.675 2.025
-26.325 -3.675 -0.075
-26.325 -3.675 2.175
-26.475 -4.125 -0.225
-26.475 -4.125 1.425
-29.175 -5.325 -4.125
-29.175 -5.325 -1.425
-30.225 -1.725 1.725
-30.225 -1.725 2.625
-30.225 -1.725 0.075
-30.225 -1.725 -0.075
-27.225 -5.025 -2.175
-27.225 -5.025 0.375
-27.225 -5.025 -0.075
-29.925 -1.425 0.225
-29.925 -1.425 0.675
-29.925 -1.425 0.075
-29.925 -1.425 1.125
-27.825 -5.325 2.025
-26.325 -2.625 0.075
-26.925 -1.575 -0.525
-26.625 -4.425 -4.275
-26.625 -4.425 -5.325
-26.625 -4.425 -1.725
-26.625 -4.425 1.575
-29.025 -0.975 -0.225
-29.025 -0.975 6.075
-29.025 -0.975 -0.525
-26.775 -1.725 -2.925
-26.775 -1.725 -1.125
-27.075 -1.425 -0.825
-27.075 -1.425 0.375
-27.075 -1.425 -0.375
-27.975 -0.975 -1.725
-27.975 -0.975 3.225
-29.475 -1.125 2.925
-29.475 -1.125 1.125
-26.475 -2.175 0.225
-26.475 -2.175 -0.675
-26.475 -2.175 -0.075
-26.475 -2.175 0.375
-27.525 -1.125 -1.425
-27.525 -1.125 2.925
-27.525 -1.125 -1.125
-26.325 -3.825 1.275
-26.325 -3.825 0.825
-26.325 -3.825 -2.175
-29.775 -1.275 -2.025
-29.625 -5.175 0.975
-29.625 -5.175 1.575
-29.625 -5.175 1.425
-26.625 -1.875 -1.275
-26.625 -1.875 1.425
-26.625 -1.875 1.575
-26.625 -1.875 -1.725
-26.625 -1.875 -0.975
-29.325 -5.325 0.375
-28.575 -5.475 1.275
-28.575 -5.475 -0.375
-28.575 -5.475 0.375
-28.575 -5.475 -0.675
-27.375 -5.175 -0.075
-27.375 -5.175 1.725
-27.375 -5.175 0.225
-28.425 -5.475 -0.225
-28.425 -5.475 -0.825
-28.425 -5.475 0.225
-28.425 -5.475 -0.075
-28.425 -5.475 0.675
-28.425 -5.475 0.375
-28.425 -5.475 -0.525
-26.325 -2.475 -0.975
-26.325 -2.475 -1.275
-26.325 -2.475 -1.575
-27.225 -1.275 1.725
-27.225 -1.275 0.375
-27.225 -1.275 -0.375
-27.225 -1.275 1.875
-29.175 -0.975 -0.525
-29.175 -0.975 -0.375
-27.675 -5.325 1.275
-27.675 -5.325 0.225
-27.675 -5.325 0.375
-28.725 -5.475 -0.075
-28.725 -5.475 -0.225
-28.725 -5.475 0.375
-28.725 -5.475 2.025
-28.725 -5.475 0.075
-28.725 -5.475 -0.675
-30.075 -4.875 0.225
-30.075 -4.875 0.375
-30.075 -4.875 0.525
-30.075 -4.875 2.025
-30.225 -4.725 0.975
-30.225 -4.725 -0.225
-30.225 -4.725 0.225
-28.275 -5.475 1.125
-28.275 -5.475 0.525
-28.275 -5.475 -0.825
-28.275 -5.475 0.075
-27.825 -0.975 -1.125
-27.825 -0.975 -1.425
-26.475 -4.275 0.225
-26.475 -4.275 0.375
-30.825 -3.225 0.225
-26.925 -4.875 -3.975
-26.925 -4.875 -0.075
-26.925 -4.875 -5.025
-26.925 -4.875 -4.275
-26.925 -4.875 0.525
-28.875 -5.475 -0.375
-28.875 -5.475 0.825
-28.875 -5.475 2.175
-29.925 -5.025 2.175
-29.925 -5.025 2.025
-29.925 -5.025 0.375
-29.925 -5.025 0.225
-29.925 -5.025 -0.075
-29.925 -5.025 0.825
-26.775 -4.725 -6.225
-26.775 -4.725 3.075
-26.775 -4.725 1.575
-26.775 -4.725 -1.125
-26.325 -3.975 1.125
-26.325 -3.975 0.525
-28.125 -5.475 0.675
-28.125 -5.475 0.525
-28.125 -5.475 -0.075
-28.125 -5.475 0.075
-26.175 -3.225 -1.125
-27.075 -5.025 0.525
-27.075 -5.025 -1.275
-27.075 -5.025 -3.075
-27.075 -5.025 -0.825
-27.075 -5.025 -5.475
-26.475 -2.025 -0.075
-26.475 -2.025 0.375
-26.175 -3.375 -4.725
-26.175 -3.375 2.025
-30.225 -1.575 2.025
-30.225 -1.575 1.425
-26.625 -4.575 0.075
-26.625 -4.575 0.225
-26.625 -4.575 0.675
-26.625 -4.575 0.825
-26.625 -4.575 0.525
-26.325 -2.325 0.075
-26.325 -2.325 0.975
-29.325 -0.975 0.975
-29.325 -0.975 -0.675
-30.075 -1.425 0.225
-30.075 -1.425 0.375
-30.075 -1.425 0.075
-30.075 -1.425 -0.525
-26.175 -2.925 1.125
-29.475 -5.325 -6.825
-29.475 -5.325 0.525
-29.475 -5.325 1.275
-28.575 -0.825 0.975
-28.575 -0.825 1.725
-28.575 -0.825 0.825
-28.575 -0.825 1.875
-28.425 -0.825 1.875
-28.425 -0.825 1.125
-27.975 -5.475 -0.375
-27.975 -5.475 0.375
-27.975 -5.475 0.075
-27.675 -0.975 -1.575
-27.675 -0.975 -1.875
-27.525 -5.325 1.875
-27.525 -5.325 -0.525
-29.775 -5.175 0.825
-29.775 -5.175 -0.075
-29.775 -5.175 1.875
-29.775 -5.175 0.375
-26.175 -3.525 -2.325
-26.175 -3.525 1.725
-26.175 -3.525 0.525
-30.375 -1.725 1.725
-30.375 -1.725 0.525
-30.375 -1.725 -0.075
-26.775 -1.575 -1.875
-26.775 -1.575 1.575
-26.775 -1.575 2.475
-26.925 -1.425 0.225
-26.925 -1.425 2.325
-26.925 -1.425 -0.375
-26.925 -1.425 1.575
-26.925 -1.425 -0.075
-26.925 -1.425 -0.675
-26.925 -1.425 -0.975
-26.925 -1.425 2.925
-28.275 -0.825 -1.275
-29.925 -1.275 -0.225
-29.925 -1.275 -0.975
-29.925 -1.275 1.275
-29.925 -1.275 0.975
-29.925 -1.275 0.075
-26.175 -2.775 -2.925
-26.175 -2.775 -0.825
-26.175 -2.775 0.375
-27.225 -5.175 -1.425
-27.225 -5.175 -0.375
-27.225 -5.175 0.825
-27.225 -5.175 -0.075
-26.625 -1.725 -0.975
-26.625 -1.725 1.575
-26.625 -1.725 -0.675
-26.325 -4.125 -0.975
-26.325 -4.125 1.425
-26.325 -4.125 -2.475
-26.325 -4.125 -0.075
-30.675 -2.175 -1.425
-27.075 -1.275 -1.875
-27.075 -1.275 1.875
-27.075 -1.275 -0.975
-28.125 -0.825 -1.575
-28.125 -0.825 0.975
-28.125 -0.825 -1.725
-26.475 -4.425 -1.725
-26.475 -4.425 -0.225
-26.475 -4.425 -3.225
-26.475 -4.425 0.675
-26.475 -4.425 0.225
-26.175 -3.675 1.425
-26.175 -3.675 -3.075
-26.175 -3.675 1.725
-29.175 -5.475 2.325
-29.175 -5.475 1.725
-29.175 -5.475 0.375
-29.175 -5.475 1.125
-29.175 -5.475 1.275
-27.825 -5.475 0.075
-30.525 -1.875 4.725
-26.175 -2.625 0.225
-29.475 -0.975 2.775
-26.325 -2.175 -0.075
-26.325 -2.175 0.075
-29.025 -0.825 0.975
-29.025 -0.825 -2.625
-29.025 -0.825 -0.525
-29.025 -0.825 1.125
-29.025 -0.825 0.675
-30.225 -4.875 0.225
-30.225 -4.875 -0.675
-30.225 -4.875 -0.375
-30.225 -4.875 0.525
-30.225 -4.875 0.375
-27.975 -0.825 -1.125
-27.975 -0.825 -0.225
-27.525 -0.975 0.375
-27.525 -0.975 1.425
-27.525 -0.975 -0.075
-27.525 -0.975 4.575
-27.525 -0.975 -1.425
-27.525 -0.975 1.875
-27.525 -0.975 2.325
-29.625 -5.325 0.375
-29.625 -5.325 0.825
-29.625 -5.325 0.225
-29.625 -5.325 1.125
-29.625 -5.325 -0.975
-26.475 -1.875 -0.225
-26.475 -1.875 -1.425
-26.475 -1.875 0.375
-26.475 -1.875 1.575
-30.075 -5.025 0.525
-30.075 -5.025 0.375
-30.375 -4.725 0.975
-27.225 -1.125 2.625
-27.225 -1.125 -1.875
-27.225 -1.125 0.375
-27.225 -1.125 2.475
-26.175 -3.825 1.275
-26.175 -3.825 2.025
-26.175 -3.825 -3.675
-26.775 -4.875 0.675
-26.775 -4.875 -1.275
-26.775 -4.875 -2.775
-27.375 -5.325 -0.375
-26.925 -5.025 -1.725
-26.925 -5.025 -0.075
-29.325 -5.475 1.275
-26.625 -4.725 0.825
-26.625 -4.725 1.725
-26.625 -4.725 0.075
-26.625 -4.725 -0.825
-26.625 -4.725 -3.975
-26.625 -4.725 -0.375
-26.625 -4.725 0.225
-26.625 -4.725 -3.525
-26.625 -4.725 1.275
-26.175 -2.475 -0.975
-26.175 -2.475 0.975
-27.675 -5.475 0.075
-29.925 -5.175 -0.375
-29.925 -5.175 0.225
-29.175 -0.825 -2.625
-26.325 -4.275 2.325
-26.325 -4.275 1.125
-28.575 -5.625 0.225
