# .PCD v0.7 - Point Cloud Data file format
VERSION 0.7
FIELDS x y z
SIZE 4 4 4
TYPE F F F
COUNT 1 1 1
WIDTH 2048
HEIGHT 1
VIEWPOINT 0 0 0 1 0 0 0
POINTS 2048
DATA ascii
-14.925 -53.325 2.325
-15.075 -50.925 2.775
-15.075 -50.925 2.925
-15.225 -50.925 2.925
-15.525 -51.525 1.575
-15.675 -52.125 0.525
-15.825 -51.975 1.275
-15.675 -53.175 3.225
-15.375 -53.925 -1.125
-15.975 -51.375 1.725
-16.125 -51.975 1.725
-16.125 -51.975 1.425
-15.675 -53.775 -0.375
-15.825 -53.625 3.075
-15.975 -53.475 -0.225
-15.975 -53.475 0.975
-15.675 -54.075 0.675
-16.275 -51.375 1.875
-16.275 -51.375 0.075
-16.125 -53.475 0.975
-15.975 -50.475 1.425
-15.975 -53.775 -0.225
-15.975 -53.775 0.675
-16.275 -53.175 1.275
-15.825 -50.175 2.775
-16.125 -53.625 -0.375
-16.425 -51.525 -0.075
-16.425 -52.725 3.375
-15.675 -54.375 -0.825
-16.425 -51.225 2.775
-15.825 -50.025 2.475
-16.125 -53.775 -0.225
-14.775 -49.125 0.975
-16.275 -53.625 0.975
-14.925 -49.125 1.125
-16.575 -51.525 -0.825
-16.575 -51.525 2.625
-16.575 -51.375 0.975
-16.425 -53.625 0.825
-16.425 -50.625 2.175
-16.275 -53.925 1.275
-16.575 -53.325 1.725
-16.125 -54.225 0.975
-16.725 -53.175 0.375
-16.575 -53.625 0.675
-16.875 -51.825 0.525
-16.875 -51.675 0.075
-16.875 -51.525 -1.125
-16.875 -51.525 0.975
-15.975 -49.575 -0.225
-16.575 -50.475 2.325
-16.875 -52.875 4.575
-16.875 -51.375 1.275
-16.875 -53.175 -2.475
-16.875 -53.175 1.875
-16.875 -53.175 4.575
-17.025 -51.975 0.225
-17.025 -51.975 0.825
-17.025 -51.675 -0.975
-17.025 -51.675 -0.825
-17.025 -51.525 -0.075
-17.025 -51.525 0.225
-15.975 -49.275 -2.025
-16.125 -49.425 0.525
-17.025 -53.175 -0.375
-16.875 -53.625 3.225
-17.175 -51.825 1.125
-17.175 -51.825 -0.525
-17.175 -51.825 0.675
-17.175 -51.675 -0.375
-17.025 -50.925 1.275
-17.325 -52.125 -0.225
-16.575 -49.725 1.875
-17.325 -51.975 0.825
-17.325 -51.975 1.275
-17.325 -52.425 -1.575
-17.325 -51.675 -0.675
-17.325 -52.575 0.225
-16.425 -49.425 2.625
-16.575 -49.575 2.325
-17.475 -52.125 -0.075
-17.475 -51.975 1.275
-17.475 -51.975 2.475
-17.475 -51.975 0.825
-17.475 -52.425 -1.425
-17.475 -51.825 0.075
-17.475 -51.825 0.675
-17.325 -53.325 1.425
-17.325 -53.475 0.975
-17.475 -51.225 2.025
-16.575 -49.275 -5.175
-17.625 -52.125 -0.525
-16.725 -54.825 -0.225
-17.625 -52.275 1.875
-17.625 -51.975 1.275
-17.625 -52.275 -1.425
-17.625 -51.975 2.175
-17.625 -51.975 -0.525
-17.625 -51.975 2.325
-17.625 -51.825 -0.075
-17.625 -51.825 0.525
-17.625 -51.825 0.825
-17.625 -51.825 0.075
-17.625 -52.425 0.825
-17.475 -53.325 1.575
-17.475 -53.325 4.725
-17.475 -53.325 0.375
-17.625 -51.675 0.525
-17.625 -52.725 -0.675
-17.475 -53.475 0.675
-17.475 -53.475 0.525
-16.425 -48.975 0.075
-17.625 -52.875 0.525
-17.625 -52.875 -0.375
-17.625 -53.025 -0.075
-17.475 -53.625 0.675
-17.775 -52.125 2.175
-17.775 -52.125 -0.375
-17.775 -52.125 0.075
-17.775 -51.975 1.275
-17.775 -51.975 -0.375
-17.625 -53.325 0.975
-17.775 -51.825 0.075
-17.775 -51.825 0.525
-17.775 -51.675 0.375
-17.775 -52.575 1.275
-17.775 -51.675 2.175
-17.775 -52.575 -0.675
-16.125 -48.525 -0.225
-17.775 -52.725 -0.525
-17.625 -50.775 -1.125
-17.625 -53.475 1.125
-17.625 -53.475 1.275
-17.475 -53.925 0.675
-17.775 -52.875 -0.675
-17.775 -52.875 -0.375
-17.775 -52.875 0.225
-17.775 -51.375 2.175
-16.875 -54.975 0.675
-17.625 -50.475 -1.275
-17.925 -52.125 -0.375
-17.775 -53.325 0.375
-17.925 -52.275 1.725
-17.925 -51.825 0.525
-17.925 -52.575 -1.275
-17.925 -52.575 0.375
-17.925 -51.675 -0.525
-17.925 -52.575 0.225
-17.925 -52.575 -0.225
-17.925 -51.675 0.525
-17.925 -51.525 1.725
-17.925 -52.725 -3.375
-17.925 -51.525 1.575
-17.925 -52.725 -0.075
-17.925 -51.525 -0.525
-17.925 -51.525 2.025
-17.775 -53.475 1.425
-17.775 -53.475 0.525
-17.775 -53.475 0.825
-17.775 -50.775 -1.125
-17.625 -50.325 2.025
-17.925 -52.875 -0.225
-17.925 -51.375 -0.525
-16.575 -48.675 -0.075
-17.325 -49.575 2.025
-17.925 -53.175 -3.075
-17.925 -53.175 0.375
-17.775 -53.775 0.525
-18.075 -52.275 0.825
-18.075 -51.975 1.275
-18.075 -51.825 0.675
-18.075 -51.825 1.875
-18.075 -52.425 -0.075
-18.075 -52.425 0.525
-18.075 -51.675 1.425
-18.075 -52.575 0.375
-17.775 -50.325 0.975
-17.775 -50.325 2.025
-18.075 -51.525 -0.825
-16.575 -48.525 -0.675
-18.075 -51.375 -0.525
-18.075 -51.375 -0.675
-18.075 -52.875 1.125
-16.275 -48.225 0.825
-16.275 -48.225 -0.525
-17.025 -48.975 2.925
-17.925 -50.625 1.125
-18.075 -51.225 -0.375
-18.075 -51.225 -0.975
-17.625 -54.375 0.675
-18.075 -50.925 1.575
-18.225 -52.125 -1.725
-18.225 -51.975 -0.225
-18.225 -51.975 0.675
-18.225 -52.275 0.675
-18.225 -52.425 1.725
-18.225 -51.825 0.675
-18.225 -51.825 -0.375
-18.225 -52.425 0.675
-17.925 -50.325 1.875
-16.275 -48.075 -0.675
-18.075 -53.475 0.375
-18.075 -50.775 -1.575
-18.225 -51.375 -0.225
-17.775 -54.375 0.525
-18.075 -50.625 -1.575
-18.225 -51.225 -0.375
-17.925 -50.175 1.875
-17.925 -50.175 0.825
-17.925 -54.075 0.075
-18.075 -53.775 0.975
-17.775 -54.525 -0.375
-18.225 -53.325 -0.225
-18.225 -50.925 1.425
-17.625 -49.425 -0.075
-18.375 -52.275 -0.075
-18.375 -51.825 -0.525
-18.375 -51.825 -0.375
-18.375 -51.675 0.225
-18.375 -51.675 0.075
-17.475 -49.125 1.575
-17.925 -49.875 1.575
-17.925 -49.875 2.475
-17.775 -49.575 1.125
-17.775 -54.675 -0.225
-18.375 -52.875 0.075
-18.225 -50.625 0.975
-18.225 -53.625 0.975
-18.225 -53.625 0.375
-18.225 -53.625 0.525
-18.075 -54.075 -0.825
-18.375 -51.225 -0.525
-18.375 -51.075 -0.525
-17.925 -54.525 0.075
-17.925 -54.525 -0.975
-18.075 -50.025 0.825
-18.375 -53.325 0.975
-18.525 -51.975 0.375
-18.525 -51.825 -0.225
-18.225 -50.325 1.275
-18.225 -50.325 0.975
-16.725 -48.075 1.725
-18.525 -51.675 -0.375
-18.375 -53.475 0.975
-18.375 -53.475 0.525
-18.525 -51.525 3.975
-18.525 -51.525 0.225
-17.925 -49.575 1.125
-17.925 -54.675 -0.075
-18.075 -54.375 -0.525
-18.525 -52.875 -2.925
-17.775 -49.275 -0.225
-18.375 -53.625 0.375
-18.375 -53.625 0.825
-18.525 -53.025 0.525
-18.525 -51.225 -2.475
-18.525 -51.225 -3.975
-18.525 -51.075 -1.125
-18.525 -51.075 -0.825
-18.525 -51.075 -0.675
-18.525 -53.175 0.825
-18.075 -49.725 1.875
-18.075 -54.525 -0.525
-18.375 -50.475 1.125
-17.925 -54.825 -0.675
-18.525 -53.325 0.525
-18.525 -50.925 -0.525
-18.525 -50.925 -0.675
-16.725 -47.925 1.125
-17.775 -49.125 -0.375
-18.375 -50.325 1.275
-18.675 -51.975 -0.975
-16.575 -47.775 0.525
-18.675 -51.975 -0.225
-18.675 -51.975 0.375
-18.675 -52.425 0.525
-18.675 -51.825 0.975
-18.675 -51.825 -0.225
-18.675 -51.825 -2.925
-18.675 -52.425 0.675
-18.675 -51.675 -0.375
-18.675 -51.675 0.825
-18.675 -51.525 0.075
-18.675 -51.525 -0.675
-17.925 -54.975 -0.825
-18.375 -50.175 1.575
-18.375 -50.175 0.525
-17.775 -48.975 -0.525
-18.675 -51.225 2.475
-18.225 -54.525 1.425
-18.075 -54.825 -0.825
-18.675 -51.075 -1.275
-18.675 -51.075 -0.225
-18.675 -51.075 0.975
-18.675 -53.175 0.525
-18.675 -50.925 2.325
-18.675 -53.325 0.525
-18.525 -50.325 -1.725
-18.525 -50.325 -2.025
-18.825 -52.125 0.975
-18.225 -54.675 1.125
-18.225 -54.675 1.275
-18.675 -53.475 0.525
-18.675 -53.475 0.675
-18.825 -51.675 -0.375
-18.825 -51.675 0.825
-18.825 -52.725 -1.425
-16.875 -47.775 0.225
-18.675 -53.625 0.675
-17.625 -48.525 1.425
-18.825 -51.225 -2.775
-18.225 -54.825 1.125
-18.225 -49.425 -0.075
-18.075 -49.125 -0.075
-18.075 -49.125 -0.225
-17.775 -48.675 0.975
-18.675 -50.475 1.575
-18.825 -53.325 0.825
-18.675 -50.325 0.675
-18.375 -49.575 1.275
-17.475 -48.225 1.125
-18.225 -49.275 -0.075
-18.975 -52.275 4.275
-18.975 -52.275 -0.675
-18.975 -51.975 0.825
-18.825 -53.475 0.975
-18.975 -52.425 -0.975
-18.075 -48.975 0.525
-18.075 -48.975 0.975
-18.975 -51.675 -1.275
-18.975 -51.525 -2.325
-18.975 -51.525 -0.375
-18.825 -50.625 -1.725
-18.975 -52.875 -2.025
-18.375 -49.425 0.075
-18.675 -50.025 -2.175
-17.325 -47.925 0.825
-18.975 -51.075 1.125
-18.975 -51.075 0.975
-18.975 -53.175 -0.375
-18.075 -48.825 0.375
-18.525 -54.675 0.975
-18.525 -54.675 0.525
-18.975 -53.325 0.825
-18.975 -50.925 2.475
-18.825 -50.325 1.425
-18.825 -50.325 1.575
-19.125 -51.825 0.825
-19.125 -51.675 0.675
-18.825 -50.175 0.375
-18.825 -50.175 -0.975
-19.125 -51.525 -0.375
-19.125 -52.725 0.975
-19.125 -51.525 -2.175
-18.975 -50.625 -0.525
-18.675 -54.525 0.825
-19.125 -51.225 -3.375
-18.225 -48.825 0.825
-18.225 -48.825 0.225
-18.975 -50.475 1.425
-18.525 -49.275 -3.525
-18.525 -54.975 0.825
-18.675 -54.675 0.975
-18.675 -49.575 -2.325
-19.125 -53.325 0.825
-18.975 -50.325 1.575
-18.975 -50.325 0.825
-19.275 -52.125 -1.275
-19.275 -52.275 -1.725
-17.475 -56.475 0.375
-17.325 -47.625 0.225
-19.275 -51.825 1.725
-19.275 -51.825 1.275
-19.275 -51.825 1.875
-19.275 -51.825 -0.975
-19.275 -52.575 -0.675
-18.975 -50.175 0.975
-18.675 -49.425 -2.325
-18.525 -55.125 -0.075
-19.275 -51.525 -7.275
-16.875 -47.175 1.425
-19.275 -51.225 -1.725
-19.125 -50.475 -0.825
-19.125 -50.475 -0.525
-19.125 -50.475 1.425
-19.275 -51.075 -0.675
-19.275 -53.175 0.375
-18.675 -49.275 -0.075
-18.675 -49.275 -0.225
-18.675 -54.975 0.525
-18.825 -49.575 -2.475
-18.825 -49.575 -2.025
-18.825 -49.575 1.875
-17.625 -56.475 -0.075
-19.275 -50.925 -0.975
-19.275 -50.925 0.975
-17.775 -56.325 0.075
-18.975 -49.875 0.825
-18.975 -49.875 0.675
-18.975 -49.875 0.975
-19.425 -52.125 -4.425
-18.075 -56.025 1.275
-19.425 -51.975 -1.425
-19.425 -52.275 -0.225
-19.425 -51.975 -0.525
-19.425 -52.425 -0.525
-19.425 -52.425 0.225
-19.125 -50.175 -2.175
-19.125 -50.175 1.125
-19.125 -50.175 0.525
-19.425 -51.675 1.425
-19.425 -52.575 0.675
-19.425 -52.575 0.375
-19.425 -51.675 -0.525
-18.525 -48.825 1.125
-16.425 -46.725 0.525
-19.425 -52.725 -0.675
-19.425 -52.725 -0.525
-19.425 -52.725 0.525
-19.125 -50.025 0.975
-19.125 -50.025 0.675
-19.125 -50.025 0.825
-17.625 -47.625 0.675
-19.425 -51.225 -0.675
-18.375 -55.725 0.975
-19.275 -50.475 -0.525
-18.825 -49.275 -0.075
-19.425 -51.075 -0.675
-19.275 -50.325 0.975
-19.275 -50.325 -0.375
-19.275 -50.325 -1.875
-19.125 -49.875 0.975
-19.425 -53.325 0.375
-18.825 -49.125 -0.075
-19.425 -50.775 -2.025
-19.575 -51.975 -0.675
-19.275 -50.175 0.375
-19.575 -51.975 -1.275
-19.575 -51.975 -0.375
-19.575 -51.975 -1.425
-19.575 -51.975 -0.075
-19.575 -51.975 -0.525
-19.575 -52.275 -0.375
-19.275 -50.175 1.275
-16.425 -46.575 0.375
-19.575 -51.825 -0.675
-19.575 -52.425 -0.375
-19.575 -52.425 -0.825
-19.125 -49.725 1.425
-19.575 -51.675 -0.525
-19.575 -52.575 0.375
-19.425 -50.625 -0.225
-18.075 -56.325 0.825
-19.575 -51.375 1.425
-19.575 -52.875 -0.525
-19.275 -50.025 -1.125
-19.275 -50.025 1.575
-18.975 -49.275 1.575
-18.975 -49.275 1.725
-18.825 -48.975 0.375
-19.575 -53.025 -0.525
-19.425 -50.475 -1.425
-19.425 -50.475 1.275
-19.575 -51.075 -0.825
-19.575 -51.075 -1.575
-19.575 -51.075 -0.375
-19.575 -53.175 0.525
-19.275 -49.875 -1.125
-19.275 -49.875 1.875
-19.275 -49.875 0.825
-19.425 -50.325 1.575
-19.425 -50.325 1.875
-19.575 -53.325 0.975
-19.575 -53.325 0.825
-19.575 -50.925 -2.025
-19.575 -50.925 -0.825
-18.525 -55.875 0.975
-18.975 -49.125 1.125
-18.975 -49.125 -3.675
-18.975 -49.125 1.275
-18.975 -49.125 -0.375
-17.775 -56.775 0.225
-19.575 -53.475 0.675
-19.575 -53.475 0.525
-19.575 -53.475 0.825
-19.575 -50.775 -1.575
-19.425 -54.075 0.975
-19.425 -50.175 0.525
-19.275 -49.725 1.575
-19.275 -49.725 1.125
-19.725 -51.975 -1.125
-19.725 -51.975 -0.525
-19.725 -52.275 -0.525
-19.725 -51.825 -0.975
-19.725 -51.825 -0.675
-19.725 -52.425 -0.375
-18.225 -56.325 -0.225
-18.225 -56.325 1.275
-19.725 -52.575 -0.375
-19.725 -51.525 2.775
-19.725 -52.725 -0.375
-19.725 -51.525 1.575
-19.425 -50.025 1.275
-19.425 -50.025 1.575
-18.975 -48.975 0.825
-18.975 -48.975 1.725
-19.275 -49.575 0.825
-19.275 -49.575 1.575
-19.575 -53.775 1.275
-19.725 -51.225 -1.575
-19.725 -51.225 1.425
-19.725 -51.075 0.825
-19.425 -49.875 -1.125
-19.425 -49.875 1.275
-18.225 -56.475 -0.075
-19.275 -54.825 1.125
-19.725 -53.475 0.825
-19.725 -50.775 -0.375
-19.575 -50.175 -0.975
-16.725 -46.425 0.375
-19.875 -52.125 -0.075
-19.875 -52.125 -0.825
-19.875 -51.975 -0.225
-19.875 -51.975 -0.675
-19.875 -51.975 -0.075
-19.875 -51.825 -0.225
-19.875 -51.825 -0.825
-19.875 -51.825 -0.375
-19.875 -51.825 -0.525
-19.875 -51.825 -0.675
-19.875 -51.675 -0.375
-19.875 -51.675 -0.525
-19.875 -52.575 -1.275
-19.875 -51.525 -4.575
-19.875 -52.725 -0.375
-19.275 -49.275 0.375
-19.875 -52.875 -0.375
-19.575 -54.375 0.675
-19.575 -49.875 0.975
-19.725 -50.325 0.675
-19.275 -55.125 0.975
-19.275 -49.125 -1.125
-19.275 -49.125 -0.375
-19.875 -50.925 -1.725
-19.575 -49.725 1.425
-19.725 -54.075 -0.375
-19.725 -50.175 -0.525
-20.025 -52.125 -0.825
-20.025 -52.125 -3.075
-20.025 -52.125 -0.075
-20.025 -51.975 -0.075
-20.025 -51.975 -1.125
-20.025 -51.825 0.225
-19.275 -55.275 0.825
-19.275 -48.975 1.575
-20.025 -51.675 -0.075
-20.025 -51.675 -1.425
-20.025 -51.675 -0.375
-20.025 -51.675 0.975
-20.025 -51.675 -0.675
-19.875 -50.625 -0.675
-19.425 -49.275 -1.725
-19.425 -49.275 0.075
-19.425 -49.275 0.975
-19.125 -55.575 1.275
-19.125 -48.675 -4.875
-19.125 -48.675 -5.025
-20.025 -51.525 -3.075
-20.025 -51.525 -0.975
-20.025 -51.525 -0.225
-17.475 -46.725 1.275
-19.575 -49.575 2.025
-20.025 -51.375 -0.825
-20.025 -52.875 -0.375
-18.975 -55.875 1.125
-19.425 -55.125 0.675
-19.425 -49.125 -0.075
-19.425 -49.125 0.075
-19.425 -49.125 -0.225
-19.875 -50.325 2.925
-19.125 -55.725 1.275
-19.725 -54.525 0.375
-19.875 -50.175 -0.525
-19.425 -48.975 -0.225
-20.175 -52.125 -0.075
-20.175 -52.275 0.075
-18.675 -56.475 -0.225
-20.175 -51.675 -0.375
-20.175 -51.675 0.075
-20.175 -51.675 -0.075
-20.175 -51.675 -0.525
-20.175 -51.675 -1.275
-19.875 -50.025 1.425
-19.875 -54.225 -0.375
-19.875 -50.025 1.575
-19.725 -49.575 -0.225
-19.725 -49.575 1.425
-20.175 -51.525 -0.225
-20.175 -52.875 0.075
-20.025 -50.475 -0.975
-20.025 -50.475 -1.875
-19.425 -48.825 -0.075
-19.575 -55.125 0.825
-19.575 -49.125 0.675
-19.875 -49.875 1.875
-19.275 -48.525 -0.525
-19.875 -49.725 2.175
-20.025 -50.175 -0.525
-20.025 -50.175 -0.825
-19.575 -48.975 1.425
-19.575 -55.275 0.975
-20.325 -52.125 0.075
-20.325 -52.275 0.525
-20.325 -51.825 -0.525
-20.325 -51.825 -0.375
-20.175 -50.625 -0.975
-20.025 -50.025 1.425
-20.025 -50.025 1.275
-20.325 -51.675 -0.375
-20.325 -51.675 -0.975
-20.325 -51.675 0.375
-20.325 -51.675 -0.075
-20.325 -51.675 -0.525
-19.875 -54.675 0.675
-19.875 -54.675 0.375
-20.325 -51.525 -3.075
-20.175 -50.475 -0.975
-19.575 -48.825 1.275
-19.575 -48.825 0.225
-19.725 -49.125 0.075
-19.725 -49.125 -1.575
-20.025 -49.875 1.125
-20.025 -49.875 1.725
-20.025 -49.875 2.025
-20.325 -51.075 -1.575
-20.175 -50.325 -1.125
-17.025 -45.975 2.325
-20.025 -49.725 1.875
-19.725 -48.975 -1.575
-19.725 -48.975 -0.225
-20.175 -50.175 -0.675
-20.175 -50.175 -1.725
-19.125 -47.925 -1.275
-20.475 -52.125 0.075
-20.475 -51.975 0.075
-20.475 -51.975 -0.675
-20.325 -50.625 -0.675
-20.175 -50.025 0.375
-20.175 -50.025 -0.525
-20.475 -51.825 -0.525
-20.475 -51.675 -1.575
-20.475 -51.675 -0.525
-20.475 -51.525 1.425
-20.475 -51.525 -0.075
-19.725 -48.825 -1.575
-20.325 -50.475 -0.225
-20.325 -50.475 -0.975
-19.875 -49.125 0.225
-20.475 -51.375 0.375
-20.475 -51.375 -2.325
-20.175 -49.875 1.725
-20.475 -51.225 -0.525
-20.025 -49.425 1.575
-20.325 -50.325 -2.175
-20.475 -50.925 -2.025
-20.475 -53.325 0.675
-19.725 -48.675 1.425
-19.875 -48.975 -0.075
-20.325 -50.175 -1.725
-20.325 -50.175 -2.325
-20.325 -50.025 0.525
-20.325 -50.025 2.175
-17.625 -46.125 1.425
-20.625 -52.125 -1.575
-20.625 -51.975 -1.575
-20.625 -52.275 0.075
-20.625 -51.825 -0.525
-20.625 -51.825 -1.125
-19.875 -48.825 -1.125
-20.625 -51.675 -0.525
-20.025 -49.125 0.075
-20.025 -49.125 0.675
-20.625 -51.525 -0.075
-20.625 -51.525 1.575
-20.475 -50.475 -1.125
-20.625 -51.375 0.375
-20.625 -51.225 3.075
-20.025 -48.975 0.975
-20.025 -48.975 0.225
-20.025 -48.975 0.675
-20.025 -48.975 -0.675
-20.625 -50.925 -2.625
-20.625 -50.925 -2.325
-20.625 -53.325 0.675
-19.575 -48.075 -1.875
-20.325 -49.575 0.225
-20.025 -48.825 0.975
-20.625 -50.625 -0.525
-20.775 -51.975 -1.275
-20.775 -51.825 0.075
-19.425 -47.775 -1.725
-20.175 -49.125 1.125
-20.175 -49.125 -0.075
-20.175 -49.125 1.275
-20.175 -49.125 0.375
-20.775 -51.675 0.075
-20.775 -51.675 -0.075
-20.775 -51.675 0.375
-20.775 -51.525 -0.375
-20.625 -53.775 -1.275
-20.475 -49.875 1.125
-19.575 -47.925 -1.575
-17.775 -45.975 1.425
-20.175 -48.975 -0.675
-20.175 -48.975 -0.375
-20.475 -49.725 0.225
-19.425 -47.625 1.125
-20.325 -49.275 -0.075
-20.325 -49.275 0.225
-20.325 -49.275 0.675
-20.475 -49.575 0.075
-20.475 -49.575 -0.375
-20.775 -53.625 -1.125
-20.925 -51.825 -0.525
-20.925 -51.675 0.075
-20.925 -51.675 -1.125
-20.925 -51.675 0.525
-20.925 -51.525 -0.075
-20.775 -50.475 -3.075
-20.775 -50.475 -0.375
-19.425 -47.475 1.275
-19.425 -47.475 1.875
-20.325 -48.975 0.375
-20.325 -48.975 0.675
-20.325 -48.975 0.975
-20.325 -48.975 -0.225
-19.575 -47.625 -1.575
-20.625 -49.725 2.175
-20.625 -49.725 0.225
-20.475 -49.275 1.275
-19.725 -56.475 -0.225
-20.925 -50.775 -0.375
-20.325 -48.825 0.525
-20.325 -48.825 0.075
-20.325 -48.825 0.225
-19.425 -47.325 2.025
-20.475 -49.125 -2.775
-20.475 -49.125 0.525
-19.875 -56.325 0.075
-18.825 -46.575 2.325
-21.075 -52.425 1.425
-21.075 -51.825 -0.675
-21.075 -51.675 -0.075
-21.075 -52.575 -1.125
-21.075 -51.675 -0.825
-20.625 -49.425 2.175
-21.075 -51.525 0.075
-21.075 -51.525 -0.075
-21.075 -52.725 -0.975
-21.075 -51.525 -0.825
-19.275 -47.025 -1.275
-20.475 -48.975 -0.075
-20.925 -50.175 -0.525
-20.175 -56.025 0.375
-20.475 -48.825 -0.525
-18.825 -46.425 2.625
-20.775 -49.575 2.475
-21.075 -50.625 -0.375
-21.075 -53.625 -1.125
-21.225 -51.975 -0.825
-20.775 -49.425 1.425
-21.225 -51.675 -0.375
-21.225 -52.575 -1.275
-21.225 -51.525 -0.225
-21.225 -51.525 -0.075
-20.625 -48.975 -0.525
-20.625 -48.975 -0.075
-20.625 -55.275 0.225
-21.225 -51.375 -2.325
-20.925 -54.525 0.375
-18.825 -46.275 2.175
-20.625 -48.825 -0.375
-19.425 -46.875 2.925
-19.425 -46.875 2.775
-20.925 -49.575 -1.875
-20.175 -47.925 1.125
-20.775 -49.125 0.975
-20.775 -49.125 0.375
-21.075 -50.025 -2.025
-21.075 -50.025 -0.525
-21.075 -50.025 -3.225
-21.075 -54.225 -0.375
-21.075 -54.225 -1.425
-21.225 -53.625 -0.975
-21.375 -51.975 2.625
-21.375 -51.975 -0.225
-21.375 -51.975 -0.525
-20.475 -55.875 0.525
-21.375 -51.825 -0.225
-21.375 -51.675 -1.125
-21.375 -51.675 -0.375
-21.375 -51.675 -1.275
-21.225 -50.475 0.225
-21.375 -51.525 -0.225
-21.375 -51.525 -0.075
-20.775 -48.975 -0.225
-20.775 -48.975 -0.525
-20.775 -48.975 -0.675
-19.875 -47.325 0.525
-21.225 -50.325 -0.225
-20.925 -49.275 1.725
-20.775 -48.825 -0.225
-21.225 -54.075 -1.275
-21.225 -54.075 -0.225
-20.325 -47.925 1.275
-20.925 -49.125 -0.975
-20.925 -49.125 0.225
-21.375 -50.775 -1.275
-21.225 -50.025 -0.525
-21.225 -54.225 -1.575
-21.225 -50.025 -0.825
-21.225 -50.025 -0.375
-20.775 -48.675 -2.925
-20.775 -48.675 -0.075
-18.675 -45.825 0.525
-21.525 -52.125 1.575
-21.525 -51.975 1.725
-21.525 -51.975 2.325
-21.525 -51.825 1.725
-21.225 -54.375 0.525
-19.575 -46.725 2.475
-21.525 -51.675 -0.225
-20.925 -48.975 0.525
-21.375 -50.475 -1.275
-21.375 -50.475 -1.725
-21.375 -50.475 -1.425
-21.525 -51.525 -0.075
-21.525 -51.375 -0.075
-21.525 -51.375 -0.375
-21.375 -50.325 -0.225
-21.375 -50.325 1.575
-21.075 -49.275 -0.075
-20.175 -47.475 -0.825
-21.075 -54.975 -0.975
-21.525 -51.225 1.575
-21.225 -54.525 0.825
-21.225 -49.725 1.425
-21.525 -53.175 -2.475
-21.525 -51.075 -3.975
-21.375 -54.075 -0.375
-21.525 -50.925 -1.425
-20.325 -47.625 1.125
-21.225 -54.675 -0.525
-21.075 -49.125 -0.225
-21.525 -50.775 1.575
-21.375 -50.025 1.575
-21.375 -50.025 -0.525
-21.525 -50.625 -0.975
-21.525 -50.625 -1.575
-21.525 -50.625 2.625
-21.225 -54.825 -0.375
-21.675 -51.975 0.675
-21.675 -51.975 1.575
-18.375 -45.375 1.575
-21.675 -51.825 -0.675
-21.675 -51.825 -0.375
-21.675 -52.425 -0.225
-21.675 -51.675 -0.375
-21.675 -51.675 -0.075
-21.675 -51.675 -0.525
-20.325 -47.475 3.375
-21.675 -51.525 0.075
-21.675 -51.525 -0.225
-21.675 -51.525 -1.125
-21.675 -51.375 0.075
-21.225 -49.275 0.225
-21.375 -54.525 -1.275
-21.675 -51.225 -0.525
-21.075 -48.825 0.225
-20.475 -47.625 1.275
-20.475 -56.625 1.725
-21.525 -54.075 -0.975
-21.525 -50.175 -4.875
-21.525 -50.175 -0.525
-21.375 -54.675 -0.075
-21.225 -49.125 1.275
-21.225 -49.125 0.825
-20.325 -47.325 -0.825
-20.325 -56.925 1.575
-21.525 -54.225 -0.525
-21.525 -50.025 -3.075
-21.525 -50.025 -0.375
-21.075 -48.675 3.225
-21.675 -50.625 1.575
-21.375 -49.425 -1.425
-21.825 -52.125 -0.975
-21.825 -51.975 0.375
-21.825 -51.975 -0.825
-21.825 -51.975 -0.975
-21.825 -51.825 -0.375
-21.825 -51.825 -0.525
-21.825 -51.675 -0.375
-21.825 -51.525 -0.375
-21.825 -51.525 0.225
-21.825 -51.525 1.725
-21.825 -51.375 -1.125
-21.525 -54.525 -0.525
-21.525 -54.525 0.375
-21.225 -48.825 0.375
-21.675 -50.175 -0.825
-21.675 -50.175 -0.525
-21.525 -54.675 -0.525
-21.375 -49.125 1.125
-21.375 -49.125 0.975
-21.075 -48.375 -0.525
-20.775 -47.775 -1.875
-21.825 -53.475 -1.125
-21.675 -50.025 -0.825
-21.225 -48.675 -1.875
-21.525 -49.425 -0.075
-21.525 -49.425 1.425
-21.975 -52.275 -6.375
-21.975 -51.975 -1.725
-21.975 -52.425 -1.275
-21.975 -51.675 -0.375
-21.975 -51.675 -0.525
-21.525 -49.275 0.075
-21.975 -51.525 -1.275
-21.975 -51.525 -0.375
-21.675 -49.725 -0.825
-21.975 -51.375 -0.525
-21.975 -51.375 -0.225
-21.975 -51.375 -1.725
-21.975 -52.875 -0.075
-21.375 -48.825 -0.375
-21.375 -48.825 -1.725
-21.375 -48.825 -0.525
-21.375 -48.825 0.825
-21.975 -51.225 1.125
-21.975 -51.225 -0.225
-21.975 -51.225 1.275
-21.975 -51.225 2.025
-18.375 -44.925 1.725
-21.825 -50.175 -0.075
-21.825 -50.025 -0.525
-21.825 -50.025 -0.375
-21.525 -48.975 0.225
-21.525 -48.975 0.825
-21.825 -49.875 -0.975
-22.125 -51.975 -0.375
-22.125 -52.275 -1.275
-22.125 -51.825 -0.375
-20.925 -47.625 2.175
-22.125 -51.675 0.525
-22.125 -51.675 -0.675
-22.125 -51.675 -0.075
-22.125 -51.525 -0.375
-21.525 -48.825 -0.075
-21.525 -48.825 0.375
-21.825 -49.725 -1.125
-20.475 -46.875 2.325
-20.025 -46.275 3.225
-21.975 -50.175 -0.375
-21.975 -50.175 -0.975
-21.825 -49.575 2.475
-18.675 -44.925 1.875
-21.975 -50.025 -0.525
-21.975 -54.225 -0.675
-21.825 -49.425 0.975
-21.675 -48.975 -0.525
-21.675 -48.975 0.525
-21.975 -49.875 -0.975
-21.525 -48.525 0.675
-22.275 -52.125 -0.975
-22.275 -51.975 -0.825
-22.275 -51.825 0.075
-22.275 -52.425 -0.225
-21.825 -49.275 0.225
-20.925 -47.325 0.525
-22.275 -51.675 -0.675
-22.275 -51.675 0.075
-22.275 -51.675 -1.875
-21.675 -48.825 0.525
-22.275 -51.525 0.225
-22.275 -52.875 0.225
-20.325 -46.425 0.225
-21.225 -47.775 -3.975
-21.225 -47.775 -4.275
-22.125 -54.075 -1.725
-22.125 -50.175 1.725
-22.125 -50.175 -0.375
-21.675 -48.675 0.375
-22.125 -50.025 -1.125
-22.275 -50.775 -1.425
-21.825 -48.975 -0.375
-21.825 -48.975 0.525
-21.825 -48.975 -0.225
-21.975 -49.425 -0.075
-21.975 -49.425 -0.825
-22.275 -53.625 0.075
-22.275 -50.625 -0.675
-22.125 -49.875 -0.975
-21.675 -48.525 1.125
-21.675 -48.525 1.275
-22.275 -50.475 1.875
-21.975 -49.275 1.875
-21.975 -49.275 0.375
-21.975 -49.275 1.425
-22.425 -51.975 -0.525
-22.425 -51.975 0.075
-22.425 -51.975 -0.225
-20.475 -46.425 1.125
-22.425 -51.675 -0.675
-22.425 -51.675 -0.225
-22.425 -52.575 1.875
-22.125 -49.725 0.975
-22.125 -54.525 -0.225
-22.425 -51.525 -0.225
-21.525 -48.075 -1.125
-22.425 -51.375 -0.375
-21.675 -48.375 1.425
-22.425 -53.025 -0.225
-22.125 -49.575 0.075
-22.125 -54.675 -0.525
-22.275 -50.175 -2.325
-22.425 -53.175 -0.075
-22.425 -50.925 0.675
-22.275 -54.225 -1.125
-22.275 -50.025 0.975
-21.525 -47.925 -0.675
-21.975 -48.975 -0.075
-21.975 -48.975 0.675
-21.975 -48.975 0.825
-20.475 -46.275 -0.075
-22.425 -50.775 1.125
-22.425 -50.625 1.425
-22.425 -50.625 2.775
-22.425 -50.625 -0.825
-22.275 -54.375 0.225
-22.275 -49.875 -0.375
-22.275 -49.875 2.175
-22.275 -49.875 1.275
-22.125 -49.275 0.225
-21.975 -48.825 1.125
-21.975 -48.825 0.375
-22.575 -51.975 -0.675
-22.275 -49.725 0.975
-21.675 -48.075 -1.125
-22.575 -51.675 -0.375
-22.575 -51.675 -0.825
-22.575 -51.675 -0.675
-22.575 -51.675 -0.075
-22.575 -51.525 -1.425
-22.575 -51.525 -1.875
-22.575 -51.525 -0.075
-22.425 -53.925 0.225
-21.825 -48.375 0.825
-22.575 -51.375 -0.525
-22.125 -49.125 0.225
-20.925 -46.725 1.875
-22.275 -49.575 0.825
-20.625 -46.275 -0.675
-21.075 -46.875 1.275
-22.425 -50.025 -1.125
-22.425 -50.025 -2.025
-22.425 -50.025 -4.425
-22.275 -49.425 -0.225
-22.275 -49.425 0.825
-22.575 -50.775 0.075
-21.975 -48.525 -1.125
-22.575 -50.625 -1.125
-22.425 -49.875 -0.375
-22.425 -49.875 -0.825
-22.425 -49.875 0.825
-22.275 -54.975 -1.575
-22.125 -48.825 1.275
-22.125 -48.825 1.425
-22.575 -53.775 4.875
-22.575 -53.775 -0.375
-22.575 -50.475 -1.125
-21.675 -47.775 -1.875
-22.725 -51.975 1.125
-22.425 -49.725 -0.825
-20.625 -46.125 -4.575
-22.725 -51.825 -0.225
-22.725 -51.825 -1.425
-22.725 -51.825 -1.125
-21.975 -48.375 1.275
-21.975 -48.375 -1.125
-22.725 -51.525 -0.225
-22.725 -51.525 -0.525
-22.725 -52.725 2.025
-22.575 -50.325 1.725
-22.725 -51.375 0.075
-22.725 -51.375 -0.225
-22.725 -51.375 0.225
-22.125 -48.675 1.575
-22.125 -48.675 1.425
-22.125 -48.675 0.675
-22.725 -51.225 -0.075
-22.725 -51.225 0.075
-22.725 -51.225 -0.225
-22.425 -49.575 0.675
-22.575 -50.175 0.075
-22.575 -54.075 -0.825
-21.225 -46.875 2.325
-22.725 -51.075 -4.275
-22.725 -51.075 -0.075
-20.925 -46.425 0.975
-20.925 -46.425 2.025
-22.275 -48.975 -1.575
-22.275 -48.975 -0.675
-22.575 -50.025 -0.375
-22.575 -50.025 2.325
-22.425 -49.425 -0.075
-22.425 -49.425 -1.425
-22.425 -49.425 0.225
-22.425 -49.425 0.075
-22.125 -48.525 1.275
-22.725 -50.775 -0.975
-20.625 -45.975 -4.425
-22.575 -49.875 -4.425
-22.575 -49.875 -0.525
-22.575 -49.875 -0.375
-22.575 -49.875 -0.825
-22.575 -49.875 -0.675
-22.575 -49.875 -0.975
-22.725 -53.625 -0.075
-20.775 -46.125 1.125
-21.225 -46.725 1.425
-22.725 -50.475 -0.975
-22.575 -49.725 0.375
-22.575 -49.725 1.125
-22.575 -49.725 -0.825
-22.575 -49.725 1.575
-22.875 -51.825 -0.075
-22.875 -51.825 -0.675
-22.875 -51.825 -1.275
-22.875 -51.675 -0.525
-22.875 -51.675 -0.225
-22.725 -50.325 2.175
-22.725 -53.925 -0.375
-22.875 -51.525 0.075
-22.875 -51.525 -0.525
-22.425 -49.125 -0.375
-22.275 -48.675 -0.525
-22.275 -48.675 1.125
-22.275 -48.675 0.825
-22.875 -51.375 -0.075
-22.875 -51.375 -0.225
-21.075 -46.425 1.875
-22.575 -49.575 0.525
-22.575 -49.575 -0.975
-22.875 -51.225 -0.075
-22.875 -51.225 1.875
-21.825 -47.625 1.275
-22.725 -50.175 -0.225
-22.725 -54.075 0.525
-22.725 -54.075 -0.375
-22.875 -51.075 -0.225
-22.875 -51.075 0.075
-22.875 -51.075 -0.075
-22.425 -48.975 -0.675
-22.725 -50.025 2.325
-22.725 -50.025 -0.975
-22.725 -54.225 -0.975
-22.575 -49.425 1.425
-22.575 -49.425 -1.275
-22.575 -49.425 2.625
-22.275 -48.525 1.125
-22.275 -48.525 -0.075
-22.875 -53.475 -1.725
-22.725 -49.875 -2.325
-22.725 -49.875 -2.475
-22.725 -49.875 -0.225
-22.725 -49.875 -0.375
-22.425 -48.825 -0.075
-22.425 -48.825 0.075
-21.075 -46.275 0.525
-19.725 -44.775 1.875
-22.875 -50.475 -0.525
-22.725 -49.725 -2.475
-23.025 -51.825 -4.575
-23.025 -51.675 -1.125
-23.025 -51.675 -0.975
-22.575 -49.125 0.825
-22.875 -50.325 -0.975
-22.875 -50.325 -0.825
-22.875 -53.925 0.225
-23.025 -51.525 -0.225
-23.025 -51.525 -0.375
-23.025 -51.525 1.725
-22.425 -48.675 0.375
-22.425 -48.675 0.075
-22.425 -48.675 -0.225
-23.025 -51.375 -0.225
-23.025 -52.875 2.175
-22.725 -49.575 -3.225
-22.725 -49.575 0.375
-23.025 -51.225 -0.225
-23.025 -53.025 1.425
-22.875 -50.175 3.675
-22.875 -50.175 -1.125
-23.025 -51.075 -0.225
-22.575 -48.975 -0.975
-22.575 -48.975 0.675
-23.025 -50.925 -0.075
-23.025 -50.925 3.225
-22.425 -48.525 -0.675
-23.025 -50.775 -0.375
-22.275 -48.075 1.425
-22.575 -48.825 -0.525
-22.575 -48.825 -1.575
-23.025 -50.625 0.225
-22.725 -49.275 1.275
-22.425 -48.375 -0.675
-23.025 -50.475 -0.675
-23.025 -53.775 -1.575
-23.175 -51.825 -0.525
-22.575 -48.675 0.675
-22.575 -48.675 1.125
-22.275 -47.925 1.575
-23.175 -52.875 -0.375
-23.175 -51.225 0.075
-23.175 -51.225 -0.375
-22.725 -48.975 0.975
-22.725 -48.975 0.225
-23.175 -51.075 -0.075
-22.875 -49.425 -1.275
-22.875 -49.425 0.225
-23.025 -50.025 2.325
-23.175 -53.325 -2.475
-22.425 -48.075 1.425
-22.725 -48.825 -0.525
-22.725 -48.825 -1.275
-22.725 -48.825 -0.675
-23.025 -49.875 -2.325
-23.025 -49.875 2.475
-22.875 -49.275 -1.425
-23.175 -50.625 0.375
-23.175 -50.625 -0.375
-23.175 -53.625 0.525
-22.575 -48.375 -0.225
-21.225 -45.975 -3.525
-23.175 -53.775 0.525
-22.875 -49.125 -1.575
-22.875 -49.125 -0.075
-22.425 -47.925 -2.325
-23.325 -52.575 -0.225
-21.525 -46.275 0.075
-23.325 -51.225 1.425
-22.875 -48.975 0.075
-22.875 -48.975 0.675
-23.175 -50.025 -0.225
-22.125 -47.175 0.975
-22.575 -48.075 -0.525
-23.325 -50.775 -0.075
-20.325 -44.775 1.425
-22.875 -48.825 -0.525
-22.875 -48.825 0.225
-20.175 -44.625 1.275
-23.025 -49.275 -1.725
-23.025 -49.275 0.825
-22.725 -48.375 -0.225
-23.325 -50.625 -0.225
-22.425 -47.625 1.125
-22.275 -47.325 1.125
-23.175 -49.725 -0.075
-22.575 -47.925 0.075
-23.025 -49.125 -4.425
-23.475 -51.825 -1.575
-23.475 -52.575 -0.225
-22.725 -48.225 -2.625
-22.725 -48.225 -2.175
-22.725 -48.225 -2.025
-23.475 -51.375 0.075
-23.475 -51.375 0.525
-23.325 -50.175 1.275
-23.025 -48.975 0.225
-23.475 -51.225 -0.375
-23.475 -51.225 0.375
-23.475 -51.225 0.075
-22.875 -48.525 -0.225
-22.875 -48.525 0.225
-22.875 -48.525 0.525
-22.425 -47.475 0.975
-22.425 -47.475 3.075
-22.425 -47.475 1.275
-22.275 -47.175 0.975
-23.475 -51.075 0.375
-23.475 -51.075 -0.075
-23.475 -53.175 1.575
-23.325 -50.025 0.225
-23.475 -50.925 0.075
-23.475 -50.925 -0.075
-23.025 -48.825 -0.375
-23.025 -48.825 -0.075
-23.025 -55.425 0.075
-23.475 -50.775 -2.625
-23.325 -49.875 -0.525
-23.325 -49.875 3.075
-22.875 -48.375 -2.325
-22.875 -48.375 -1.725
-23.175 -49.275 0.975
-23.475 -50.625 -0.525
-22.425 -47.325 1.275
-23.325 -49.725 -0.075
-22.725 -47.925 -0.225
-23.475 -53.775 2.925
-23.025 -48.675 0.375
-21.825 -46.275 -1.125
-23.025 -55.575 0.075
-23.175 -49.125 0.075
-22.875 -56.025 0.375
-23.625 -52.725 -0.075
-21.675 -45.975 -0.075
-23.175 -48.975 0.075
-23.475 -50.175 1.725
-23.025 -48.525 0.375
-23.025 -55.725 0.225
-23.625 -51.075 -0.225
-23.475 -50.025 -0.525
-23.475 -50.025 -0.675
-23.625 -50.925 0.075
-23.625 -50.925 0.375
-23.625 -50.925 -0.525
-23.025 -48.375 1.725
-23.625 -50.775 -0.525
-23.475 -49.875 -0.525
-23.475 -49.875 -0.075
-23.475 -49.875 -0.825
-23.475 -49.875 3.525
-23.475 -49.875 -0.225
-22.725 -47.625 -0.225
-23.625 -50.625 -0.525
-22.875 -47.925 -0.375
-22.875 -47.925 -0.525
-23.475 -49.725 -0.075
-23.475 -49.725 -0.375
-23.475 -49.725 -0.525
-23.175 -48.675 0.525
-23.175 -48.675 0.375
-23.325 -49.125 -0.075
-23.025 -48.225 1.425
-23.025 -56.025 0.525
-23.625 -50.325 -2.775
-23.775 -51.675 -2.325
-23.775 -51.675 -1.425
-23.325 -48.975 0.225
-23.175 -48.525 2.175
-23.625 -50.175 0.975
-23.775 -51.225 0.075
-23.775 -51.075 0.075
-23.775 -51.075 -0.075
-23.775 -51.075 -1.125
-23.775 -51.075 -0.375
-23.175 -48.375 2.775
-23.775 -50.775 -0.675
-23.625 -49.875 -0.225
-22.875 -47.625 -0.825
-23.025 -47.925 -0.375
-23.775 -50.475 1.725
-23.625 -54.675 -1.125
-23.925 -51.675 -0.075
-23.325 -48.525 0.075
-23.325 -48.525 -0.075
-23.925 -51.525 -0.075
-23.475 -48.975 0.225
-23.475 -48.975 -0.075
-23.925 -51.375 -0.075
-23.175 -48.075 -0.075
-23.925 -51.225 0.075
-23.925 -51.225 -0.075
-23.925 -51.225 -0.675
-23.925 -51.225 -0.525
-23.925 -51.225 0.225
-23.925 -53.025 -0.975
-23.775 -50.025 1.875
-23.475 -48.825 -2.025
-23.475 -48.825 0.375
-23.325 -48.375 -1.575
-23.325 -48.375 -0.075
-23.625 -49.275 2.325
-23.925 -50.775 -1.125
-23.175 -47.925 0.375
-23.925 -50.625 2.175
-23.325 -48.225 0.225
-23.325 -48.225 -1.575
-24.075 -52.275 -1.275
-23.475 -48.525 -1.575
-23.475 -48.525 -0.075
-24.075 -51.675 -0.975
-23.625 -48.975 0.225
-24.075 -51.525 -0.825
-24.075 -51.525 -1.125
-24.075 -51.525 -2.025
-24.075 -51.375 0.075
-24.075 -51.225 -0.825
-22.425 -46.275 -0.075
-24.075 -51.075 -0.525
-23.625 -48.825 -0.225
-23.625 -48.825 -0.525
-23.625 -48.825 0.225
-24.075 -50.925 -0.675
-23.775 -49.275 -2.025
-23.775 -49.275 -0.975
-23.925 -49.875 -3.075
-24.075 -50.775 0.225
-24.075 -50.625 2.475
-23.775 -49.125 0.075
-24.075 -50.475 -2.625
-24.075 -50.475 -1.425
-24.075 -50.325 2.775
-24.075 -50.325 -2.475
-24.225 -51.825 -0.975
-24.225 -51.825 -0.825
-23.775 -48.975 1.875
-23.775 -48.975 0.075
-23.475 -48.075 -1.725
-24.075 -54.075 0.525
-24.075 -50.175 0.525
-24.225 -51.375 -1.725
-24.225 -52.875 -3.975
-24.225 -51.225 -0.375
-22.875 -46.725 -1.725
-23.325 -47.625 2.175
-23.775 -48.825 -0.225
-24.075 -54.225 0.675
-24.225 -51.075 0.675
-24.225 -51.075 -0.375
-24.225 -50.925 -0.225
-24.225 -50.925 -0.675
-24.075 -49.875 -3.075
-24.225 -50.775 0.375
-24.225 -53.475 2.625
-23.775 -48.675 0.075
-23.625 -48.225 0.675
-24.225 -50.625 1.575
-24.225 -50.625 1.875
-24.225 -50.625 -0.375
-24.225 -50.625 1.725
-23.025 -46.875 -1.725
-23.925 -49.125 -1.875
-24.075 -49.725 -2.625
-24.225 -50.475 2.475
-24.225 -50.475 0.075
-23.775 -48.525 4.275
-23.925 -48.975 0.075
-24.375 -52.425 1.725
-24.375 -52.425 3.225
-24.375 -51.675 0.225
-24.375 -51.525 -1.575
-24.375 -51.525 0.225
-24.225 -50.175 -3.075
-24.375 -51.375 -1.575
-24.375 -51.375 0.075
-24.375 -51.225 0.825
-24.375 -51.225 0.075
-24.375 -51.225 -0.825
-24.375 -51.225 -0.075
-23.775 -48.375 0.375
-23.925 -48.825 0.225
-24.375 -51.075 -0.225
-24.375 -51.075 -2.775
-24.375 -50.925 1.275
-24.375 -50.925 -0.225
-24.375 -50.775 1.125
-24.375 -50.775 -0.675
-24.375 -50.775 -2.925
-23.175 -46.875 0.675
-23.775 -48.225 0.375
-24.375 -50.625 1.425
-24.225 -49.725 -0.225
-24.375 -50.475 -2.775
-24.375 -50.475 -0.375
-24.375 -50.475 2.175
-23.925 -48.525 -0.225
-23.925 -48.525 1.725
-23.925 -48.525 0.225
-23.925 -48.525 -1.725
-24.225 -49.575 -0.225
-24.375 -50.325 2.325
-24.375 -50.325 2.175
-24.075 -48.975 0.225
-24.075 -48.975 -0.675
-24.525 -51.975 0.525
-24.525 -51.675 -2.775
-24.525 -51.675 0.675
-23.175 -46.725 -1.875
-23.475 -47.325 3.075
-24.375 -50.175 -0.825
-24.525 -51.375 -0.225
-23.925 -48.375 1.725
-23.925 -48.375 -2.025
-23.925 -48.375 4.125
-24.525 -51.225 0.075
-24.525 -51.225 -1.125
-24.525 -51.225 -0.075
-24.075 -48.825 0.075
-24.375 -50.025 -0.225
-24.525 -51.075 -1.425
-24.525 -51.075 -0.525
-24.525 -51.075 0.825
-24.525 -50.925 1.125
-24.525 -50.925 2.925
-24.525 -50.925 -0.675
-24.525 -53.325 -1.575
-24.375 -49.875 -0.225
-24.525 -50.625 0.225
-24.525 -50.625 0.675
-24.375 -49.725 -0.525
-24.375 -49.725 -0.225
-24.375 -49.725 -1.575
-24.375 -49.725 0.225
-24.075 -48.525 -0.075
-24.075 -48.525 -1.725
-23.925 -48.075 2.625
-24.375 -49.575 -0.375
-24.375 -49.575 0.075
-24.525 -50.325 -1.725
-24.675 -52.275 -3.825
-24.675 -51.825 -0.075
-24.675 -51.525 0.675
-24.675 -51.525 0.375
-24.675 -51.525 -0.375
-24.225 -48.825 -1.125
-24.225 -48.825 0.075
-24.225 -48.825 -0.675
-24.675 -51.075 0.225
-24.675 -51.075 -0.225
-24.675 -51.075 0.825
-24.375 -49.275 -2.475
-24.675 -50.925 2.175
-24.675 -50.925 -0.075
-24.525 -49.875 -1.125
-24.525 -54.375 0.675
-23.925 -47.775 -0.975
-24.675 -50.625 -2.025
-24.675 -50.625 1.725
-24.675 -50.625 -2.625
-24.675 -53.625 -0.375
-24.675 -53.625 -1.275
-24.525 -49.725 1.425
-24.675 -50.475 -0.825
-24.675 -53.775 2.025
-24.075 -48.075 -1.275
-24.525 -49.575 1.575
-24.525 -49.575 0.225
-24.525 -49.575 0.075
-24.825 -52.275 -1.125
-24.825 -52.275 -1.875
-24.825 -51.825 1.575
-24.825 -51.675 -0.375
-24.675 -50.175 0.525
-24.825 -51.525 0.975
-24.525 -49.425 -0.075
-24.525 -49.425 -1.725
-24.375 -48.825 -0.675
-24.825 -51.075 1.125
-24.225 -48.225 -0.675
-24.225 -48.225 2.025
-24.675 -49.875 2.325
-24.675 -49.875 0.675
-24.825 -50.775 -1.425
-24.075 -47.775 -1.425
-24.525 -49.125 -0.375
-24.825 -50.625 1.875
-24.825 -53.625 -0.675
-24.825 -50.625 -6.375
-24.675 -54.525 -3.075
-24.225 -48.075 -1.125
-24.675 -49.575 2.175
-24.675 -49.575 0.225
-24.675 -49.575 1.725
-24.825 -50.325 0.825
-24.825 -53.925 -0.525
-24.975 -52.275 -0.825
-24.975 -52.275 1.125
-24.975 -51.825 -0.675
-24.375 -48.375 -0.675
-24.975 -51.675 -0.825
-24.975 -52.575 -1.125
-24.825 -50.175 0.375
-24.675 -49.425 -0.375
-24.675 -49.425 -0.975
-24.975 -52.725 -0.975
-24.525 -48.825 -0.675
-24.525 -48.825 3.675
-24.525 -48.825 3.975
-24.975 -51.375 -0.375
-24.975 -52.875 -2.775
-24.675 -49.275 -0.375
-24.675 -49.275 0.075
-24.675 -49.275 -0.675
-24.525 -48.675 -0.975
-24.975 -50.925 -1.425
-24.975 -50.925 -0.375
-24.825 -49.875 0.675
-24.825 -49.875 2.325
-24.975 -50.775 -1.275
-24.975 -50.775 -0.225
-24.975 -50.775 1.725
-24.675 -49.125 -0.525
-24.675 -49.125 0.975
-24.675 -49.125 -0.375
-24.825 -49.725 0.225
-24.825 -49.725 1.725
-23.925 -47.025 2.475
-24.975 -50.625 2.325
-24.375 -48.075 -0.675
-24.975 -50.475 -0.225
-24.975 -50.475 0.525
-24.675 -48.975 1.125
-24.675 -48.975 0.525
-24.825 -49.575 1.875
-24.975 -50.325 1.125
-25.125 -51.975 -1.125
-25.125 -51.975 -0.675
-25.125 -51.825 -1.275
-25.125 -51.825 -0.225
-24.825 -49.425 -0.075
-24.975 -50.175 0.375
-24.975 -50.175 1.425
-24.975 -50.175 2.325
-25.125 -51.525 -0.525
-25.125 -51.525 -2.025
-25.125 -51.525 -0.975
-25.125 -51.525 -0.075
-24.075 -47.175 0.675
-25.125 -52.875 0.825
-25.125 -52.875 -3.675
-24.975 -50.025 0.675
-24.975 -50.025 1.725
-24.225 -47.475 -0.675
-24.825 -49.275 -0.225
-25.125 -51.075 0.375
-24.525 -48.225 -0.075
-24.675 -48.675 -1.425
-24.675 -48.675 2.925
-24.975 -49.875 2.325
-25.125 -50.775 -1.125
-24.825 -49.125 -0.675
-24.825 -49.125 2.325
-24.825 -49.125 -0.075
-24.825 -49.125 -0.525
-24.975 -49.725 2.625
-24.975 -49.725 1.875
-25.125 -53.625 2.025
-24.525 -48.075 -0.375
-24.675 -48.525 -4.875
-24.825 -48.975 1.125
-24.975 -49.575 -0.525
-24.975 -54.675 -2.925
-25.125 -50.325 1.575
-23.925 -46.575 0.675
-25.275 -52.125 0.225
-25.275 -51.975 -0.975
-25.275 -52.275 -0.825
-25.275 -51.975 -0.525
-25.275 -52.425 -0.675
-25.275 -51.825 -0.375
-25.125 -50.175 1.275
-25.125 -50.175 0.675
-25.125 -50.175 1.725
-25.275 -51.675 -0.525
-25.275 -51.675 -0.375
-25.275 -51.525 -1.575
-25.275 -52.725 -0.825
-25.125 -50.025 0.525
-24.975 -49.275 0.675
-24.975 -49.275 -0.225
-24.675 -48.225 -0.225
-24.675 -48.225 0.075
-24.675 -48.225 -2.025
-25.275 -51.075 1.425
-25.275 -50.925 -0.675
-25.125 -49.875 1.275
-25.125 -49.875 0.675
-25.125 -49.875 1.875
-24.975 -49.125 -0.075
-25.125 -49.725 1.425
-25.125 -49.725 2.625
-25.125 -49.725 2.475
-25.125 -49.725 1.875
-24.825 -48.525 2.025
-25.275 -50.625 -1.425
-24.975 -48.975 -0.675
-24.975 -48.975 -0.525
-24.975 -48.975 -0.375
-24.975 -48.975 -0.825
-25.125 -49.575 0.825
-25.125 -49.575 -0.525
-25.125 -54.675 -3.675
-25.275 -50.325 0.675
-24.375 -47.175 0.675
-25.125 -49.425 1.275
-25.125 -49.425 2.775
-25.425 -51.975 -1.275
-25.425 -51.975 1.575
-24.975 -48.825 0.975
-25.425 -51.825 -0.675
-25.425 -52.425 -0.675
-25.425 -52.425 -0.825
-25.275 -54.075 0.075
-25.425 -51.375 -0.975
-25.425 -51.375 -1.725
-25.425 -51.375 0.225
-25.425 -52.875 -3.525
-25.275 -50.025 -0.375
-25.275 -50.025 1.575
-25.275 -50.025 0.675
-24.825 -48.225 -0.975
-25.425 -51.225 1.725
-25.425 -53.025 -3.825
-25.125 -49.275 2.625
-25.125 -49.275 -0.225
-25.425 -51.075 0.675
-25.425 -51.075 -0.675
-25.425 -53.175 -0.825
-25.275 -49.875 -0.675
-25.425 -50.925 -0.525
-25.425 -50.925 -0.675
-25.125 -49.125 2.475
-25.125 -49.125 1.125
-25.125 -49.125 -0.075
-25.125 -49.125 0.675
-25.425 -50.775 -0.525
-25.425 -50.775 -2.175
-25.425 -50.775 0.525
-25.425 -50.775 1.575
-24.825 -48.075 -1.275
-25.275 -49.725 1.275
-25.425 -50.475 -2.625
-25.275 -49.575 2.625
-25.275 -49.575 2.475
-24.975 -48.375 1.575
-25.425 -50.325 2.025
-25.425 -53.925 0.225
-25.125 -48.825 -0.375
-25.125 -48.825 0.825
-25.125 -48.825 2.325
-25.125 -48.825 -0.825
-25.275 -49.425 -2.025
-25.575 -51.975 -0.675
-25.425 -50.175 0.675
-25.425 -50.175 0.525
-25.575 -51.675 -0.225
-25.575 -51.675 -0.075
-25.575 -51.375 -1.275
-25.575 -51.375 1.875
-24.975 -48.225 0.075
-25.425 -50.025 1.725
-25.275 -49.275 2.325
-25.575 -51.225 -1.275
-25.575 -51.225 1.725
-24.525 -47.025 1.875
-24.525 -47.025 2.175
-25.575 -51.075 -0.525
-25.575 -51.075 0.825
-25.575 -50.925 0.075
-25.575 -50.925 2.025
-25.275 -49.125 0.675
-25.275 -49.125 1.125
-24.975 -48.075 0.075
-24.975 -48.075 -0.525
-24.825 -47.625 0.525
-25.575 -50.625 -0.075
-25.275 -48.975 -0.375
-25.575 -50.475 -1.725
-25.575 -50.475 -0.975
-25.575 -50.475 2.025
-25.425 -54.675 0.675
-25.125 -48.375 -0.075
-25.575 -50.325 -0.975
-25.275 -48.825 1.875
-25.425 -49.425 -1.875
-25.425 -49.425 -0.225
-25.725 -52.275 1.125
-25.725 -51.825 0.075
-25.725 -52.575 0.375
-25.125 -48.225 -0.075
-25.575 -50.025 2.625
-25.575 -50.025 2.175
-25.575 -50.025 1.875
-25.575 -50.025 1.275
-25.425 -49.275 -0.075
-25.425 -49.275 -0.225
-25.725 -51.225 2.325
-25.725 -51.225 0.075
-25.725 -51.225 0.825
-25.725 -51.225 -0.525
-25.725 -53.025 -0.525
-25.725 -51.075 0.225
-25.725 -51.075 -1.425
-25.575 -49.875 1.875
-25.575 -49.875 1.275
-25.425 -49.125 0.525
-25.425 -49.125 2.475
-25.125 -48.075 -0.675
-25.125 -48.075 -0.825
-25.125 -48.075 -0.225
-25.725 -50.775 -0.375
-25.575 -49.725 3.375
-25.575 -49.725 -0.075
-25.575 -49.725 2.175
-25.725 -50.625 1.875
-25.725 -50.625 -0.375
-25.425 -48.975 0.225
-25.425 -48.975 -1.275
-25.725 -50.475 -0.075
-25.575 -49.575 0.375
-25.575 -49.575 2.025
-25.575 -49.575 -0.075
-25.275 -48.375 -0.075
-25.425 -48.825 1.875
-25.425 -55.425 -1.275
-25.575 -49.425 -3.375
-25.575 -49.425 1.425
-25.575 -49.425 1.575
-25.575 -49.425 2.175
-25.575 -49.425 -0.525
-25.875 -52.125 -0.075
-25.275 -48.225 2.625
-25.275 -48.225 -0.675
-25.575 -49.275 -0.225
-25.425 -48.675 -1.575
-25.425 -48.675 0.225
-25.875 -51.225 0.675
-25.875 -53.025 -0.375
-25.725 -49.875 0.975
-25.725 -49.875 1.125
-25.575 -49.125 -1.125
-25.575 -49.125 0.225
-25.575 -49.125 0.075
-25.875 -50.925 -2.325
-25.875 -50.775 0.675
-25.875 -50.775 -0.675
-25.725 -49.725 2.025
-25.575 -48.975 0.525
-25.575 -48.975 -0.375
-25.725 -49.575 1.725
-25.875 -50.475 -0.075
-25.425 -48.375 -0.675
-25.425 -48.375 -0.225
-25.875 -50.325 -2.925
-25.575 -48.825 1.425
-25.575 -48.825 0.225
-25.725 -49.425 0.375
-25.725 -49.425 2.025
-25.725 -49.425 1.875
-26.025 -52.125 -0.675
-26.025 -51.975 0.675
-25.425 -48.225 -5.775
-25.725 -49.275 2.625
-25.575 -48.675 -1.575
-26.025 -52.875 -0.225
-26.025 -52.875 -0.525
-25.875 -50.025 -1.875
-26.025 -51.075 -0.375
-26.025 -51.075 0.975
-26.025 -51.075 0.525
-25.875 -49.875 2.775
-25.875 -49.875 -0.375
-25.875 -49.875 0.675
-25.875 -49.875 -1.875
-25.425 -48.075 0.075
-25.725 -49.125 0.675
-25.725 -49.125 -0.375
-25.725 -49.125 -0.525
-25.725 -49.125 -0.975
-25.575 -48.525 -0.225
-26.025 -50.775 1.125
-26.025 -50.625 -2.175
-26.025 -50.625 -1.575
-26.025 -50.625 -0.375
-25.725 -48.975 -0.825
-25.425 -47.925 1.725
-25.575 -48.375 -1.875
-26.025 -50.475 -0.375
-26.025 -50.475 -1.275
-26.025 -50.325 -1.275
-25.725 -48.825 -0.375
-25.725 -48.825 -0.825
-25.725 -48.825 -0.225
-25.875 -49.425 -1.125
-25.875 -49.425 2.175
-26.025 -50.175 1.875
-26.175 -51.975 -0.525
-26.175 -52.425 0.375
-25.725 -48.675 0.975
-25.725 -48.675 -0.375
-25.875 -49.275 -0.975
-25.875 -49.125 -0.825
-25.875 -49.125 -0.525
-25.875 -49.125 0.675
-26.175 -50.925 -1.125
-26.175 -50.925 0.075
-26.175 -50.775 2.475
-25.875 -48.975 0.675
-25.875 -48.975 1.125
-26.175 -50.625 -0.375
-26.175 -50.475 0.675
-26.175 -50.475 -2.175
-25.725 -48.225 -0.975
-25.725 -48.225 2.325
-26.175 -50.175 0.675
-26.325 -51.975 0.225
-26.325 -52.275 0.375
-26.325 -51.825 0.375
-25.875 -48.675 -0.675
-25.875 -48.675 -0.375
-26.025 -49.275 -0.975
-26.325 -52.725 -0.375
-26.175 -50.025 1.875
-26.325 -52.875 -0.375
-26.325 -51.375 1.725
-24.675 -45.675 -0.225
-26.325 -51.225 -0.075
-26.325 -51.225 0.975
-26.025 -49.125 -0.825
-26.025 -49.125 -0.675
-26.325 -53.325 2.475
-26.325 -50.775 -0.675
-26.325 -50.625 1.875
-25.875 -48.375 -0.525
-26.325 -50.475 -1.725
-26.025 -48.825 -3.825
-26.325 -50.325 0.375
-26.325 -50.175 -2.025
-26.325 -50.175 -2.325
-26.325 -50.175 0.825
-26.025 -48.675 0.675
-26.175 -49.275 -0.225
-26.475 -51.675 -0.075
-26.475 -51.525 0.675
-26.475 -51.525 1.275
-26.475 -52.725 0.675
-26.325 -50.025 -1.425
-26.325 -50.025 1.875
-26.475 -51.375 0.075
-26.475 -51.375 -1.575
-26.475 -51.375 0.975
-26.475 -52.875 -0.225
-26.475 -51.225 -0.375
-26.475 -51.225 -0.675
-26.475 -51.225 0.675
-26.325 -49.875 0.675
-26.175 -49.125 -0.525
-26.175 -49.125 -0.225
-26.475 -51.075 0.075
-26.475 -51.075 -0.225
-26.475 -51.075 -0.525
-26.475 -53.175 -2.775
-26.025 -48.525 -0.525
-26.475 -50.925 -0.675
-26.475 -50.925 -1.125
-26.475 -50.925 0.225
-26.325 -49.725 0.975
-26.325 -49.725 3.525
-26.475 -50.775 -0.525
-26.475 -50.625 -0.075
-26.475 -50.625 0.975
-26.475 -50.475 0.375
-26.475 -50.475 -0.825
-26.475 -50.325 -1.725
-26.475 -50.325 -1.275
-26.475 -50.325 -0.075
-26.475 -50.325 -1.125
-26.325 -49.425 1.875
-26.325 -54.825 1.425
-26.025 -48.225 5.475
-26.625 -51.825 0.375
-26.325 -49.275 1.125
-26.325 -49.275 1.275
-26.625 -51.675 -0.225
-26.625 -51.375 -0.525
-26.625 -51.375 -6.225
-26.625 -53.025 0.675
-26.325 -49.125 -0.525
-26.325 -49.125 -0.375
-26.325 -49.125 0.075
-26.175 -48.525 -4.125
-26.475 -49.875 -2.325
-26.475 -49.875 2.925
-26.625 -51.075 0.825
-26.625 -51.075 -0.675
-26.625 -51.075 -0.375
-26.625 -51.075 0.975
-26.625 -50.925 1.425
-26.625 -50.925 1.275
-26.625 -50.925 -0.525
-26.475 -49.725 0.825
-26.625 -50.775 2.175
-26.625 -50.775 1.725
-26.625 -50.625 -0.525
-26.625 -50.625 1.875
-26.625 -50.625 0.075
-26.475 -49.575 1.875
-26.625 -53.775 1.575
-26.625 -50.475 -0.225
-26.625 -50.325 2.175
-26.625 -50.325 -1.575
-26.475 -49.425 1.575
-26.475 -49.425 1.425
-26.325 -48.675 -4.275
-26.775 -52.275 -2.025
-26.775 -52.275 1.125
-26.775 -52.275 -0.075
-26.475 -49.275 -0.525
-26.475 -49.275 -0.225
-26.475 -49.275 -0.375
-26.475 -49.275 -0.675
-26.775 -51.825 1.425
-26.775 -52.425 -0.075
-26.775 -52.575 0.375
-26.775 -52.575 -0.225
-26.625 -50.025 -3.075
-26.775 -52.725 0.375
-26.775 -52.875 0.525
-26.775 -51.225 0.675
-26.325 -48.525 3.375
-26.475 -49.125 2.325
-26.475 -49.125 0.225
-26.475 -49.125 -0.525
-26.475 -49.125 0.375
-26.475 -49.125 1.125
-26.475 -49.125 -0.075
-26.475 -49.125 1.425
-26.625 -49.875 0.975
-26.625 -49.875 -2.475
-26.775 -51.075 -0.225
-26.775 -50.925 1.125
-25.725 -46.725 -2.175
-26.625 -49.725 3.225
-26.775 -53.475 1.275
-26.775 -50.775 -0.525
-26.775 -50.775 2.175
-26.475 -48.975 1.275
-26.475 -48.975 -0.075
-26.475 -48.975 2.025
-26.475 -48.975 1.575
-26.325 -48.375 -4.125
-26.775 -50.625 1.725
-26.775 -50.625 -0.075
-26.625 -49.575 -3.525
-26.625 -49.575 -0.075
-26.625 -49.575 -0.225
-26.625 -49.575 6.375
