# .PCD v0.7 - Point Cloud Data file format
VERSION 0.7
FIELDS x y z
SIZE 4 4 4
TYPE F F F
COUNT 1 1 1
WIDTH 2048
HEIGHT 1
VIEWPOINT 0 0 0 1 0 0 0
POINTS 2048
DATA ascii
19.425 48.525 -0.075
19.425 48.525 -0.375
19.425 48.675 -0.075
19.425 48.375 1.125
19.425 48.375 -0.075
19.575 48.525 1.125
19.275 48.525 0.675
19.575 48.675 1.125
19.575 48.675 1.425
19.575 48.375 -0.075
19.575 48.375 1.125
19.275 48.675 0.825
19.275 48.675 -0.225
19.275 48.675 0.525
19.275 48.675 0.375
19.125 48.525 0.525
19.125 48.525 -3.675
19.125 48.675 0.675
19.125 48.675 0.375
19.125 48.675 0.225
19.725 48.675 0.525
19.125 48.375 -0.825
19.275 48.825 0.375
19.125 48.225 -0.825
19.725 48.825 1.125
19.425 48.975 0.975
18.975 48.375 -1.575
19.875 48.375 0.675
18.975 48.675 2.025
19.275 48.975 0.975
19.725 48.975 -0.525
19.125 48.975 1.275
18.825 48.525 -2.925
18.825 48.375 -1.275
18.825 48.375 -3.075
18.975 48.075 -1.125
19.875 48.075 -1.125
19.875 48.075 0.225
18.975 48.075 -0.975
19.875 48.975 -4.425
19.125 47.925 1.125
18.825 48.825 1.875
18.825 48.075 -0.225
19.425 49.275 1.425
19.875 49.125 -0.525
18.975 47.925 -0.225
19.275 49.275 -2.475
19.725 49.275 -0.075
19.125 47.775 -2.025
19.725 49.275 -0.525
19.725 49.275 -0.825
20.175 48.825 -0.825
20.025 47.925 0.825
20.025 49.125 -5.325
18.825 47.925 -0.525
18.825 47.925 -0.375
18.675 48.075 -0.375
20.175 48.075 -2.325
19.875 47.775 2.025
18.975 47.775 -0.225
19.575 47.625 2.025
19.275 47.625 -0.675
18.525 48.675 -3.675
20.325 48.225 -1.575
19.725 47.625 0.675
19.125 49.425 0.975
19.725 47.625 0.225
19.725 47.625 2.175
19.725 47.625 -0.825
19.725 49.425 -0.525
20.025 47.775 0.375
20.025 47.775 0.975
20.025 47.775 0.825
20.025 47.775 1.125
18.825 49.275 -1.575
18.675 47.925 0.075
20.325 48.075 -1.725
19.875 47.625 0.525
18.975 47.625 -1.725
19.875 47.625 0.675
19.875 49.425 -0.525
19.875 47.625 2.025
18.975 47.625 -0.375
19.875 47.625 0.375
19.875 47.625 2.325
18.975 47.625 -0.975
18.525 48.075 -0.375
18.525 48.975 1.575
20.475 48.525 -2.025
19.275 47.475 -0.375
20.175 47.775 0.375
20.175 47.775 1.125
18.675 49.275 -0.225
18.675 49.275 -1.725
20.475 48.675 2.025
20.475 48.375 1.575
19.275 49.575 2.625
20.025 47.625 2.025
20.025 47.625 0.525
20.025 47.625 0.675
20.025 47.625 0.825
20.025 47.625 1.875
18.825 47.625 1.875
20.325 49.125 -3.675
18.825 49.425 -0.075
18.825 49.425 1.275
18.825 49.425 2.475
18.825 49.425 1.725
18.825 49.425 -1.725
18.825 47.625 -1.275
20.325 47.925 -1.725
18.525 49.125 1.575
19.725 47.475 2.775
19.725 47.475 0.525
18.375 48.825 -5.025
20.475 48.825 2.325
19.875 47.475 0.075
19.875 47.475 1.875
19.875 47.475 2.325
19.875 47.475 0.375
18.975 47.475 -4.575
19.875 47.475 2.175
20.475 48.075 0.375
20.475 48.075 -4.425
18.375 48.975 0.975
20.475 48.975 1.575
20.475 48.975 0.225
20.475 48.975 1.275
20.475 48.975 0.825
20.475 48.975 -0.075
18.975 49.575 -0.225
18.975 49.575 -2.625
18.675 49.425 0.075
20.175 47.625 0.525
20.325 47.775 -0.825
20.175 47.625 -0.075
20.325 47.775 0.375
18.675 47.625 -4.275
18.525 49.275 3.075
19.425 47.325 -0.525
19.575 47.325 -0.675
19.275 47.325 -0.525
20.025 47.475 0.075
20.025 47.475 0.375
20.625 48.675 1.725
20.625 48.675 2.175
20.625 48.675 0.975
20.625 48.675 1.275
19.275 49.725 1.275
18.825 49.575 -0.975
18.825 49.575 -0.225
19.725 47.325 2.625
19.725 47.325 2.925
19.125 47.325 -0.375
19.725 47.325 2.475
19.125 47.325 -1.125
20.625 48.225 0.825
20.625 48.825 1.875
20.625 48.825 0.525
20.625 48.825 2.775
20.625 48.825 0.825
20.325 47.625 1.275
20.325 47.625 0.675
18.525 49.425 -0.825
18.525 49.425 -0.075
18.525 49.425 0.675
18.525 49.425 -0.525
18.525 49.425 0.525
19.875 47.325 1.875
19.875 47.325 2.025
18.975 47.325 -0.975
20.625 48.075 0.075
20.625 48.975 0.825
18.225 48.975 -5.775
18.225 48.975 -0.675
20.625 48.975 1.875
20.625 48.975 2.175
20.625 48.975 2.025
18.975 49.725 0.225
18.975 49.725 -0.825
18.975 49.725 0.675
18.975 49.725 -0.675
18.975 49.725 1.725
20.175 47.475 1.125
20.175 47.475 0.375
20.175 47.475 1.275
20.175 47.475 0.825
20.475 49.275 2.775
20.475 47.775 2.025
20.475 49.275 -0.825
18.675 49.575 -0.675
18.675 49.575 0.075
18.675 49.575 -0.825
20.625 49.125 2.325
20.625 47.925 3.975
18.825 49.725 2.625
18.825 49.725 0.075
18.825 49.725 0.525
19.425 47.175 -0.825
20.775 48.675 0.975
20.775 48.675 0.375
20.775 48.675 0.225
20.775 48.675 2.625
20.775 48.675 -0.525
19.275 47.175 -1.425
19.275 47.175 -1.275
20.775 48.825 2.475
20.775 48.825 1.875
20.775 48.825 0.975
20.775 48.825 1.275
18.375 49.425 -0.225
18.375 49.425 0.225
18.375 49.425 -0.525
18.075 48.225 0.975
19.725 47.175 -0.825
19.125 47.175 -0.375
19.725 47.175 1.725
18.525 49.575 0.675
18.525 49.575 -0.675
18.525 49.575 -0.825
18.525 49.575 0.525
18.675 47.325 -1.275
20.175 47.325 -0.375
20.175 47.325 -0.225
18.225 49.275 0.225
20.625 49.275 2.025
18.225 49.275 -0.225
18.675 49.725 1.725
18.675 49.725 0.675
20.775 48.075 -1.275
20.775 48.975 1.275
20.775 48.975 0.975
18.975 49.875 0.225
18.975 47.175 -0.375
18.975 47.175 0.075
18.975 49.875 0.075
18.975 47.175 0.975
20.775 47.925 2.775
20.775 47.925 -0.225
20.025 47.175 -0.075
20.025 49.875 -0.825
18.825 47.175 0.975
18.375 49.575 0.675
20.625 47.625 -0.675
18.225 49.425 0.075
18.225 49.425 -0.375
20.925 48.525 2.025
18.525 49.725 -0.225
18.525 49.725 0.675
18.525 49.725 -0.375
19.575 47.025 -0.825
17.925 48.375 0.825
19.275 47.025 -0.675
19.275 50.025 0.825
19.275 47.025 -0.075
17.925 48.225 1.125
19.725 47.025 -0.225
19.725 47.025 0.825
20.925 48.825 1.575
20.925 48.825 1.125
20.775 47.775 -0.075
20.775 47.775 0.825
18.675 49.875 -0.375
18.675 49.875 0.825
20.175 47.175 0.075
18.075 49.275 0.525
18.675 49.875 -0.525
18.675 49.875 0.675
18.075 49.275 -0.375
20.175 47.175 -0.225
20.175 47.175 1.725
17.925 48.075 1.125
18.975 47.025 -1.125
18.975 47.025 1.125
18.975 47.025 1.275
18.975 50.025 0.675
17.925 48.975 1.125
17.925 48.975 -0.525
20.925 49.125 2.025
20.925 47.925 0.225
20.925 47.925 2.325
18.075 47.625 -2.925
20.325 47.175 0.225
20.325 47.175 -0.375
20.325 47.175 -0.225
18.525 49.875 1.125
18.525 49.875 0.675
19.425 50.175 0.975
19.425 46.875 0.375
19.425 46.875 0.075
19.575 50.175 -0.525
21.075 48.375 -0.675
21.075 48.375 0.375
19.275 50.175 0.375
19.275 50.175 0.075
19.275 50.175 -0.075
19.275 50.175 0.225
19.725 46.875 -0.225
19.725 50.175 0.825
19.125 50.175 -0.075
21.075 48.825 0.525
20.925 47.775 0.525
20.175 47.025 1.875
20.925 49.275 0.675
20.175 50.025 -0.825
20.925 47.775 2.475
17.925 49.275 0.225
20.175 47.025 -0.075
18.675 50.025 -2.325
17.775 48.225 1.125
18.225 47.325 -0.675
20.625 47.325 0.525
20.775 47.475 0.225
20.775 47.475 0.375
19.875 50.175 -1.125
19.875 46.875 -0.225
19.875 46.875 1.125
19.875 46.875 1.275
18.975 46.875 -1.575
17.775 48.075 -0.375
17.775 48.075 0.225
17.775 48.075 0.675
17.775 48.075 1.275
18.375 47.175 -0.975
17.775 48.975 -1.575
17.925 47.625 1.875
20.925 47.625 0.525
17.925 47.625 0.525
20.925 47.625 0.675
20.025 46.875 -3.075
20.025 50.175 -0.825
18.825 46.875 -0.375
21.075 47.925 1.275
21.075 49.125 -3.075
18.825 46.875 -2.625
17.775 47.925 -1.275
17.775 49.125 -1.725
17.775 47.925 -1.575
21.225 48.525 -1.275
19.425 50.325 0.075
19.425 50.325 0.825
18.225 47.175 -0.525
17.625 48.375 0.975
19.575 50.325 -0.825
19.575 50.325 0.375
19.275 50.325 -0.075
20.175 50.175 -0.825
18.675 50.175 1.575
18.675 50.175 1.275
18.675 50.175 5.025
20.175 50.175 -0.375
21.075 47.775 1.275
19.725 46.725 0.825
19.725 46.725 -0.075
19.125 46.725 -0.075
19.125 46.725 0.675
19.125 46.725 1.725
19.725 50.325 0.825
19.125 50.325 -2.475
20.925 47.475 0.375
17.925 47.475 -2.625
20.475 47.025 -0.225
19.875 46.725 0.525
19.875 46.725 -0.375
19.875 46.725 0.975
19.875 46.725 -5.925
17.625 48.075 0.675
17.625 48.075 1.425
21.225 48.075 -3.825
21.225 48.975 0.375
17.625 48.975 1.425
18.975 50.325 -0.225
20.325 50.175 -0.825
21.075 47.625 0.975
21.075 47.625 1.725
20.325 46.875 1.875
18.525 50.175 1.725
18.525 50.175 0.975
17.775 49.425 -0.975
20.025 46.725 1.575
20.025 46.725 1.425
18.825 46.725 2.775
21.225 47.925 0.975
17.625 47.925 0.375
20.025 50.325 -0.825
20.775 47.175 0.525
18.075 47.175 -0.225
17.925 47.325 -0.225
18.225 47.025 -0.375
19.425 46.575 0.075
18.675 46.725 -0.075
20.175 46.725 1.275
17.475 48.525 -0.225
17.625 47.775 0.525
17.625 47.775 1.275
17.625 47.775 -0.825
17.625 47.775 0.975
19.425 50.475 0.825
19.425 50.475 -0.075
20.175 50.325 -0.375
19.275 46.575 0.375
19.275 46.575 0.075
21.075 47.475 0.675
21.075 47.475 0.825
17.775 47.475 -2.625
19.575 50.475 0.675
19.575 50.475 0.225
19.575 50.475 -0.675
19.575 50.475 0.375
19.575 50.475 0.525
19.275 50.475 -2.775
19.275 50.475 -2.025
19.275 50.475 -1.875
19.125 46.575 -0.075
19.125 46.575 0.375
19.125 46.575 3.825
19.725 46.575 -0.375
17.475 48.225 -0.075
19.725 50.475 0.075
19.125 50.475 -2.625
19.725 50.475 0.675
19.875 46.575 -0.375
18.975 46.575 2.025
18.975 46.575 -1.725
18.975 46.575 1.875
18.975 46.575 2.175
18.975 46.575 0.225
17.475 48.075 0.525
21.375 48.075 -0.225
19.875 50.475 -0.225
18.975 50.475 1.125
20.325 46.725 0.825
18.525 46.725 -0.975
18.525 46.725 -1.575
21.225 47.625 0.075
17.625 47.625 0.825
17.625 47.625 0.975
17.625 47.625 -1.125
21.225 47.625 1.425
17.625 47.625 1.275
17.925 47.175 -0.525
17.925 47.175 -0.375
17.925 47.175 -0.225
18.075 47.025 1.125
17.925 47.175 0.075
20.025 46.575 1.575
20.025 46.575 1.125
20.025 46.575 -0.075
18.825 46.575 -1.725
21.075 47.325 0.675
18.225 46.875 -1.275
18.225 46.875 -1.125
18.225 46.875 0.825
21.375 47.925 2.025
21.075 49.725 1.875
20.025 50.475 1.425
17.625 47.475 1.875
21.225 47.475 0.075
20.175 46.575 0.075
18.675 46.575 -1.275
21.375 47.775 0.075
21.375 47.775 2.175
21.375 47.775 0.975
18.675 50.475 0.825
20.175 50.475 1.575
20.175 50.475 -1.125
19.425 46.425 0.375
19.425 46.425 -0.075
19.425 50.625 0.825
21.525 48.375 -0.075
19.575 46.425 0.525
19.575 46.425 -0.075
17.325 48.375 -0.225
19.575 46.425 0.675
19.275 46.425 0.225
19.275 46.425 0.375
19.275 46.425 0.075
19.275 46.425 -0.075
19.275 50.625 -0.675
19.275 46.425 1.725
19.275 50.625 -0.525
17.925 47.025 -0.375
19.125 46.425 -0.225
19.125 46.425 0.075
19.125 46.425 2.175
19.725 50.625 0.375
19.125 46.425 0.975
19.125 46.425 0.375
19.125 50.625 -0.375
19.725 46.425 -1.575
19.125 46.425 1.125
19.725 50.625 -0.825
19.725 50.625 0.525
20.775 46.875 -0.675
21.075 47.175 4.875
18.075 50.175 2.775
18.075 50.175 2.025
18.075 46.875 -2.175
17.775 47.175 0.675
20.325 46.575 1.125
20.325 46.575 -5.325
18.525 46.575 -1.275
21.525 48.075 -0.075
21.375 49.425 3.225
17.475 47.625 -2.625
17.475 47.625 1.275
17.325 48.075 0.525
17.325 48.075 -0.075
18.975 46.425 -0.375
18.975 46.425 1.425
18.975 46.425 2.025
18.975 46.425 -0.675
18.975 46.425 0.525
18.975 46.425 0.375
18.975 46.425 1.725
19.875 50.625 0.675
20.625 46.725 -0.825
17.625 47.325 1.575
21.225 47.325 0.075
20.025 46.425 -0.225
18.825 46.425 1.125
18.825 46.425 -0.375
17.325 47.925 1.275
18.825 46.425 2.625
18.825 46.425 -0.225
17.325 47.925 0.675
20.475 46.575 0.975
20.475 46.575 0.225
20.475 50.475 -0.825
20.475 50.475 1.125
21.075 50.025 1.725
17.925 50.175 3.225
20.175 46.425 1.125
20.175 50.625 0.825
20.175 46.425 -0.225
17.325 47.775 1.275
17.775 50.025 0.225
17.775 47.025 -0.675
17.775 47.025 -0.375
17.775 47.025 0.075
17.775 50.025 1.275
19.425 50.775 -1.125
19.425 50.775 0.375
19.425 46.275 -0.075
19.425 46.275 0.525
19.425 46.275 0.375
19.425 46.275 -1.425
19.425 46.275 0.675
19.425 50.775 -0.075
17.625 49.875 1.575
17.625 47.175 -0.375
17.625 47.175 -0.225
17.625 49.875 1.875
19.575 50.775 -0.225
19.575 50.775 0.075
19.575 50.775 -0.075
21.675 48.675 0.225
21.675 48.675 -0.075
21.675 48.675 0.825
19.575 46.275 0.525
17.175 48.375 -0.375
19.575 50.775 0.225
19.575 46.275 -0.075
21.675 48.675 0.525
19.275 46.275 0.375
19.275 46.275 -0.225
19.275 46.275 0.225
19.275 50.775 -0.525
19.275 50.775 2.175
19.275 46.275 0.675
19.725 50.775 -0.225
19.725 46.275 -0.375
19.125 46.275 0.225
19.125 46.275 0.675
19.125 46.275 0.375
19.125 46.275 -0.675
19.125 50.775 -1.875
19.125 50.775 -0.525
21.675 48.825 0.525
21.675 48.825 0.375
21.525 49.425 2.025
20.325 46.425 0.375
20.625 46.575 0.525
20.625 46.575 -0.825
17.475 47.325 2.025
17.175 48.075 -0.525
18.975 46.275 0.675
18.975 46.275 2.025
18.975 46.275 1.125
18.975 46.275 -0.525
18.975 46.275 2.175
18.975 46.275 1.275
21.675 48.975 0.675
21.675 48.975 2.025
21.675 48.975 0.075
20.025 46.275 -0.675
18.825 46.275 2.175
18.825 46.275 -0.075
18.825 46.275 1.125
18.825 50.775 0.225
21.675 49.125 0.825
17.775 50.175 1.425
17.775 50.175 0.825
17.775 50.175 0.975
21.225 50.025 2.025
17.625 50.025 1.575
17.625 47.025 0.825
17.625 47.025 -1.725
17.325 47.475 1.425
18.375 50.625 0.975
20.475 46.425 -0.225
20.475 46.425 -0.675
20.475 46.425 0.525
18.375 46.425 -1.275
20.775 46.575 0.825
18.675 46.275 -0.675
21.675 47.775 1.425
20.175 46.275 1.425
20.175 46.275 1.125
20.175 46.275 -0.225
17.175 47.775 -3.675
17.475 47.175 -0.975
19.425 46.125 1.425
19.425 46.125 -0.075
19.425 46.125 -1.875
21.825 48.525 0.375
21.825 48.675 0.375
19.575 50.925 -1.275
19.575 50.925 -0.075
21.825 48.675 0.675
19.575 50.925 -0.225
19.575 46.125 -0.225
19.275 46.125 -0.225
19.275 46.125 0.525
19.725 46.125 -0.525
19.725 50.925 -0.375
19.725 50.925 -1.275
19.725 50.925 -0.225
19.725 50.925 0.225
19.725 50.925 -0.525
19.125 50.925 -0.075
17.325 47.325 1.575
21.825 48.825 0.375
21.825 48.825 0.225
21.825 48.825 0.525
17.325 47.325 0.525
17.325 47.325 1.725
20.625 50.625 -0.825
17.025 48.825 2.625
17.325 49.725 2.175
20.325 46.275 -0.825
21.675 49.425 2.475
18.525 46.275 -0.525
18.975 46.125 1.875
18.975 46.125 -1.125
19.875 46.125 -0.825
18.975 46.125 0.525
19.875 46.125 -0.675
19.875 46.125 -1.425
19.875 50.925 -0.075
19.875 50.925 -0.375
18.975 50.925 -0.525
21.825 48.975 0.225
21.825 48.975 0.075
21.825 48.975 1.575
21.825 48.975 -0.675
21.825 48.975 1.425
17.775 46.725 1.275
21.225 50.175 1.725
17.025 48.975 -3.675
17.475 50.025 0.075
17.475 47.025 -0.525
20.025 50.925 -0.075
18.825 46.125 1.125
18.825 46.125 -1.125
17.025 47.925 -0.075
18.375 46.275 -1.125
20.475 46.275 2.025
20.475 46.275 -0.225
18.375 46.275 0.075
20.475 50.775 -0.975
18.375 46.275 -1.275
17.325 47.175 -2.475
18.675 46.125 -1.125
20.175 46.125 -0.675
17.025 47.775 1.125
17.025 49.275 1.275
21.225 46.725 0.225
17.625 46.725 1.425
19.425 45.975 -1.575
17.175 47.325 2.025
18.225 50.775 -1.425
20.625 50.775 -0.825
21.975 48.525 -0.525
17.475 46.875 -0.525
17.475 50.175 0.375
21.975 48.375 -0.225
21.975 48.675 -0.525
16.875 48.375 -2.775
21.825 47.625 1.575
20.325 46.125 -0.675
20.325 46.125 0.225
18.525 46.125 -1.425
18.525 50.925 -0.075
18.525 46.125 -0.825
18.525 46.125 -0.975
18.525 46.125 -1.125
18.525 46.125 -1.275
18.525 46.125 -0.525
16.875 48.225 0.375
21.975 48.825 -0.675
19.725 51.075 -0.375
20.925 50.625 1.425
17.325 47.025 -0.375
18.975 45.975 -0.225
19.875 45.975 1.125
19.875 45.975 -0.225
19.875 51.075 -0.525
19.875 51.075 0.075
19.875 51.075 -0.825
18.825 45.975 2.475
18.375 50.925 -1.725
18.375 46.125 -0.525
18.375 46.125 0.075
18.375 46.125 -0.375
21.975 49.125 2.775
16.875 47.925 1.425
20.025 51.075 -0.075
20.025 51.075 0.225
20.775 50.775 -0.825
20.775 50.775 -0.375
20.775 46.275 2.025
17.475 46.725 -0.375
17.625 46.575 0.675
17.625 46.575 0.225
18.675 45.975 -1.125
21.525 50.175 2.925
21.075 50.625 1.425
17.325 46.875 -0.075
17.325 46.875 -0.525
17.325 46.875 1.425
17.325 46.875 -0.675
17.775 46.425 -0.825
17.775 46.425 -1.725
21.825 47.325 0.825
18.225 50.925 -0.225
20.625 50.925 -0.825
20.625 50.925 -1.425
18.225 46.125 -1.275
17.025 47.325 -0.075
17.025 47.325 1.575
19.425 45.825 0.825
16.725 48.525 1.575
18.525 45.975 -0.825
18.525 45.975 -0.975
17.925 46.275 -0.975
20.925 50.775 1.725
17.175 47.025 2.025
17.175 47.025 -0.375
16.875 47.625 0.225
18.525 51.075 2.625
19.725 45.825 0.825
19.725 51.225 0.675
19.875 45.825 -1.425
18.975 45.825 2.175
16.725 48.075 0.225
19.875 51.225 -0.375
18.075 46.125 0.525
18.075 46.125 -2.175
21.375 46.575 0.225
17.475 46.575 -2.475
17.475 46.575 0.375
18.375 45.975 -0.225
16.875 47.475 0.825
16.875 47.475 0.375
18.375 51.075 -0.225
18.825 45.825 0.525
17.325 46.725 -2.475
22.125 49.125 0.075
22.125 47.925 0.075
16.725 49.125 1.275
17.625 46.425 -0.075
17.625 46.425 -1.125
17.625 46.425 -1.725
17.625 46.425 -1.575
17.625 50.625 -2.175
20.025 51.225 -0.075
20.025 51.225 -0.525
17.175 46.875 -0.375
17.175 46.875 -0.525
17.775 46.275 -0.825
17.775 46.275 1.275
22.125 49.275 1.425
20.175 51.225 1.575
20.625 45.975 0.075
18.225 45.975 -0.825
18.225 45.975 0.225
16.875 47.325 2.475
21.975 49.725 1.275
17.925 46.125 2.175
17.925 50.925 -0.825
20.925 50.925 -1.725
20.925 50.925 -2.175
18.525 45.825 0.075
22.125 47.625 0.825
18.525 51.225 3.525
19.425 51.375 -0.975
19.575 45.675 -4.575
19.275 51.375 -2.625
19.275 45.675 0.525
19.275 45.675 -2.025
19.275 45.675 0.975
17.325 46.575 0.975
21.375 46.425 -1.575
17.475 50.625 -2.175
16.575 48.225 1.425
19.125 45.675 -1.275
19.725 45.675 2.175
17.175 46.725 0.225
17.625 46.275 -0.675
21.225 46.275 0.375
18.075 45.975 -0.675
18.075 45.975 0.825
19.875 51.375 -0.525
18.975 45.675 2.175
16.875 47.175 -0.075
21.975 47.175 0.825
20.775 51.075 1.275
16.725 47.475 -0.225
22.125 49.575 1.875
16.725 49.575 -2.325
21.075 50.925 1.275
17.775 46.125 -0.975
20.025 51.375 -0.375
20.025 51.375 1.725
20.025 51.375 -0.675
20.025 51.375 -0.825
20.025 51.375 -0.225
17.025 46.875 -0.375
17.025 46.875 2.175
20.025 51.375 -0.525
18.825 45.675 1.425
22.275 47.775 1.425
22.275 47.775 1.275
20.175 51.375 -2.025
18.675 45.675 1.575
18.225 45.825 -6.225
20.625 45.825 0.075
22.125 47.325 0.675
20.625 51.225 1.425
20.925 51.075 1.275
17.175 46.575 -4.275
17.175 46.575 -0.075
17.175 46.575 0.375
21.675 46.575 1.875
17.475 46.275 1.125
17.475 46.275 -1.875
21.375 50.775 0.975
21.375 50.775 -0.225
20.325 51.375 0.225
16.575 47.625 -2.025
16.575 47.625 -3.225
18.525 45.675 -0.225
21.825 46.725 0.225
17.625 46.125 2.175
19.425 51.525 -0.225
17.025 46.725 -0.675
17.025 46.725 -0.375
19.575 51.525 -0.675
19.575 51.525 -0.225
19.575 45.525 1.425
19.275 51.525 -0.075
19.275 45.525 0.525
19.275 45.525 -0.375
19.125 45.525 -1.875
19.125 45.525 -2.325
19.125 45.525 0.675
18.075 45.825 -1.125
22.125 49.875 1.425
16.725 47.175 -0.675
19.875 51.525 -0.375
19.875 51.525 0.225
18.975 45.525 -0.075
21.075 45.975 0.825
16.875 46.875 -3.375
16.575 47.475 -0.375
18.375 45.675 -1.275
18.375 45.675 -0.675
21.075 51.075 -1.875
20.025 51.525 -0.075
20.025 51.525 -0.375
18.825 45.525 0.075
18.825 45.525 2.025
18.825 45.525 -0.225
18.825 51.525 -0.075
22.425 47.925 1.425
21.525 46.275 -0.375
17.175 46.425 0.975
17.175 46.425 1.125
17.325 50.775 -2.175
17.475 46.125 1.125
17.025 46.575 -0.375
17.025 46.575 -0.525
17.025 46.575 -0.675
22.275 49.725 2.775
22.275 49.725 2.025
22.275 49.725 1.575
22.275 49.725 1.125
18.675 45.525 -0.375
18.675 45.525 0.075
20.175 51.525 -1.125
20.175 51.525 -0.225
16.425 47.775 2.175
18.675 51.525 0.075
18.675 51.525 -0.225
18.225 45.675 -0.975
18.225 45.675 -0.825
21.225 45.975 0.525
16.875 46.725 -0.375
21.975 50.325 5.025
20.325 51.525 -0.525
18.525 51.525 -0.075
19.425 51.675 -2.025
19.425 45.375 2.025
19.425 45.375 1.425
19.425 51.675 1.875
19.275 45.375 0.975
22.275 49.875 0.975
22.275 49.875 1.575
20.775 51.375 1.425
20.775 45.675 0.825
18.075 45.675 1.575
18.075 45.675 -0.375
18.075 45.675 0.975
21.075 45.825 0.525
21.075 45.825 0.375
19.125 45.375 1.575
19.725 45.375 0.075
19.125 45.375 0.825
19.125 45.375 1.275
19.125 51.675 -0.675
19.725 51.675 -0.075
19.725 51.675 -0.675
21.075 51.225 1.125
16.425 47.475 1.725
18.975 45.375 0.225
18.975 45.375 -0.075
19.875 51.675 1.725
19.875 51.675 -0.675
19.875 51.675 -2.325
18.975 45.375 0.075
21.675 50.775 1.725
16.275 48.075 0.675
21.525 50.925 1.875
21.525 50.925 1.725
21.825 50.625 1.725
20.025 51.675 -2.325
20.025 51.675 -0.375
20.025 51.675 -1.575
20.025 51.675 -0.075
18.825 45.375 0.075
22.575 47.925 0.975
18.825 51.675 -1.725
16.275 47.925 0.375
17.475 45.975 -1.125
16.875 46.575 -0.375
16.875 46.575 0.825
17.925 45.675 0.675
17.925 51.375 3.075
20.925 45.675 0.375
20.625 51.525 -1.575
18.225 45.525 -0.225
18.225 45.525 0.825
18.225 45.525 0.675
18.675 45.375 1.125
20.175 45.375 1.575
20.175 51.675 0.075
20.175 51.675 -0.225
20.175 51.675 -0.375
18.675 51.675 -1.875
16.275 47.775 1.275
16.725 46.725 2.325
16.725 50.325 3.975
21.225 51.225 -0.075
21.225 51.225 -3.525
20.325 45.375 1.725
20.325 51.675 -0.375
20.325 51.675 -1.575
20.325 51.675 -0.525
18.525 45.375 -0.225
21.675 46.125 -0.225
17.175 46.125 -2.325
20.775 51.525 1.425
20.775 51.525 -1.275
18.075 45.525 2.175
18.075 45.525 -0.375
18.075 45.525 -1.425
16.425 47.175 -0.075
16.575 46.875 1.875
16.575 46.875 2.025
19.425 45.225 -0.525
19.425 45.225 1.575
16.125 48.525 1.125
19.425 51.825 1.125
21.525 45.975 1.275
19.575 45.225 2.325
19.575 45.225 -0.375
19.275 45.225 -0.375
22.725 48.375 2.175
22.725 48.375 -1.125
19.575 51.825 0.975
19.575 51.825 1.725
19.125 45.225 0.825
19.725 45.225 0.225
19.725 45.225 3.225
19.725 45.225 0.675
22.725 48.825 1.275
19.725 51.825 -0.525
20.475 51.675 -0.525
18.375 45.375 -0.225
22.575 49.575 0.825
16.275 47.475 -2.925
19.875 45.225 0.975
18.975 45.225 -0.075
18.975 45.225 4.125
18.975 45.225 0.075
16.725 50.475 -0.825
16.725 50.475 0.375
21.375 51.225 -0.825
19.875 51.825 -0.525
18.825 45.225 0.375
18.825 45.225 0.525
17.925 51.525 -0.225
17.925 51.525 2.925
16.425 50.025 0.825
20.925 51.525 1.125
20.925 51.525 1.275
20.625 51.675 -0.525
20.625 51.675 -0.375
18.225 45.375 2.025
18.225 45.375 -0.075
18.225 45.375 -1.575
18.225 45.375 -0.225
22.575 49.725 0.525
22.575 49.725 0.825
16.575 46.725 0.975
16.575 46.725 1.125
20.175 45.225 1.275
18.675 45.225 -0.225
20.175 51.825 -0.375
20.175 51.825 0.225
18.675 51.825 -2.025
21.825 50.925 1.725
17.025 46.125 1.275
21.675 45.975 0.075
21.675 45.975 -1.875
16.875 46.275 -0.375
16.875 46.275 0.825
21.675 51.075 -4.275
21.525 45.825 1.275
17.325 45.825 1.575
17.325 45.825 1.425
18.525 45.225 0.225
18.525 45.225 0.075
16.725 46.425 2.025
16.725 46.425 1.875
20.325 51.825 -0.225
21.075 45.525 0.675
22.425 50.175 2.175
22.425 50.175 1.875
17.775 45.525 0.525
18.075 51.675 0.075
18.075 51.675 2.775
18.075 45.375 2.175
22.875 48.525 1.725
16.575 46.575 0.975
16.575 46.575 2.325
16.575 46.575 1.425
21.375 51.375 -0.075
21.375 51.375 -0.825
19.125 45.075 0.825
19.725 45.075 0.225
18.375 45.225 1.725
18.375 45.225 0.225
18.375 45.225 0.375
18.375 45.225 -0.075
22.725 49.575 2.475
22.725 49.575 -0.225
19.725 51.975 0.075
19.725 51.975 0.975
20.475 51.825 -0.225
20.475 51.825 -0.375
18.975 45.075 1.575
18.975 45.075 -0.075
15.975 48.975 -2.175
20.925 51.675 -1.875
20.925 51.675 0.975
21.225 51.525 -0.975
21.225 51.525 -1.575
21.225 45.525 0.825
22.425 50.325 -0.375
22.875 49.125 1.575
16.875 46.125 2.025
21.825 51.075 2.175
21.825 51.075 -2.025
18.225 45.225 1.575
18.225 45.225 1.875
18.225 45.225 0.075
18.225 45.225 0.375
18.225 45.225 1.275
18.225 45.225 1.725
21.675 45.825 1.275
21.675 45.825 3.075
16.725 46.275 1.725
16.725 46.275 -0.225
21.675 51.225 -0.525
18.675 45.075 0.075
18.675 45.075 0.225
20.175 45.075 0.975
15.975 47.775 1.575
21.525 45.675 0.825
16.575 46.425 1.275
16.575 46.425 1.425
16.575 46.425 1.125
17.325 45.675 -1.125
17.775 51.675 -0.525
20.325 45.075 2.025
18.525 45.075 0.075
18.525 45.075 0.675
18.525 45.075 -0.225
18.075 45.225 1.725
18.075 45.225 0.675
18.075 45.225 0.525
18.075 45.225 1.575
18.075 45.225 0.825
18.075 45.225 0.075
18.075 45.225 2.175
15.975 49.425 -1.875
22.725 47.175 -3.525
20.325 51.975 -0.075
20.325 51.975 0.225
21.375 51.525 -0.375
21.375 51.525 -0.825
16.425 50.475 0.675
19.425 52.125 1.125
19.425 44.925 1.725
19.425 44.925 1.875
19.275 44.925 -4.875
18.375 45.075 -0.075
18.375 45.075 0.675
16.875 45.975 1.275
15.975 47.475 3.525
18.375 51.975 0.225
20.475 51.975 -0.225
20.475 51.975 0.225
21.825 45.825 0.075
16.725 46.125 0.075
16.725 46.125 -0.375
16.725 46.125 -0.525
19.125 44.925 0.075
19.125 52.125 -2.625
17.925 45.225 0.975
17.925 45.225 0.225
22.725 47.025 0.075
17.925 51.825 0.375
17.625 51.675 -0.675
22.575 50.325 1.725
22.575 50.325 -0.825
18.975 44.925 -0.075
16.575 46.275 1.425
16.575 46.275 1.875
16.575 46.275 -0.225
16.575 46.275 1.275
18.825 52.125 -1.875
18.225 45.075 0.225
18.225 45.075 1.725
18.225 45.075 -1.575
18.225 45.075 0.675
15.975 47.325 1.725
22.875 49.725 -0.375
20.625 51.975 0.225
21.525 51.525 -0.675
16.425 46.425 1.275
16.425 46.425 1.575
16.425 46.425 2.325
15.825 47.775 1.875
20.175 44.925 1.125
18.675 44.925 4.275
22.725 46.875 0.075
20.775 45.075 -3.075
18.075 45.075 1.425
18.075 45.075 0.375
18.075 45.075 0.525
18.075 45.075 2.025
21.375 45.375 0.675
21.375 51.675 -0.825
17.475 51.675 -0.525
22.875 49.875 0.075
22.875 47.175 0.825
22.875 47.175 0.525
15.975 49.875 0.525
20.775 51.975 0.225
20.775 51.975 1.725
18.075 51.975 0.525
18.525 44.925 -0.225
18.525 44.925 -0.075
16.875 45.825 -0.225
22.125 45.975 0.675
21.975 51.225 -2.025
16.575 46.125 -0.225
16.575 46.125 -0.075
16.575 50.925 0.375
17.025 45.675 -1.725
19.425 52.275 0.675
16.425 46.275 1.125
17.175 45.525 -3.675
21.675 45.525 1.275
15.825 47.475 0.075
15.825 47.475 0.525
20.475 52.125 -0.375
20.475 52.125 -0.075
18.375 44.925 -1.875
19.575 44.775 1.875
19.575 44.775 3.375
19.275 44.775 1.425
19.275 44.775 1.575
17.625 45.225 0.075
21.225 45.225 1.125
16.125 50.325 1.575
22.725 50.325 1.725
22.725 50.325 0.375
17.925 45.075 1.575
20.925 45.075 1.575
22.875 47.025 -2.625
19.725 44.775 2.025
18.225 52.125 0.225
18.225 52.125 0.075
18.225 44.925 -0.525
18.225 44.925 -0.075
18.225 44.925 2.025
18.225 44.925 -1.425
18.825 44.775 4.725
18.825 44.775 -6.225
15.675 47.925 0.975
22.125 51.225 5.325
21.075 45.075 1.425
22.275 45.975 2.025
17.775 45.075 1.725
22.875 50.175 0.525
22.875 46.875 1.125
16.575 45.975 -0.375
16.575 45.975 -0.225
16.575 45.975 0.225
16.875 45.675 -4.575
17.775 51.975 0.375
17.475 45.225 0.225
17.475 45.225 2.475
17.475 45.225 -0.225
22.725 46.575 -1.575
16.125 46.575 1.575
16.125 46.575 2.175
21.375 51.825 0.825
21.375 51.825 -1.575
22.425 46.125 1.875
21.825 51.525 1.425
21.825 45.525 0.525
23.025 47.175 1.275
20.775 44.925 2.025
18.075 52.125 0.825
18.075 44.925 1.425
18.075 44.925 1.875
18.075 44.925 1.275
18.075 44.925 -0.075
20.325 44.775 2.325
20.325 44.775 2.625
22.575 46.275 0.375
21.675 51.675 1.275
16.275 50.775 1.425
22.875 46.725 0.525
22.875 46.725 1.125
15.975 46.725 2.925
15.975 46.725 -1.275
22.875 50.325 0.525
17.625 51.975 0.525
23.175 47.475 0.525
18.375 44.775 1.425
18.375 44.775 0.075
23.025 47.025 0.825
15.825 50.025 1.275
20.925 44.925 1.725
20.925 44.925 1.875
20.925 52.125 0.975
17.925 44.925 -0.375
19.575 44.625 2.025
23.325 48.225 1.275
19.725 44.625 2.025
19.125 44.625 -4.725
19.125 44.625 4.575
16.125 46.425 -0.075
16.575 45.825 -1.125
18.975 44.625 0.675
15.525 48.075 0.975
15.525 48.075 1.125
22.125 51.375 -2.025
16.725 45.675 -0.075
22.425 45.975 2.325
15.675 47.325 1.275
15.675 47.325 1.425
18.225 44.775 0.075
21.975 51.525 -0.525
16.875 45.525 4.875
22.575 46.125 1.875
21.075 44.925 1.725
21.375 45.075 0.525
15.975 46.575 -1.125
22.875 50.475 1.725
18.075 44.775 -0.825
18.075 44.775 0.075
23.175 47.175 0.675
18.075 52.275 0.075
15.675 47.175 1.725
15.675 47.175 0.375
21.675 45.225 0.375
16.125 50.775 -0.675
21.675 51.825 0.675
21.675 51.825 0.825
21.675 51.825 1.275
18.525 44.625 0.075
23.025 46.725 0.975
23.025 46.725 1.425
15.825 46.725 0.825
15.825 50.325 0.825
16.425 45.825 -0.225
16.425 45.825 -0.075
22.425 45.825 1.725
22.425 45.825 2.025
23.325 47.475 0.375
18.375 44.625 -0.525
18.375 44.625 -1.275
23.325 49.575 2.175
22.875 50.625 1.725
22.875 50.625 1.575
15.675 50.025 0.675
17.925 44.775 -1.425
17.925 44.775 1.275
17.925 44.775 0.075
17.325 51.975 0.075
22.575 45.975 1.875
21.975 45.375 1.425
16.275 45.975 -0.075
16.275 45.975 0.225
16.275 51.075 0.225
19.725 44.475 1.875
23.475 48.225 1.275
23.475 48.225 1.125
18.975 44.475 -0.225
15.375 48.075 1.125
21.825 45.225 0.975
23.325 47.325 0.675
20.625 52.425 -0.075
20.625 52.425 0.075
18.225 44.625 -1.125
18.225 44.625 0.675
17.025 45.225 0.525
22.725 46.125 1.875
16.125 46.125 -0.075
21.825 51.825 0.225
21.825 51.825 0.075
18.825 44.475 -2.475
15.825 46.575 0.225
15.825 46.575 0.075
23.025 50.475 0.825
21.375 52.125 0.675
21.375 52.125 -0.375
21.375 52.125 0.975
21.375 52.125 0.825
17.475 52.125 -0.225
15.675 50.175 0.675
18.675 44.475 2.325
23.475 47.775 2.025
21.675 51.975 1.725
21.675 51.975 0.075
17.175 51.975 0.075
17.175 51.975 1.275
20.775 44.625 2.025
20.775 44.625 2.325
20.775 52.425 -0.075
20.775 52.425 0.225
18.075 44.625 0.075
16.425 45.675 1.425
22.125 51.675 -0.525
16.725 45.375 1.875
16.275 45.825 0.225
16.275 45.825 -0.075
23.175 46.725 0.975
23.175 46.725 0.675
23.175 46.725 1.275
23.175 46.725 0.825
15.675 46.725 0.225
17.625 44.775 -2.025
23.025 50.625 0.375
15.825 50.625 2.175
17.325 52.125 1.275
16.875 45.225 -2.025
22.725 51.075 -0.525
22.725 51.075 2.175
16.125 51.075 -0.075
21.975 51.825 -0.525
20.925 44.625 2.175
23.325 47.025 0.675
17.925 44.625 -1.575
15.525 50.025 0.825
18.375 44.475 -0.075
20.475 52.575 0.225
21.825 45.075 1.275
15.975 50.925 -1.275
21.825 51.975 1.125
19.725 44.325 2.025
19.125 44.325 0.375
19.125 44.325 0.075
18.225 44.475 0.075
20.625 44.475 0.375
15.675 46.575 0.075
23.175 50.475 0.225
22.425 45.525 0.675
22.425 45.525 2.175
22.425 45.525 1.275
22.425 51.525 1.875
15.225 47.925 1.125
21.675 44.925 0.975
22.275 45.375 1.275
22.575 45.675 1.275
22.575 51.375 2.175
16.275 45.675 0.075
16.275 45.675 -0.075
16.125 51.225 1.575
18.075 44.475 -0.225
15.375 49.875 0.825
15.375 49.875 0.975
23.475 49.875 2.325
20.775 52.575 0.225
20.775 52.575 2.325
22.875 45.975 -0.075
15.975 45.975 -0.525
21.975 51.975 -0.525
15.525 46.725 0.825
21.525 52.275 0.825
23.175 50.625 -1.425
15.675 46.425 0.225
17.325 44.775 2.475
17.925 44.475 -0.375
15.375 47.025 1.275
20.925 52.575 -0.075
20.925 52.575 0.225
20.925 52.575 -0.225
20.925 52.575 0.075
21.825 52.125 -0.075
15.825 46.125 -4.125
15.825 46.125 -0.525
15.825 46.125 -0.075
15.825 46.125 0.075
17.025 44.925 2.175
18.375 44.325 -0.375
23.625 47.475 -0.825
15.225 49.575 -0.525
16.275 45.525 1.575
16.275 45.525 0.525
16.275 45.525 -0.825
15.075 48.375 -2.925
22.275 45.225 1.875
23.325 46.575 1.575
23.325 46.575 0.675
23.325 46.575 0.375
15.525 46.575 0.075
17.475 44.625 0.225
16.125 45.675 -0.375
16.125 45.675 0.075
22.725 51.375 0.825
15.525 50.475 -1.875
22.275 51.825 0.525
18.225 44.325 0.975
18.225 44.325 2.475
18.225 44.325 0.075
18.225 44.325 1.275
18.225 44.325 -0.375
17.775 44.475 -0.225
21.675 44.775 1.125
23.175 50.775 0.525
15.375 50.175 1.275
15.375 46.875 1.275
15.375 46.875 0.825
23.475 50.175 2.475
18.975 44.175 3.525
21.075 52.575 0.075
22.125 45.075 0.675
22.125 45.075 -0.075
16.725 45.075 -1.725
22.875 45.825 0.075
22.875 45.825 2.325
22.875 51.225 -0.525
22.125 51.975 1.575
15.075 47.925 0.675
15.075 47.925 1.125
20.775 44.325 0.225
18.075 44.325 -0.075
18.075 44.325 1.725
23.625 47.175 1.275
23.625 47.175 0.825
21.975 52.125 -0.825
21.975 52.125 -0.525
21.975 52.125 0.075
21.975 44.925 1.125
15.225 47.175 0.975
15.225 47.175 -0.225
15.225 47.175 -0.375
15.225 49.875 1.275
18.675 44.175 2.625
21.525 52.425 0.975
23.325 46.425 1.275
23.325 46.425 1.125
17.625 44.475 0.225
17.625 44.475 0.675
17.625 44.475 -0.075
15.375 46.725 0.975
15.375 46.725 0.225
15.375 46.725 1.125
23.775 47.625 -0.225
20.325 44.175 0.525
18.525 44.175 -0.225
21.825 44.775 2.175
23.175 46.125 2.025
17.925 44.325 -0.075
17.925 44.325 -0.375
17.925 44.325 0.075
22.425 45.225 -0.525
22.725 51.525 -0.525
22.725 51.525 0.525
22.725 51.525 0.675
15.225 47.025 0.825
16.575 45.075 0.225
22.875 51.375 -0.975
22.875 45.675 1.725
22.875 45.675 1.875
15.975 45.675 0.225
15.975 45.675 1.725
15.975 45.675 2.475
18.375 44.175 0.375
18.375 44.175 0.825
17.475 44.475 0.225
21.375 44.475 1.575
15.375 46.575 1.575
15.375 46.575 4.125
23.475 46.575 1.875
21.375 52.575 0.375
21.375 52.575 0.525
23.025 51.225 -0.525
19.425 44.025 0.675
22.125 52.125 -0.075
22.125 52.125 0.525
16.725 44.925 -1.875
23.325 50.775 0.075
19.275 44.025 0.225
17.775 44.325 -0.375
17.775 44.325 0.375
17.775 44.325 -0.075
17.775 44.325 0.225
17.775 44.325 -0.225
15.225 46.875 0.375
18.225 44.175 1.425
18.225 44.175 0.225
18.225 44.175 -0.075
18.225 44.175 1.575
20.625 44.175 1.875
21.075 52.725 -0.225
21.075 52.725 0.225
15.075 49.725 -0.975
15.675 45.975 0.075
21.975 52.275 -0.525
21.975 52.275 1.575
21.975 52.275 -0.675
23.175 51.075 -0.525
20.025 44.025 0.075
18.075 44.175 -0.075
18.075 44.175 -0.225
18.075 44.175 0.975
18.075 44.175 -0.375
18.075 44.175 0.525
15.075 47.175 0.525
15.075 47.175 -1.125
21.525 44.475 1.725
21.525 44.475 2.025
17.325 44.475 1.725
23.925 47.775 0.975
20.175 44.025 1.725
20.175 44.025 1.275
14.925 47.775 1.125
21.525 52.575 0.075
21.225 44.325 1.275
17.625 44.325 1.125
21.225 52.725 -0.675
21.225 52.725 -0.225
22.875 51.525 -0.975
15.975 45.525 0.975
15.975 45.525 1.575
23.325 50.925 1.125
21.825 52.425 1.575
21.825 44.625 1.725
21.825 44.625 2.025
21.825 44.625 1.425
17.025 44.625 2.475
17.025 44.625 -5.025
14.925 47.625 1.125
18.525 44.025 1.575
23.025 45.675 0.225
22.275 52.125 1.575
17.925 44.175 0.375
17.925 44.175 0.075
15.075 47.025 0.225
15.075 47.025 0.825
22.125 52.275 -0.375
16.725 44.775 0.825
18.375 44.025 0.675
20.475 44.025 1.725
17.175 44.475 0.075
23.475 50.775 0.825
21.675 52.575 0.225
21.675 52.575 0.825
23.775 46.875 0.675
19.275 43.875 -3.525
21.075 52.875 0.075
15.075 46.875 0.075
15.075 46.875 1.125
17.775 44.175 -0.375
23.925 47.325 0.525
14.925 47.325 -0.375
18.225 44.025 0.225
18.225 44.025 1.425
18.225 44.025 -0.075
20.625 44.025 1.275
23.325 45.975 1.875
21.975 52.425 0.075
21.975 52.425 -0.675
14.775 48.225 0.675
23.325 51.075 1.125
16.125 45.225 5.475
22.725 45.225 0.825
16.275 45.075 0.225
16.275 45.075 1.425
16.425 52.125 1.425
16.425 52.125 -0.525
20.025 43.875 -2.025
17.325 44.325 3.075
17.325 44.325 0.075
21.525 52.725 0.375
20.775 44.025 0.075
23.925 47.175 1.125
21.825 44.475 1.125
17.025 44.475 0.825
23.775 50.325 0.225
15.075 46.725 -0.225
15.075 46.725 1.125
23.475 50.925 -0.675
23.475 50.925 0.075
21.225 52.875 0.075
21.825 52.575 0.375
20.175 43.875 0.225
20.175 43.875 0.975
23.175 51.375 -0.675
18.525 43.875 0.525
22.125 52.425 0.375
22.125 52.425 -0.675
22.125 44.625 0.075
23.925 47.025 -0.225
21.675 44.325 2.325
17.175 44.325 1.725
15.225 46.275 1.125
18.375 43.875 0.225
18.375 43.875 0.525
15.075 46.575 0.975
17.475 44.175 0.675
23.475 51.075 -0.075
21.975 52.575 0.225
21.975 52.575 0.825
14.925 46.875 0.525
14.925 46.875 0.975
21.075 53.025 0.075
21.075 44.025 -0.225
19.575 43.725 -3.075
19.725 43.725 3.525
22.275 52.425 0.975
21.525 44.175 2.475
17.325 44.175 0.975
17.325 44.175 0.525
18.825 43.725 2.925
23.625 50.925 -0.825
23.625 50.925 -0.075
21.825 52.725 0.225
20.775 43.875 0.075
24.075 47.175 1.275
14.925 46.725 0.675
21.225 53.025 0.225
21.225 53.025 0.075
20.175 43.725 2.025
16.725 44.475 -1.875
15.975 45.075 -0.975
15.975 45.075 -0.375
20.325 43.725 1.575
20.325 43.725 0.225
23.025 51.825 -0.375
16.125 44.925 0.075
17.925 43.875 -0.075
20.925 53.175 -0.375
20.925 43.875 -0.825
20.925 43.875 0.525
17.925 53.175 -2.925
23.175 51.675 -0.225
22.575 52.275 1.875
15.675 45.375 2.175
15.675 45.375 0.075
17.175 44.175 0.825
17.175 44.175 0.675
15.075 46.275 0.675
21.375 53.025 -0.225
16.875 44.325 1.875
23.625 51.075 0.225
21.975 52.725 0.825
21.975 52.725 0.375
21.075 53.175 -0.075
17.775 43.875 -5.175
15.375 45.675 -0.675
21.525 44.025 2.025
21.525 44.025 2.325
17.325 44.025 0.375
17.025 44.175 0.825
17.025 44.175 0.375
17.025 44.175 0.225
24.075 46.725 1.275
21.225 53.175 0.375
21.225 43.875 -1.275
23.025 51.975 -0.525
23.625 51.225 0.225
16.725 52.725 -0.375
15.675 45.225 0.075
16.125 44.775 3.375
20.175 43.575 -0.525
20.175 43.575 0.825
22.575 52.425 2.025
22.575 52.425 2.625
15.525 45.375 1.725
15.525 45.375 2.325
15.525 45.375 0.525
20.925 43.725 0.375
20.325 43.575 1.125
17.175 44.025 0.525
17.175 44.025 0.375
21.375 53.175 0.075
21.375 53.175 0.225
17.475 43.875 -1.275
17.475 43.875 0.225
16.875 44.175 1.725
16.875 44.175 0.975
21.075 43.725 -0.075
21.075 43.725 0.675
17.775 43.725 -1.275
23.625 51.375 1.125
22.275 52.725 0.525
15.225 45.675 -0.075
23.025 52.125 -0.675
20.625 53.475 -0.825
15.675 45.075 -0.225
15.675 45.075 -0.075
22.875 52.275 -1.725
23.925 50.925 -0.225
14.925 46.125 1.725
14.925 46.125 0.825
21.525 53.175 0.075
21.525 53.175 0.225
21.525 43.875 -1.875
24.525 48.375 2.625
14.325 48.675 0.075
22.725 52.425 0.225
14.325 48.225 -0.825
14.325 48.075 -0.375
21.225 43.725 0.375
24.225 50.325 1.575
24.225 50.325 -1.125
20.775 43.575 2.625
20.775 43.575 -0.225
14.475 49.875 1.125
23.625 51.525 2.625
17.175 43.875 0.375
24.075 50.775 0.225
20.925 43.575 -0.225
23.925 51.075 1.275
23.925 51.075 0.225
24.225 50.475 1.725
15.675 44.925 0.375
23.775 51.375 0.675
23.775 51.375 0.375
15.075 45.675 0.225
15.075 45.675 0.075
16.575 44.175 -1.875
15.525 45.075 -0.225
15.525 45.075 0.075
15.525 45.075 0.525
15.975 44.625 3.525
21.075 43.575 -0.225
15.375 45.225 0.375
22.725 52.575 0.225
22.725 52.575 0.075
24.075 50.925 0.225
21.525 43.725 1.725
21.525 43.725 2.025
23.625 51.675 -1.425
15.225 45.375 -0.225
24.675 48.675 3.075
24.675 48.375 0.525
24.675 48.225 2.175
21.225 43.575 1.575
21.225 43.575 2.325
24.375 50.325 1.725
14.175 48.075 0.075
18.075 43.425 1.875
23.775 51.525 0.225
23.775 51.525 -0.225
20.025 43.275 1.725
15.075 45.525 0.075
21.675 43.725 1.275
14.775 45.975 -0.825
16.875 43.875 0.375
16.875 43.875 1.575
15.525 44.925 6.375
15.525 44.925 -0.075
15.525 44.925 -0.375
20.925 43.425 0.375
20.925 43.425 1.725
21.375 43.575 -0.525
21.375 43.575 1.725
15.375 45.075 -0.375
23.475 51.975 0.375
22.275 53.025 0.825
20.325 43.275 1.275
24.675 49.425 0.375
14.925 45.675 0.975
14.925 45.675 0.375
15.225 45.225 -0.675
22.725 52.725 0.075
17.025 43.725 0.825
17.025 43.725 0.525
22.575 52.875 -0.225
22.575 52.875 0.075
16.725 43.875 0.225
24.825 48.225 0.375
22.425 53.025 0.525
22.425 53.025 0.375
19.875 43.125 1.425
15.375 44.925 0.525
15.375 44.925 1.725
20.025 43.125 1.875
16.875 43.725 0.825
16.875 43.725 0.225
15.225 45.075 -0.075
15.225 45.075 1.125
14.625 45.975 0.825
23.625 51.975 2.025
22.875 52.725 -2.475
21.675 43.575 -1.125
15.075 45.225 -0.075
20.925 43.275 -0.825
14.175 50.025 1.275
23.775 51.825 1.125
23.775 51.825 0.975
23.925 51.675 0.225
14.925 45.375 -0.225
22.575 53.025 0.075
22.575 53.025 -0.075
17.025 43.575 -1.425
17.025 43.575 0.225
24.375 50.925 0.525
14.475 46.125 0.675
21.075 43.275 -1.125
14.625 45.825 0.825
14.625 45.825 1.125
14.325 46.425 0.675
15.375 44.775 0.075
23.025 52.725 0.075
23.025 52.725 -2.325
14.775 45.525 0.825
21.225 43.275 1.275
17.625 43.275 0.225
24.975 48.525 0.075
15.075 45.075 -0.825
15.075 45.075 -0.675
23.775 51.975 2.325
23.775 51.975 2.025
18.075 43.125 1.125
16.875 43.575 0.675
16.875 43.575 0.825
14.475 45.975 -0.975
24.975 48.975 2.475
23.925 51.825 0.225
14.625 45.675 0.525
14.625 45.675 0.825
14.625 45.675 0.375
14.625 45.675 1.125
14.625 45.675 1.575
24.225 51.375 0.075
20.175 42.975 1.875
17.475 43.275 1.125
22.575 53.175 1.725
22.575 53.175 -0.525
14.775 45.375 0.825
18.525 42.975 3.075
15.375 44.625 0.975
15.375 44.625 0.075
23.625 52.275 -0.525
23.625 52.275 -0.375
23.175 52.725 -0.075
16.725 43.575 0.825
16.725 43.575 0.675
14.475 45.825 0.525
22.125 53.475 -0.075
23.775 52.125 1.875
23.025 52.875 0.225
15.075 44.925 -0.075
20.475 42.975 0.825
13.875 47.475 3.225
14.625 45.525 1.125
14.925 45.075 -0.525
23.925 51.975 0.825
17.625 43.125 0.225
25.125 48.675 2.625
25.125 48.375 1.725
25.125 48.225 0.675
25.125 48.825 2.475
16.575 43.575 3.975
16.575 43.575 0.225
14.175 46.275 0.675
14.475 45.675 0.525
14.475 45.675 1.125
15.375 44.475 0.075
15.375 44.475 -0.975
15.375 44.475 1.725
23.325 52.725 2.325
22.575 53.325 0.675
23.775 52.275 -0.075
23.775 52.275 -0.225
15.075 44.775 -0.975
13.875 50.025 1.875
23.925 52.125 -0.525
14.325 45.825 0.375
16.725 43.425 0.375
16.725 43.425 0.825
16.725 43.425 0.225
16.425 43.575 0.225
14.475 45.525 1.575
14.475 45.525 1.125
14.775 45.075 -0.975
15.975 43.875 -1.725
24.075 51.975 -0.675
24.225 51.825 1.125
22.725 53.325 0.375
17.625 42.975 0.075
15.375 44.325 1.275
15.225 44.475 1.725
21.975 53.775 -0.375
16.875 43.275 0.375
23.775 52.425 -0.525
22.275 53.625 -0.075
16.575 43.425 0.825
17.175 43.125 1.275
23.925 52.275 1.875
14.475 45.375 1.425
14.475 45.375 1.575
22.575 53.475 0.675
22.575 53.475 0.525
24.075 52.125 -0.675
14.775 44.925 -0.975
14.775 44.925 -0.825
20.025 42.675 0.525
17.925 42.825 -1.125
24.225 51.975 0.375
24.225 51.975 -0.525
22.425 53.625 0.375
14.325 45.525 0.225
13.875 46.425 -0.975
15.225 44.325 0.225
23.625 52.725 -0.825
23.625 52.725 2.475
15.075 44.475 0.075
23.775 52.575 -0.525
14.475 45.225 1.275
14.475 45.225 0.825
25.275 49.725 -0.225
21.975 53.925 -0.375
16.875 43.125 2.625
20.625 42.675 0.825
24.075 52.275 2.025
22.275 53.775 -0.075
15.675 43.875 2.025
24.075 52.275 -0.375
24.075 52.275 0.375
14.775 44.775 -0.675
16.575 43.275 0.075
24.675 51.375 0.825
16.575 43.275 0.675
24.525 51.675 -0.075
22.575 53.625 0.375
16.275 43.425 -1.725
15.825 43.725 1.425
15.825 43.725 1.275
24.225 52.125 0.825
24.225 52.125 0.075
24.225 52.125 -0.675
24.225 52.125 -0.075
21.375 54.225 1.575
25.425 49.125 0.975
15.975 43.575 1.125
15.975 43.575 1.875
22.875 53.475 0.675
22.875 53.475 0.975
16.725 43.125 0.525
22.125 53.925 -0.375
17.925 42.675 3.675
15.075 44.325 1.725
15.075 44.325 1.425
15.075 44.325 -0.225
15.075 44.325 0.075
13.425 49.275 1.575
22.425 53.775 -0.075
20.175 42.525 0.975
20.175 42.525 0.075
24.975 50.925 0.525
14.175 45.525 1.275
16.425 43.275 0.075
23.625 52.875 -1.275
23.775 52.725 -0.525
14.925 44.475 5.025
14.925 44.475 0.075
20.325 42.525 1.125
23.325 53.175 1.275
14.775 44.625 -0.675
14.325 45.225 1.125
14.325 45.225 1.425
24.525 51.825 0.075
13.725 46.425 0.525
13.725 46.425 0.375
22.725 53.625 0.975
