# .PCD v0.7 - Point Cloud Data file format
VERSION 0.7
FIELDS x y z
SIZE 4 4 4
TYPE F F F
COUNT 1 1 1
WIDTH 2048
HEIGHT 1
VIEWPOINT 0 0 0 1 0 0 0
POINTS 2048
DATA ascii
52.725 35.925 0.825
52.575 36.075 0.675
52.425 36.075 0.525
52.275 36.075 1.875
52.425 36.225 2.025
51.975 36.075 1.875
52.125 36.225 1.575
52.575 36.525 2.175
52.875 36.525 0.525
52.875 36.525 0.375
52.575 36.675 1.725
53.025 36.675 0.975
52.875 36.825 0.525
53.025 36.825 0.825
51.675 36.525 0.375
52.275 36.825 2.025
51.375 36.375 -0.225
51.525 36.525 0.525
52.875 36.975 2.175
50.775 35.175 1.275
50.775 35.325 1.125
51.225 36.375 -0.225
51.525 36.675 0.375
50.925 36.075 -0.225
51.975 36.975 0.075
53.175 37.125 1.575
50.625 35.625 -0.375
50.625 35.775 0.375
50.475 34.875 1.425
53.025 37.275 1.725
50.775 36.225 0.075
50.475 35.475 0.225
50.475 35.625 0.225
50.475 35.775 -0.075
50.475 36.225 -0.075
50.475 36.225 -0.225
50.175 35.025 -0.225
50.325 35.925 0.075
53.025 37.575 2.025
50.175 35.475 0.375
50.175 35.775 1.575
50.025 35.025 -0.225
50.025 35.175 -1.275
50.025 34.875 -0.525
50.175 35.925 -0.075
50.175 36.075 0.975
49.875 34.875 0.525
49.875 34.725 -0.525
49.875 34.725 -0.825
50.475 36.825 0.375
49.875 34.575 1.125
50.175 36.375 -0.675
50.175 36.375 -0.075
50.325 36.675 0.825
50.175 36.525 0.075
50.625 37.125 0.075
49.725 35.025 0.825
49.725 35.025 -0.075
50.325 36.825 0.075
49.725 35.175 -0.675
50.025 36.375 0.075
49.725 34.575 -0.075
49.725 34.575 -0.225
50.175 36.675 0.825
50.475 37.125 1.575
50.625 32.775 -0.225
49.875 36.225 0.975
49.575 35.025 -0.525
49.575 34.875 -0.825
49.575 34.875 -0.225
49.875 36.375 1.125
50.025 36.675 0.225
49.725 36.075 0.075
49.575 34.575 -0.225
50.325 32.925 0.225
49.875 36.525 0.975
49.875 36.525 0.675
49.725 36.225 0.225
49.725 36.225 0.075
50.325 32.775 0.225
49.875 36.675 0.675
49.875 36.675 0.825
49.425 35.175 -0.675
49.425 35.325 -0.975
49.575 36.075 1.275
49.575 36.075 0.225
49.425 34.575 0.225
49.425 34.575 -0.825
49.425 34.575 -0.225
49.725 36.525 0.825
49.725 36.525 0.675
49.875 36.825 1.125
50.325 32.625 0.075
50.475 32.475 -1.575
49.425 35.925 0.225
49.575 36.375 0.675
49.275 35.025 -2.475
50.775 37.875 -0.225
49.275 35.325 -2.925
49.275 34.575 -0.225
49.725 36.825 0.525
50.325 32.475 -0.225
49.575 36.675 0.825
49.575 33.375 -1.125
49.575 36.675 1.425
51.375 38.325 0.525
49.125 35.175 -2.925
49.275 36.075 -0.225
50.325 32.325 -0.375
49.125 35.325 -0.075
49.425 36.525 1.425
49.575 36.825 1.575
53.175 38.625 2.325
49.125 35.475 0.525
50.475 32.175 -0.375
49.125 35.625 0.825
53.325 38.625 1.425
49.125 34.425 -0.075
49.125 34.275 0.525
50.025 37.575 -0.675
50.325 32.175 0.375
50.475 38.025 2.775
48.975 35.025 0.075
48.975 35.175 0.075
48.975 34.875 0.075
49.425 33.225 -0.675
53.175 38.775 0.375
48.975 35.475 0.525
48.975 35.625 0.375
48.975 35.625 0.675
53.475 38.775 1.275
54.525 38.475 0.225
50.925 38.475 1.575
48.975 33.975 -0.675
48.825 35.025 0.375
48.825 35.025 0.225
51.225 38.625 1.425
48.825 34.875 0.225
48.825 35.175 -1.275
52.425 38.925 2.325
48.825 35.325 0.225
48.825 35.475 0.225
50.025 37.875 -0.675
48.975 33.825 -0.075
48.825 34.425 0.525
51.075 38.625 1.275
49.125 36.675 0.975
50.475 38.325 -0.075
48.825 34.125 -2.025
50.925 38.625 1.275
49.125 36.825 1.425
50.925 38.625 1.575
49.725 37.725 -0.375
53.775 38.925 0.975
48.825 33.975 -1.125
48.975 33.525 -0.825
48.675 35.025 -0.075
50.175 31.875 -0.525
48.675 34.875 -0.075
48.675 34.875 0.225
48.675 35.175 -0.075
48.675 35.325 -0.225
48.825 33.825 0.075
50.325 38.325 1.725
48.675 34.425 0.075
48.675 35.625 -1.125
48.975 36.675 0.975
50.475 38.475 1.875
48.675 34.275 0.975
48.675 34.275 -2.025
48.675 34.275 -0.825
48.675 34.275 -0.525
51.375 38.925 1.275
48.825 33.675 -0.825
49.725 37.875 -0.225
50.025 38.175 1.275
48.975 33.225 -0.675
49.125 37.125 1.575
48.825 33.525 -0.975
51.225 38.925 -2.775
48.675 36.075 0.225
51.675 39.075 0.075
52.725 39.225 0.975
48.525 35.025 0.525
48.525 34.875 -2.025
48.525 34.875 -1.275
48.525 34.875 -0.375
48.525 35.175 0.525
48.525 34.875 -0.525
48.525 35.325 -2.625
48.525 34.575 -0.225
48.675 33.825 0.225
48.675 33.825 -1.125
48.975 36.975 1.425
48.525 34.425 -0.225
50.475 38.625 -0.375
50.475 38.625 1.575
49.875 31.875 -0.225
49.875 38.175 1.425
51.375 39.075 0.975
48.675 33.675 -0.375
51.375 39.075 1.275
50.175 38.475 1.575
50.175 38.475 1.425
51.825 39.225 -0.225
50.325 38.625 1.575
48.525 33.975 0.375
48.525 33.975 -1.575
49.575 38.025 -1.275
49.575 38.025 -0.675
52.725 39.375 1.575
52.725 39.375 0.375
52.875 39.375 0.975
49.875 31.725 -0.075
48.375 34.725 -0.825
48.375 35.325 0.375
48.375 35.325 0.525
49.425 37.875 -0.075
49.425 37.875 0.075
51.525 39.225 0.375
53.175 39.375 0.525
52.275 39.375 0.675
50.025 31.575 -0.975
50.025 38.475 1.425
48.375 35.625 -0.075
53.325 39.375 0.525
53.325 39.375 1.875
48.375 34.425 0.075
48.375 34.425 0.525
48.525 33.675 -0.075
50.175 38.625 -1.575
48.375 34.275 0.975
48.825 32.925 -0.675
48.675 33.225 -0.675
48.675 33.225 -0.975
48.375 35.925 0.075
53.625 39.375 0.375
48.375 34.125 -1.125
48.975 32.625 0.225
49.575 38.175 0.225
49.425 38.025 0.675
49.725 38.325 -1.275
49.725 38.325 0.225
49.875 31.575 -0.675
48.375 36.075 -0.675
51.675 39.375 -0.225
49.125 37.725 0.225
52.875 39.525 1.125
53.025 39.525 0.675
48.225 34.725 0.225
48.375 33.825 -2.025
48.225 34.575 0.375
48.225 34.575 0.075
48.225 34.425 -2.475
48.225 34.425 -3.375
48.375 36.375 -3.825
48.375 33.675 -0.225
48.375 33.675 -2.625
48.225 35.775 -1.875
53.475 39.525 0.525
49.575 38.325 0.375
49.425 38.175 -0.075
48.675 37.125 1.125
54.525 39.225 0.675
48.525 33.225 -0.225
50.925 39.225 0.075
49.275 38.025 0.675
49.275 38.025 0.075
51.825 39.525 0.975
48.225 34.125 0.525
49.875 38.625 1.125
48.375 36.525 5.175
48.225 33.975 0.375
54.675 39.225 0.675
48.525 36.975 1.125
48.075 34.875 0.525
52.575 39.675 1.125
51.075 39.375 -0.225
48.075 34.725 0.225
49.425 38.325 -0.225
49.425 38.325 -1.425
49.425 38.325 0.375
52.275 39.675 -5.175
49.275 38.175 0.525
49.575 38.475 0.675
49.275 38.175 0.225
49.275 38.175 0.825
48.075 35.625 -0.075
48.525 32.925 -0.525
50.925 39.375 -0.225
48.675 37.425 0.825
48.075 34.275 -3.375
48.075 35.925 0.225
48.525 37.275 1.125
48.525 37.275 0.375
48.525 37.275 0.975
49.275 38.325 -0.075
49.275 38.325 0.525
49.275 38.325 0.075
49.275 38.325 -0.675
49.425 38.475 1.125
49.425 38.475 0.975
49.275 38.325 -0.225
49.125 38.175 0.675
49.125 38.175 0.525
49.575 38.625 0.825
48.225 36.675 1.125
47.925 35.025 -3.225
47.925 35.025 -1.125
48.075 36.225 -4.875
48.975 38.025 0.225
47.925 34.725 0.075
52.425 39.825 0.525
52.425 39.825 0.375
47.925 34.425 -3.225
51.375 39.675 1.575
48.225 36.825 0.975
50.925 39.525 0.075
51.975 39.825 1.125
47.925 35.775 0.375
50.025 39.075 -0.375
48.675 37.725 0.525
50.025 39.075 0.075
49.275 38.475 -0.075
49.275 38.475 -0.525
49.275 38.475 0.075
49.275 38.475 -0.225
49.425 38.625 0.825
49.125 38.325 0.075
49.125 38.325 0.225
49.125 38.325 -0.975
49.125 38.325 -1.425
49.125 38.325 0.375
49.125 38.325 1.875
49.425 38.625 -1.575
49.125 38.325 -0.225
49.425 38.625 -0.225
48.075 33.525 -0.075
51.225 39.675 1.275
48.975 38.175 0.825
48.975 38.175 0.975
48.375 32.775 0.075
48.225 33.075 0.225
50.775 39.525 -0.075
48.825 38.025 -0.975
48.075 33.375 0.075
51.075 39.675 0.975
51.525 39.825 -2.925
47.925 36.225 -4.725
47.775 35.025 -0.975
48.675 37.875 0.525
53.025 39.975 0.975
48.225 32.925 0.075
50.625 39.525 0.075
50.625 39.525 -0.075
50.325 39.375 -3.525
48.375 32.625 -0.075
48.075 33.225 0.225
48.075 36.825 0.525
49.275 38.625 0.675
49.275 38.625 -0.375
49.275 38.625 0.075
49.125 38.475 0.075
49.125 38.475 -0.225
49.275 38.625 -0.225
49.275 38.625 -0.075
53.325 39.975 0.225
48.525 37.725 0.975
48.975 38.325 0.225
48.975 38.325 1.275
53.475 39.975 0.375
53.475 39.975 0.225
49.575 38.925 -2.025
48.825 38.175 -0.825
48.225 37.275 1.725
50.475 39.525 -0.225
47.775 35.925 0.525
48.375 32.475 0.075
50.175 39.375 -0.375
50.175 39.375 0.075
48.375 37.575 0.375
49.875 39.225 0.225
49.125 38.625 -0.225
48.975 38.475 -0.075
50.325 39.525 3.525
52.875 40.125 1.275
47.625 34.725 -3.825
48.825 38.325 1.275
48.825 38.325 -0.375
53.175 40.125 0.525
52.275 40.125 0.375
47.625 35.475 -1.125
50.025 39.375 -0.075
50.025 39.375 -0.225
50.025 39.375 0.075
50.925 39.825 0.075
48.675 38.175 0.075
49.575 39.075 -2.325
48.675 38.175 -0.075
51.375 39.975 0.375
48.075 32.775 -0.225
48.075 37.275 1.875
50.475 39.675 -3.825
50.175 39.525 -0.225
51.225 39.975 -1.575
47.775 33.525 -0.375
47.775 36.525 -4.125
53.625 40.125 -0.075
47.925 33.075 0.375
49.125 38.775 -1.125
48.975 38.625 -3.825
49.125 38.775 0.075
49.875 39.375 0.675
49.875 39.375 -1.575
48.825 38.475 0.375
51.075 39.975 -0.975
48.675 38.325 -0.075
49.425 39.075 -0.075
48.075 37.425 1.875
50.325 39.675 0.075
47.625 36.225 -4.125
47.925 32.925 0.075
47.925 32.925 0.225
50.025 39.525 -0.225
52.575 40.275 -0.075
52.425 40.275 0.375
47.775 36.825 -5.925
47.625 36.375 -2.625
52.125 40.275 0.525
49.725 39.375 0.075
49.725 39.375 0.225
50.175 39.675 0.075
48.825 38.625 1.425
49.125 38.925 0.525
48.825 38.625 -4.875
47.625 36.525 -4.875
49.275 30.975 0.375
50.775 39.975 -0.225
49.275 39.075 0.075
48.225 37.875 0.225
49.875 39.525 0.675
48.225 32.175 -0.375
49.875 39.525 0.075
48.525 38.325 1.275
53.775 40.275 0.375
47.475 36.075 2.625
51.075 40.125 0.225
47.925 32.625 -0.825
48.375 38.175 -0.375
49.575 39.375 -0.225
50.025 39.675 -0.375
50.025 39.675 -0.075
50.625 39.975 -0.225
50.625 39.975 -0.075
47.475 36.225 2.475
47.325 35.175 -0.225
52.575 40.425 -2.025
52.425 40.425 0.375
47.625 33.225 0.525
50.925 40.125 0.075
48.825 38.775 -3.825
48.975 38.925 0.075
48.825 38.775 1.575
48.825 38.775 -3.975
49.125 39.075 0.825
53.325 40.425 -0.075
47.925 32.475 0.075
47.925 32.475 -0.675
47.925 32.475 -1.575
48.525 38.475 -0.225
53.475 40.425 -0.225
49.875 39.675 -0.225
48.075 32.175 0.225
48.375 31.725 -0.825
50.775 40.125 2.925
50.775 40.125 -0.375
49.425 39.375 0.225
49.575 39.525 0.075
49.575 39.525 0.225
47.775 32.625 -1.125
47.775 37.425 -0.075
47.775 32.625 -1.275
50.325 39.975 0.225
47.775 37.425 1.575
47.925 32.325 0.075
50.025 39.825 -0.075
50.025 39.825 -0.225
48.825 38.925 0.375
48.825 38.925 1.725
48.825 38.925 0.225
50.625 40.125 -0.375
50.625 40.125 -0.075
50.625 40.125 -0.525
48.975 39.075 0.225
48.675 38.775 0.675
48.675 38.775 -3.975
48.675 38.775 1.725
48.675 38.775 0.975
48.675 38.775 0.525
49.125 39.225 0.225
49.125 39.225 0.075
48.075 32.025 0.225
49.725 39.675 0.075
48.375 38.475 -0.375
48.375 38.475 0.525
48.375 38.475 -0.225
52.575 40.575 0.075
47.775 32.475 -1.725
47.775 37.575 -0.375
50.175 39.975 0.075
50.175 39.975 -0.975
50.475 40.125 -0.675
48.225 38.325 -0.375
47.925 32.175 -1.125
53.325 40.575 0.825
49.875 39.825 -0.075
49.875 39.825 -0.525
47.925 37.875 1.875
47.925 37.875 2.025
47.925 37.875 -0.375
50.775 40.275 -0.075
50.775 40.275 0.675
49.575 39.675 -0.225
48.675 38.925 1.275
48.675 38.925 0.225
48.825 39.075 0.975
48.825 39.075 0.225
48.675 38.925 1.425
48.975 39.225 -0.375
48.975 39.225 0.075
48.525 38.775 0.525
47.625 37.425 -0.825
50.025 39.975 -0.075
50.025 39.975 -0.525
50.025 39.975 -0.825
51.075 40.425 -0.675
51.075 40.425 0.525
47.325 36.675 -1.125
47.175 36.075 -0.675
50.625 40.275 -0.375
50.625 40.275 0.675
47.475 32.925 -1.425
49.725 39.825 -0.075
47.925 32.025 -0.225
48.225 38.475 0.525
51.525 40.575 0.375
47.175 36.225 -0.825
48.075 38.325 -0.375
49.425 39.675 -3.975
49.425 39.675 0.075
47.025 35.175 -1.125
47.025 35.175 -1.275
50.175 40.125 -0.075
47.475 37.275 0.225
50.475 40.275 -0.225
47.775 32.175 0.075
47.775 32.175 -0.375
49.875 39.975 -0.075
49.875 39.975 0.225
51.375 40.575 -0.075
47.025 34.575 -1.425
48.525 38.925 1.275
48.525 38.925 0.225
50.775 40.425 0.825
50.775 40.425 0.375
53.475 40.725 -0.375
47.025 35.775 -1.275
47.175 36.525 -0.225
48.225 38.625 -0.225
49.125 39.525 -0.075
49.125 39.525 -1.275
47.475 37.425 -0.825
47.475 37.425 0.075
47.475 37.425 -1.275
49.725 39.975 0.375
49.725 39.975 -0.375
47.775 38.025 0.225
48.075 38.475 -0.375
49.275 39.675 -0.225
50.625 40.425 -0.375
50.625 40.425 -0.225
47.325 32.925 0.675
47.025 36.075 -0.525
47.025 36.075 -0.375
47.025 33.825 1.425
47.025 36.225 -1.125
49.425 39.825 0.375
49.425 39.825 -0.225
49.425 39.825 0.525
48.525 39.075 0.225
47.475 37.575 -0.225
47.475 37.575 0.825
47.475 37.575 -0.675
48.375 38.925 0.525
48.825 39.375 1.125
48.825 39.375 0.075
49.875 40.125 0.075
47.625 32.175 0.225
47.625 37.875 0.225
47.625 37.875 -0.225
47.325 37.275 -0.675
47.325 37.275 -0.375
50.475 40.425 1.275
50.475 40.425 -0.525
46.875 35.175 -1.725
46.875 34.725 -1.425
46.875 34.725 -0.675
47.025 36.375 3.075
47.025 36.375 -0.825
49.575 39.975 0.075
47.775 31.875 1.875
48.075 31.425 0.225
49.125 39.675 -0.075
47.175 36.975 -1.275
47.175 36.975 -0.075
50.775 40.575 0.675
47.025 36.525 -0.075
47.025 36.525 -1.125
46.875 35.775 -1.425
47.475 32.325 0.225
50.025 40.275 0.075
47.475 37.725 0.075
47.475 37.725 -0.075
47.325 37.425 -0.225
50.325 40.425 0.825
47.325 37.425 0.675
47.325 37.425 0.375
47.325 37.425 -0.525
47.925 38.475 0.375
47.925 38.475 -0.075
47.925 38.475 -1.875
49.725 40.125 -0.225
49.725 40.125 0.075
46.875 34.125 0.675
46.875 34.125 -0.975
46.875 35.925 -1.275
51.075 40.725 -2.325
47.175 37.125 -0.225
48.525 39.225 0.525
48.525 39.225 0.825
46.875 33.975 0.525
46.875 33.975 0.825
46.875 36.075 1.125
47.775 38.325 0.075
47.325 32.475 -0.075
46.875 33.825 0.225
50.175 40.425 -0.075
46.875 36.225 1.125
46.875 36.225 -0.525
51.525 40.875 1.725
49.875 40.275 -0.075
47.475 37.875 -0.075
47.475 37.875 0.675
49.875 40.275 0.525
47.475 32.175 -0.075
47.475 32.175 -1.125
47.025 36.825 -0.075
47.025 36.825 -1.125
50.475 40.575 -0.525
47.175 37.275 -0.075
47.175 37.275 1.875
47.175 37.275 -2.175
49.575 40.125 0.075
47.625 31.875 -0.075
47.625 38.175 -2.625
52.725 41.025 1.275
52.725 41.025 0.675
47.925 38.625 -1.875
46.875 36.375 -2.025
46.725 35.325 2.025
50.775 40.725 -0.225
47.025 36.975 0.375
53.325 41.025 -0.825
46.725 34.425 -1.425
47.775 31.575 -0.225
47.775 31.575 -2.175
47.325 32.325 0.075
47.325 37.725 0.975
46.875 36.525 -0.225
46.875 36.525 -0.675
46.875 36.525 -0.525
46.875 33.525 -3.825
46.725 35.775 0.075
47.475 38.025 -1.725
46.725 34.275 0.375
49.725 40.275 -2.925
49.725 40.275 -0.075
46.725 34.275 -1.275
47.175 37.425 -0.375
50.325 40.575 -0.075
47.175 37.425 0.225
48.525 39.375 1.275
48.525 39.375 0.975
48.225 39.075 0.975
46.725 35.925 -0.675
46.725 35.925 -1.425
48.075 38.925 1.875
47.625 31.725 -0.075
47.025 37.125 -0.675
47.025 37.125 -0.525
47.025 37.125 0.975
47.025 37.125 -0.225
49.425 40.125 0.075
46.875 36.675 -0.375
51.075 40.875 0.225
46.725 36.075 -1.125
46.725 36.075 -0.375
47.325 37.875 0.075
49.875 40.425 0.825
47.175 32.475 0.675
50.175 40.575 -0.225
50.175 40.575 1.575
50.175 40.575 -1.275
46.725 33.825 0.825
46.725 36.225 -1.275
46.725 36.225 2.175
46.725 36.225 -1.125
46.725 36.225 0.825
46.875 36.825 -0.225
46.875 36.825 -0.375
46.875 36.825 0.825
49.575 40.275 -0.225
49.575 40.275 -0.075
50.475 40.725 -0.075
52.725 41.175 0.225
46.725 36.375 -0.525
46.725 36.375 -0.075
46.725 36.375 -0.225
52.575 41.175 0.375
52.875 41.175 -0.075
52.575 41.175 -0.825
48.375 39.375 2.025
48.375 39.375 -0.975
48.375 39.375 -1.125
48.225 39.225 1.575
53.025 41.175 -0.675
46.575 35.325 1.275
46.575 34.575 -1.575
46.575 35.475 2.625
46.875 33.075 0.375
46.875 36.975 -0.675
46.875 36.975 0.525
46.875 36.975 -0.225
46.875 36.975 0.375
50.025 40.575 1.575
47.325 38.025 -1.575
46.575 34.425 -1.275
46.725 36.525 -0.825
46.725 36.525 -0.675
46.725 36.525 -3.525
46.725 33.525 -0.825
50.325 40.725 -0.075
46.575 35.775 -0.825
46.575 35.775 -0.075
46.575 35.775 -0.225
46.575 35.775 2.025
46.575 35.775 1.875
46.575 35.925 -0.225
46.575 35.925 1.875
46.575 35.925 -0.675
46.575 35.925 1.725
46.575 35.925 -0.975
46.575 34.125 -1.575
46.875 37.125 -0.375
46.875 37.125 1.275
50.625 40.875 0.075
46.725 36.675 -0.225
46.725 36.675 -0.075
46.725 36.675 -0.375
46.725 36.675 -2.175
46.725 36.675 -0.975
46.575 36.075 1.275
46.575 36.075 -0.225
46.575 36.075 2.325
46.575 36.075 -1.125
49.875 40.575 -0.075
47.625 31.425 -0.525
49.125 40.125 -0.375
47.325 38.175 1.425
47.325 38.175 1.575
47.325 38.175 0.975
48.375 39.525 -0.975
48.375 39.525 1.875
46.725 36.825 0.075
46.725 36.825 -0.375
46.725 36.825 -0.825
46.575 36.225 -1.275
46.575 36.225 -0.975
46.575 36.225 2.175
46.575 36.225 -0.375
46.575 36.225 -1.125
46.575 36.225 -0.675
48.525 39.675 -1.875
48.075 39.225 -2.025
46.875 37.275 -0.375
46.875 32.775 -0.375
47.475 31.575 0.975
46.575 36.375 0.375
46.575 36.375 -0.075
46.575 36.375 -0.225
46.575 36.375 0.075
46.575 36.375 -0.825
46.575 33.675 1.725
51.375 41.175 0.825
47.775 38.925 -1.425
46.425 34.875 -1.725
50.025 40.725 0.075
47.025 37.725 1.425
46.425 35.325 -2.325
54.675 41.025 1.575
46.725 36.975 0.975
46.725 36.975 1.125
46.725 36.975 0.825
46.725 36.975 -2.025
47.175 32.025 0.525
47.175 38.025 -1.725
47.175 38.025 -2.025
47.175 38.025 -1.875
49.725 40.575 -0.225
46.425 35.475 -2.175
46.425 35.475 -2.025
47.325 31.725 -0.075
49.425 40.425 1.125
47.325 38.325 0.975
47.325 38.325 -2.775
47.325 38.325 1.275
46.575 36.525 0.225
46.575 36.525 -0.375
46.575 36.525 -0.525
46.575 36.525 -0.225
46.575 33.525 -1.575
51.225 41.175 1.875
51.225 41.175 -2.775
47.625 38.775 -0.975
46.425 35.775 -0.375
46.425 35.775 -0.225
46.725 37.125 -2.325
46.725 37.125 -0.825
50.625 41.025 -0.075
50.625 41.025 -0.375
48.225 39.525 0.375
48.225 39.525 2.175
46.425 35.925 0.075
46.425 35.925 -0.525
46.425 35.925 -0.075
46.425 35.925 1.875
47.475 38.625 1.275
49.125 40.275 -0.375
46.575 36.675 -0.225
51.075 41.175 2.325
48.075 39.375 1.875
48.375 39.675 2.025
48.375 39.675 0.825
48.375 39.675 -1.875
49.875 40.725 -0.075
47.025 32.175 0.075
48.525 39.825 -0.225
46.875 32.475 1.425
49.575 40.575 -0.225
49.575 40.575 0.825
47.175 38.175 -2.175
47.175 38.175 1.575
46.425 33.975 1.725
46.425 36.075 1.875
46.575 36.825 0.825
50.925 41.175 0.225
46.575 36.825 -0.225
46.725 37.275 0.375
50.475 41.025 -0.675
47.325 38.475 1.125
47.325 38.475 -0.975
47.325 38.475 1.275
46.425 33.825 -0.525
46.425 33.825 -1.575
46.425 33.825 1.875
46.425 36.225 -0.525
46.425 36.225 -0.225
46.425 36.225 -1.725
46.425 36.225 -0.825
46.425 36.225 -0.675
51.525 41.325 -2.025
46.425 36.225 -0.375
48.825 40.125 -0.525
47.625 38.925 1.875
49.725 40.725 -2.475
49.725 40.725 0.975
46.875 37.725 -3.225
46.425 36.375 0.225
50.775 41.175 0.375
50.775 41.175 -0.225
47.475 38.775 -0.675
48.975 40.275 -0.375
46.275 34.875 -0.825
47.175 38.325 0.975
47.175 38.325 1.275
47.175 38.325 1.425
48.075 39.525 -0.825
48.225 39.675 -0.075
48.225 39.675 0.825
47.925 39.375 -0.975
48.375 39.825 -0.075
49.125 40.425 -0.375
47.325 38.625 2.325
48.525 39.975 -0.075
48.525 39.975 -0.225
48.525 39.975 0.225
48.525 39.975 1.725
46.275 35.775 -0.075
50.625 41.175 1.575
46.575 37.125 -2.175
49.875 40.875 0.675
49.575 40.725 1.725
49.575 40.725 0.825
49.575 40.725 -0.225
47.025 31.875 0.075
46.275 35.925 -0.375
46.275 35.925 0.075
46.275 35.925 -0.225
46.275 35.925 0.525
46.275 34.125 -0.975
51.075 41.325 2.175
51.075 41.325 -1.125
47.625 39.075 2.025
48.675 40.125 -0.225
48.675 40.125 0.825
48.675 40.125 1.575
46.725 37.575 0.375
46.275 36.075 0.075
47.175 31.575 0.225
49.275 40.575 -0.225
48.825 40.275 -0.225
48.825 40.275 0.075
48.825 40.275 -0.375
48.825 40.275 -0.675
47.475 38.925 3.375
46.575 37.275 -2.025
46.575 37.275 1.875
46.425 36.825 -2.325
46.425 36.825 -3.075
46.275 36.225 -0.375
51.525 41.475 -1.725
46.275 36.225 0.375
48.975 40.425 -0.225
48.975 40.425 -0.375
48.975 40.425 -0.675
46.875 38.025 -3.525
46.875 38.025 0.375
46.875 32.025 -2.025
48.075 39.675 1.725
48.075 39.675 0.675
50.025 41.025 -0.075
50.025 41.025 -0.225
48.225 39.825 -0.075
49.425 40.725 1.575
49.425 40.725 -0.225
46.275 36.375 0.825
48.375 39.975 -0.225
48.375 39.975 -0.525
47.775 39.375 2.325
46.275 36.375 2.625
54.675 41.325 0.525
54.675 41.325 1.425
52.725 41.625 -0.225
46.575 37.425 1.125
46.575 37.425 -0.675
46.575 37.425 -2.175
46.125 34.725 -0.525
46.125 35.325 1.875
48.525 40.125 -0.225
46.125 34.575 3.075
47.175 38.625 -2.475
49.125 40.575 2.175
47.175 38.625 1.125
46.275 36.525 -0.225
46.275 36.525 0.675
46.275 36.525 2.175
46.125 35.625 1.875
46.125 35.625 1.725
48.675 40.275 -0.225
48.675 40.275 -0.375
50.625 41.325 -1.425
49.875 41.025 -0.075
49.875 41.025 -0.225
46.725 37.875 -3.525
46.725 37.875 0.375
46.725 32.175 1.425
46.725 32.175 1.875
46.125 35.775 -0.075
46.125 35.775 0.075
50.175 41.175 0.525
50.175 41.175 0.075
48.825 40.425 -0.375
48.825 40.425 -0.675
46.125 35.925 -0.375
46.125 35.925 0.075
47.025 38.475 1.125
46.125 36.075 1.275
46.125 36.075 -0.375
48.075 39.825 -0.075
47.775 39.525 1.875
47.775 39.525 -0.975
48.225 39.975 -0.225
48.225 39.975 -0.075
48.225 39.975 0.225
48.225 39.975 1.875
48.225 39.975 -0.375
46.425 37.275 -1.875
54.525 41.475 1.875
46.275 36.825 -3.825
46.275 36.825 2.025
47.175 31.275 0.225
48.975 40.575 -0.375
47.175 38.775 1.425
48.375 40.125 0.075
48.375 40.125 -0.525
46.725 32.025 1.875
46.725 32.025 0.525
46.125 36.225 1.575
46.125 36.225 -0.375
46.575 32.325 1.275
46.575 37.725 1.125
47.475 39.225 1.425
48.525 40.275 -0.375
48.525 40.275 -0.225
46.125 36.375 -0.375
47.025 38.625 1.425
50.325 41.325 0.975
46.425 32.625 0.225
46.425 37.425 0.075
48.675 40.425 -0.225
48.675 40.425 -0.375
45.975 34.725 3.525
45.975 35.475 1.425
45.975 35.475 -2.475
51.225 41.625 1.575
45.975 34.425 0.525
49.875 41.175 2.625
46.575 37.875 1.575
46.575 37.875 -1.425
46.575 37.875 0.375
46.275 37.125 -1.425
47.175 38.925 2.475
48.825 40.575 -0.375
47.175 38.925 4.575
47.925 39.825 -0.075
46.875 31.575 1.875
48.075 39.975 0.375
48.075 39.975 -0.375
48.075 39.975 -0.075
47.775 39.675 2.475
47.775 39.675 2.325
49.275 40.875 3.375
47.625 39.525 -0.975
48.225 40.125 -0.225
48.225 40.125 1.125
46.125 36.675 -0.375
47.475 39.375 2.025
48.375 40.275 -0.225
47.025 31.275 -1.875
47.025 31.275 -0.975
47.025 38.775 -1.575
47.025 38.775 -1.725
45.975 36.075 1.425
45.975 36.075 -0.375
50.475 41.475 0.075
46.275 37.275 -2.175
47.325 39.225 2.325
49.725 41.175 -0.675
50.025 41.325 2.025
45.975 33.825 -0.975
45.975 36.225 1.725
49.125 40.875 0.675
54.675 41.625 1.275
50.325 41.475 0.075
46.275 37.425 1.875
46.275 37.425 0.975
46.275 37.425 -0.675
46.275 37.425 -0.225
45.975 36.375 -0.525
45.975 36.375 -0.675
47.925 39.975 -0.075
47.775 39.825 -1.875
47.775 39.825 -1.275
52.725 41.925 -1.275
48.075 40.125 -0.075
47.625 39.675 0.525
45.825 35.325 1.275
45.825 34.575 0.525
45.825 34.575 -0.375
48.225 40.275 0.975
48.225 40.275 -0.225
48.225 40.275 -0.525
48.225 40.275 0.225
48.225 40.275 1.575
45.975 36.525 2.325
45.975 36.525 -4.125
45.975 36.525 2.175
49.875 41.325 1.425
46.425 37.875 1.575
46.725 31.575 0.375
49.275 41.025 -1.275
45.825 35.625 1.875
46.125 37.125 2.325
46.275 37.575 -1.125
46.275 37.575 -0.825
45.825 35.775 -2.025
45.825 35.775 2.175
45.825 35.775 2.775
45.825 34.275 0.525
45.825 34.275 0.975
45.975 36.675 -0.375
45.825 34.125 -1.275
46.425 38.025 0.975
45.825 36.075 -4.575
45.825 36.075 0.375
46.575 38.325 1.575
46.575 38.325 1.425
49.425 41.175 -1.275
54.525 41.775 -0.375
47.025 30.975 0.075
50.025 41.475 0.225
46.275 37.725 1.275
46.275 37.725 0.975
47.025 39.075 -0.375
46.725 31.425 0.375
49.125 41.025 -1.275
47.775 39.975 -1.425
47.775 39.975 -0.075
45.825 36.225 -0.825
47.925 40.125 0.375
47.625 39.825 -0.075
47.925 40.125 -0.075
47.925 40.125 -0.375
54.675 41.775 -1.125
45.975 33.075 1.275
45.975 36.975 -1.575
45.975 36.975 -1.275
48.225 40.425 -0.225
48.225 40.425 0.975
45.825 36.375 5.475
45.825 36.375 -0.375
51.375 41.925 1.275
46.875 38.925 -0.975
48.825 40.875 -1.275
46.425 38.175 0.975
46.275 37.875 0.825
46.275 37.875 0.975
46.275 37.875 1.425
45.675 34.725 3.675
45.975 32.925 0.525
46.725 38.775 -0.975
46.725 31.275 -0.075
52.125 42.075 0.975
45.675 35.625 1.875
47.025 39.225 3.225
45.675 35.775 1.725
45.675 35.775 -1.875
45.825 36.675 -0.375
45.825 36.675 -5.175
45.675 35.925 2.025
45.675 35.925 -4.575
46.425 38.325 0.675
49.725 41.475 0.975
46.275 38.025 0.975
46.275 38.025 1.725
46.275 38.025 1.125
46.275 38.025 1.275
47.925 40.275 0.825
47.925 40.275 -0.225
47.925 40.275 -0.825
47.475 39.825 2.475
47.475 39.825 0.675
50.475 41.775 0.375
50.475 41.775 -0.225
46.875 39.075 -0.375
46.575 31.425 0.525
48.075 40.425 -0.225
47.325 39.675 1.125
47.325 39.675 1.425
49.125 41.175 0.225
45.825 33.225 -1.125
45.825 36.825 -1.125
46.125 37.725 1.125
46.125 37.725 0.525
46.125 37.725 0.975
46.125 37.725 1.725
50.025 41.625 -2.325
50.025 41.625 2.175
48.225 40.575 -0.225
47.175 39.525 0.825
46.725 38.925 -0.975
50.325 41.775 -0.075
50.775 41.925 1.875
48.375 40.725 0.675
47.025 39.375 5.325
49.575 41.475 -2.625
49.575 41.475 0.675
46.425 31.575 0.375
46.425 38.475 -0.975
49.275 41.325 -0.075
46.125 37.875 1.575
48.525 40.875 0.825
46.875 39.225 0.825
48.525 40.875 0.675
48.975 41.175 -1.425
51.225 42.075 0.225
45.825 32.925 0.375
45.825 37.125 -2.175
45.525 35.475 0.675
45.525 35.475 2.925
45.975 37.575 0.675
47.925 40.425 0.225
47.925 40.425 1.275
47.925 40.425 -0.225
47.925 40.425 -0.525
47.325 39.825 0.825
45.525 35.625 -0.975
45.525 35.625 -4.575
45.525 35.625 1.425
46.725 39.075 -0.375
47.175 39.675 1.125
48.075 40.575 -0.225
46.275 38.325 -0.375
46.125 32.025 -0.075
46.125 32.025 0.075
49.725 41.625 1.275
49.725 41.625 1.875
46.125 38.025 0.975
46.125 38.025 -0.075
46.125 38.025 0.525
45.525 35.925 -1.875
46.425 31.425 0.525
46.425 38.625 -6.225
50.475 41.925 -0.225
45.825 32.775 0.375
47.025 39.525 -1.425
45.975 37.725 -0.375
50.025 41.775 0.825
50.025 41.775 2.175
50.025 41.775 -1.875
50.025 41.775 -2.475
45.525 33.975 1.875
45.675 36.825 -0.525
46.575 38.925 0.075
46.125 38.175 -0.675
46.275 38.475 -1.125
47.475 40.125 -1.875
47.775 40.425 -0.225
45.525 36.375 0.075
45.525 33.675 -1.125
45.975 37.875 0.225
45.975 37.875 -2.625
45.975 37.875 0.825
45.975 37.875 1.125
46.425 38.775 -0.825
47.175 39.825 -1.275
47.175 39.825 -0.225
47.175 39.825 0.975
47.925 40.575 0.975
47.925 40.575 -0.225
45.375 35.025 0.375
45.375 35.175 0.375
51.225 42.225 0.225
45.825 37.575 0.525
45.825 37.575 -0.375
45.825 37.575 -0.675
50.175 41.925 1.575
47.025 39.675 1.425
48.075 40.725 1.275
50.625 42.075 2.025
45.375 35.475 -4.575
45.375 35.625 1.725
45.375 35.625 -2.475
46.125 31.725 -0.975
46.125 38.325 -0.375
46.125 38.325 0.225
46.875 39.525 -0.075
45.975 38.025 -0.525
45.975 38.025 0.975
45.975 38.025 0.525
45.525 36.675 -0.075
51.075 42.225 1.275
45.375 35.775 -0.675
50.025 41.925 0.975
45.825 37.725 0.375
48.375 41.025 -0.675
48.375 41.025 0.075
48.375 41.025 -0.375
45.525 36.825 -0.525
45.525 36.825 -0.825
47.475 40.275 -0.375
47.625 40.425 0.075
47.625 40.425 -0.525
47.625 40.425 -0.375
47.625 40.425 -0.225
47.325 40.125 0.825
47.775 40.575 0.825
47.775 40.575 0.075
47.775 40.575 -0.525
46.575 39.225 0.375
46.125 31.575 0.225
45.375 33.825 -0.675
45.375 36.225 -1.875
45.375 36.225 2.175
49.275 41.625 -1.275
49.275 41.625 1.725
45.675 37.425 -0.525
45.675 37.425 -0.075
50.325 42.075 -0.225
45.675 32.625 0.825
49.575 41.775 -4.125
45.975 38.175 -0.525
45.975 38.175 0.525
47.025 39.825 0.975
47.025 39.825 0.675
47.025 39.825 -0.225
47.025 39.825 0.225
47.025 39.825 0.825
47.925 40.725 -0.525
47.925 40.725 1.125
47.925 40.725 -0.375
46.875 39.675 -2.175
46.875 39.675 0.075
48.075 40.875 -0.375
45.375 33.675 -0.825
45.675 37.575 -0.525
45.675 37.575 -0.375
48.225 41.025 -0.375
46.725 39.525 0.825
46.725 39.525 1.125
45.525 37.125 -0.975
45.225 34.875 1.725
45.375 36.525 -0.075
45.225 35.325 -4.575
45.975 38.325 0.375
45.975 38.325 1.125
47.475 40.425 -0.225
46.575 39.375 1.125
48.375 41.175 -0.675
48.375 41.175 0.075
48.375 41.175 -0.375
45.375 36.675 -0.825
45.375 36.675 -0.525
45.225 34.275 -0.375
47.625 40.575 -0.075
47.625 40.575 -0.225
47.625 40.575 0.075
47.625 40.575 -0.375
47.175 40.125 -2.025
47.775 40.725 -0.375
47.775 40.725 -0.225
47.775 40.725 0.075
47.025 39.975 -0.825
47.025 39.975 0.225
50.025 42.075 1.725
45.225 35.925 1.725
45.225 35.925 1.575
45.225 34.125 -0.225
45.375 36.825 -0.525
45.375 36.825 -0.375
46.875 39.825 -1.125
46.875 39.825 0.225
46.875 39.825 -0.225
47.925 40.875 -0.375
46.875 39.825 -0.525
46.425 30.825 0.225
46.425 39.225 0.525
49.275 41.775 -0.825
45.975 38.475 0.975
45.975 38.475 0.375
49.575 41.925 3.675
45.825 38.175 -0.375
45.825 38.175 -2.475
45.825 38.175 -2.625
50.325 42.225 -0.225
46.725 39.675 -0.375
48.075 41.025 -0.225
48.075 41.025 -0.375
46.725 39.675 0.075
46.725 39.675 0.225
46.725 39.675 -0.675
46.725 39.675 0.975
46.725 39.675 -0.225
46.725 39.675 -0.525
45.225 36.225 -0.075
45.375 36.975 -0.525
49.875 42.075 1.725
49.875 42.075 1.425
46.575 39.525 0.675
46.575 39.525 0.075
46.575 39.525 -0.525
48.225 41.175 -0.375
51.375 42.525 0.975
51.375 42.525 1.575
47.475 40.575 -0.225
45.375 37.125 -2.475
45.225 36.525 -1.575
45.225 36.525 -0.525
45.825 38.325 1.425
47.625 40.725 -0.375
47.625 40.725 -0.225
47.025 40.125 1.725
45.075 34.875 0.825
45.075 34.875 -1.125
45.075 34.725 -3.675
45.075 34.725 1.875
45.075 34.725 -0.075
46.425 39.375 -0.225
48.375 41.325 -0.375
45.675 38.025 0.675
45.075 34.575 0.675
45.075 35.475 3.675
46.875 39.975 0.225
46.875 39.975 -0.975
46.875 39.975 -0.075
47.775 40.875 -0.525
45.075 34.425 -0.075
45.225 36.675 -0.375
45.225 36.675 -0.525
45.225 33.375 -5.325
45.225 33.375 2.025
46.725 39.825 0.975
46.725 39.825 0.375
46.725 39.825 -0.525
47.925 41.025 -0.675
47.925 41.025 -0.375
47.925 41.025 -0.075
45.075 34.275 1.575
45.075 34.275 -0.525
45.075 34.125 -0.825
45.075 34.125 -0.525
46.575 39.675 -2.325
46.575 39.675 -0.375
45.225 36.825 -0.525
45.825 38.475 1.125
45.825 38.475 1.275
45.825 38.475 0.525
45.825 38.475 0.975
45.075 33.975 -0.675
45.075 36.075 0.225
48.975 41.775 -0.225
45.675 38.175 0.825
45.675 38.175 1.125
49.575 42.075 -0.525
45.375 32.625 -0.825
46.425 39.525 0.675
48.225 41.325 -0.375
51.525 42.675 1.425
45.075 36.225 -2.025
47.325 40.575 -0.225
47.325 40.575 1.575
50.775 42.525 0.525
47.475 40.725 0.225
47.475 40.725 -0.225
47.475 40.725 -0.375
46.875 40.125 -1.875
51.375 42.675 0.675
45.075 36.375 -0.525
46.725 39.975 0.225
46.725 39.975 0.975
46.725 39.975 0.525
46.725 39.975 -0.075
46.725 39.975 0.075
47.775 41.025 -0.375
48.375 41.475 -0.375
45.825 38.625 0.375
45.825 38.625 1.425
45.675 38.325 -2.475
45.675 38.325 0.975
51.225 42.675 1.275
51.225 42.675 1.425
45.075 36.525 -0.825
45.075 36.525 -0.525
45.075 36.525 -2.175
45.075 36.525 1.725
48.825 41.775 -1.425
45.525 38.025 0.675
46.575 39.825 0.075
46.575 39.825 0.225
46.575 39.825 -0.075
46.575 39.825 0.825
46.575 39.825 0.675
44.925 34.875 -0.825
44.925 34.875 -1.425
44.925 35.175 3.075
44.925 34.725 -0.225
44.925 34.725 3.225
44.925 34.725 -0.375
44.925 34.725 0.825
44.925 35.325 2.475
44.925 34.575 -0.675
44.925 34.575 4.125
44.925 34.575 -0.375
44.925 35.475 3.225
44.925 35.475 3.525
46.125 39.225 1.425
44.925 34.425 -0.225
51.075 42.675 0.825
51.075 42.675 1.875
45.075 33.375 1.875
45.075 36.675 -0.525
51.075 42.675 1.425
45.375 37.725 -4.425
44.925 34.275 -0.075
44.925 34.275 -1.125
44.925 34.275 -0.525
51.975 42.825 2.025
44.925 35.775 1.725
45.675 38.475 0.525
44.925 35.925 1.425
45.825 38.775 0.975
45.075 36.825 -0.375
51.675 42.825 1.725
44.925 36.075 -0.075
48.675 41.775 -2.625
46.725 40.125 -0.075
46.725 40.125 0.975
47.625 41.025 -0.375
45.375 37.875 -4.575
45.375 32.175 0.525
51.525 42.825 1.575
45.075 36.975 -3.075
46.575 39.975 0.525
46.575 39.975 -0.075
46.575 39.975 -0.375
46.575 39.975 0.375
46.575 39.975 0.075
46.575 39.975 0.825
45.675 38.625 1.425
45.675 38.625 1.275
44.925 36.375 -2.475
44.925 36.375 -0.525
49.425 42.225 -2.025
45.525 38.325 1.125
45.525 38.325 1.275
46.425 39.825 0.675
46.425 39.825 0.075
45.075 37.125 -0.375
49.725 42.375 -1.125
45.375 38.025 1.575
44.925 36.525 -0.525
44.925 36.525 -0.375
51.225 42.825 2.025
51.225 42.825 1.875
44.925 33.525 2.025
52.575 42.975 1.725
52.575 42.975 1.275
44.775 35.175 2.625
44.775 35.175 2.775
44.775 34.725 -0.225
44.775 34.725 2.775
44.775 34.725 -0.075
44.775 34.725 2.925
44.775 35.325 3.225
44.775 35.325 2.925
44.775 35.325 2.325
47.325 40.875 1.425
44.775 34.575 0.375
44.775 34.575 -0.675
44.775 35.475 2.775
45.225 37.725 -4.425
46.725 40.275 1.575
44.775 34.425 -0.525
44.925 36.675 -0.525
44.925 36.675 2.175
45.525 38.475 1.275
45.525 38.475 3.075
44.775 34.275 -0.975
51.975 42.975 2.175
48.975 42.075 1.725
46.575 40.125 0.975
46.575 40.125 1.425
46.575 40.125 1.125
46.575 40.125 0.525
45.375 31.875 0.525
44.775 35.925 0.525
44.925 33.225 2.475
44.925 36.825 -1.425
44.925 36.825 -3.225
44.925 36.825 -1.275
46.425 39.975 -0.675
46.425 39.975 -0.075
46.425 39.975 2.475
46.425 39.975 0.675
46.425 39.975 -0.225
44.775 33.975 -1.125
44.775 36.075 -0.525
44.775 36.075 0.525
45.225 37.875 -1.575
44.775 36.225 -0.825
44.775 36.225 -2.625
44.775 36.225 -0.525
46.275 39.825 -1.875
44.925 36.975 -2.925
44.925 36.975 -1.425
49.125 42.225 -0.225
49.125 42.225 -2.475
45.075 32.475 1.725
46.875 40.575 1.725
46.125 39.675 -0.225
46.125 39.675 -1.875
45.225 32.025 0.525
44.925 37.125 1.575
44.925 37.125 -1.575
44.925 37.125 -1.425
51.225 42.975 2.775
44.775 33.525 2.175
44.625 35.025 2.625
44.625 34.875 2.625
44.625 35.175 0.975
44.625 35.325 -2.625
44.625 35.325 2.625
44.625 35.325 -2.325
44.625 34.725 0.975
46.425 40.125 0.225
46.425 40.125 1.425
46.425 40.125 0.675
46.425 40.125 -0.075
44.625 34.575 -0.225
44.625 34.575 2.625
44.625 34.575 -0.525
44.625 34.575 -0.825
45.525 38.775 2.175
45.525 38.775 1.275
44.925 37.275 -1.725
44.925 32.775 1.275
49.275 42.375 -0.075
49.275 42.375 -0.225
44.625 35.625 2.925
44.625 35.625 3.525
44.625 34.425 3.975
44.625 34.425 -0.975
44.625 35.625 3.375
46.275 39.975 0.525
46.275 39.975 -0.525
48.675 42.075 -0.825
45.225 38.175 -1.875
49.575 42.525 -1.875
44.625 35.775 -2.325
44.625 34.275 -0.975
44.925 37.425 1.125
44.925 37.425 -3.525
44.625 36.075 -0.375
46.725 40.575 -2.025
49.125 42.375 -0.225
45.375 38.625 2.175
45.375 38.625 2.325
45.525 38.925 2.175
48.825 42.225 -0.075
45.225 38.325 2.625
46.425 40.275 0.975
46.425 40.275 -0.825
46.425 40.275 -0.975
44.925 37.575 0.675
50.175 42.825 1.425
44.775 37.125 0.675
44.775 32.925 2.925
51.225 43.125 2.325
44.475 35.175 2.475
44.475 35.175 3.525
44.475 35.175 2.625
44.475 35.175 0.675
48.975 42.375 0.225
48.975 42.375 0.075
48.975 42.375 -0.225
52.425 43.275 0.825
44.475 35.325 -4.125
49.275 42.525 -0.075
49.275 42.525 -0.225
45.525 39.075 2.175
44.475 34.575 3.825
44.475 35.475 1.125
44.475 34.425 -2.325
44.475 35.625 0.975
44.475 35.625 0.075
44.475 35.625 -2.925
44.475 35.625 3.375
44.475 35.625 -2.625
44.475 35.625 1.425
46.575 40.575 -1.425
46.425 40.425 -1.125
46.425 40.425 -1.275
46.425 40.425 -1.425
51.825 43.275 1.425
44.475 35.925 1.125
44.475 35.925 3.075
44.475 36.075 0.825
44.475 36.075 0.675
47.475 41.475 -1.725
49.125 42.525 -0.225
48.075 41.925 2.325
48.825 42.375 0.975
44.625 33.075 1.425
48.525 42.225 1.275
44.475 36.225 0.975
46.125 40.125 -0.675
44.775 32.475 -2.475
50.175 42.975 2.175
45.975 39.975 -0.075
45.975 39.975 0.225
46.875 41.025 0.675
45.225 38.775 1.575
44.475 36.525 -3.675
44.475 36.525 2.175
44.475 36.525 -3.975
47.025 41.175 -0.075
47.025 41.175 1.575
45.075 38.475 1.275
45.075 38.475 -3.525
49.275 42.675 -0.075
49.275 42.675 -0.225
48.675 42.375 -0.225
47.175 41.325 -0.225
46.425 40.575 -1.575
46.425 40.575 -1.425
44.325 35.175 1.875
44.325 35.175 0.525
44.325 34.725 -0.375
44.325 34.725 -2.925
44.325 35.325 -2.925
44.625 37.275 -2.775
44.325 34.575 3.675
44.325 34.575 3.825
44.325 34.575 -3.525
44.325 35.475 0.975
46.275 40.425 1.725
48.375 42.225 1.725
48.375 42.225 -0.675
44.925 38.175 0.225
44.925 38.175 0.075
44.925 31.875 1.875
44.325 35.625 -0.375
51.975 43.425 1.425
51.975 43.425 0.975
46.125 40.275 -0.675
46.125 40.275 0.075
44.475 33.225 2.475
44.475 33.225 -0.225
44.475 36.825 -3.825
44.775 37.875 0.375
51.825 43.425 0.975
44.325 35.925 0.825
44.625 37.425 1.725
48.825 42.525 1.275
45.075 38.625 -3.225
44.325 33.975 0.525
44.325 33.975 1.125
48.525 42.375 -0.225
48.525 42.375 1.425
44.475 33.075 3.525
50.775 43.275 1.725
44.475 36.975 -2.625
44.325 33.825 -0.375
46.875 41.175 -0.225
44.625 37.575 2.025
44.625 37.575 -0.825
50.175 43.125 2.325
47.025 41.325 -0.225
47.025 41.325 -0.525
47.025 41.325 0.225
44.775 38.025 -6.675
46.275 40.575 -1.725
48.675 42.525 -0.225
46.125 40.425 -0.375
46.125 40.425 0.375
44.925 38.475 0.225
44.325 36.525 1.425
44.625 37.725 1.875
48.375 42.375 -1.575
44.175 35.025 2.625
45.975 40.275 -0.075
45.975 40.275 -0.825
44.475 37.275 1.725
44.175 35.175 4.725
44.175 35.325 1.125
44.175 34.725 -0.375
53.025 43.575 -3.975
44.325 33.375 3.225
51.075 43.425 0.675
44.175 35.475 -0.375
44.175 35.475 -0.225
48.075 42.225 1.275
48.075 42.225 -0.075
44.175 35.625 -0.525
52.125 43.575 0.825
45.825 40.125 0.075
45.825 40.125 0.225
44.175 35.775 3.075
44.175 35.775 -0.225
45.075 38.925 2.175
44.625 37.875 0.525
44.625 37.875 0.375
44.625 37.875 -2.175
49.875 43.125 1.575
44.325 36.825 -0.225
50.925 43.425 1.425
44.475 37.425 0.075
44.475 37.425 0.375
46.725 41.175 1.125
46.725 41.175 -0.225
45.225 39.225 1.875
44.175 35.925 -0.225
46.875 41.325 0.375
44.175 34.125 3.675
44.775 38.325 -0.225
44.325 36.975 -0.075
46.125 40.575 -0.225
46.125 40.575 1.425
44.175 33.825 3.825
44.175 33.825 -0.375
44.175 36.225 -0.675
51.525 43.575 0.975
44.475 37.575 -0.075
44.475 37.575 0.375
44.475 37.575 0.975
44.625 32.025 0.825
45.975 40.425 0.375
44.175 33.675 2.925
44.325 37.125 0.075
44.325 37.125 0.375
44.325 32.925 0.975
45.825 40.275 -0.225
45.825 40.275 0.075
45.825 40.275 0.375
45.825 40.275 -0.075
44.475 37.725 0.525
44.475 37.725 1.125
44.475 37.725 0.075
44.175 36.525 2.775
44.175 36.525 0.225
51.225 43.575 1.275
49.575 43.125 1.275
44.625 38.175 -0.075
44.325 37.275 0.375
46.575 41.175 -0.225
48.075 42.375 -0.075
48.075 42.375 -0.225
44.025 35.025 3.525
44.025 35.175 2.625
44.025 34.875 -0.675
44.025 34.875 1.125
44.025 35.175 3.525
44.025 34.725 -3.675
44.175 36.675 0.375
44.175 36.675 0.075
51.075 43.575 0.975
44.025 34.575 0.075
44.025 34.575 3.375
46.125 40.725 0.825
44.025 34.425 4.125
44.925 38.925 2.175
44.925 38.925 1.425
45.075 39.225 1.425
44.025 34.275 -0.225
44.025 34.275 -0.375
45.975 40.575 0.375
45.975 40.575 -0.075
45.975 40.575 -0.225
48.225 42.525 -0.075
48.225 42.525 -0.225
48.225 42.525 2.175
45.225 39.525 1.875
44.025 34.125 4.575
45.825 40.425 0.375
45.825 40.425 -1.425
44.025 33.975 1.275
44.025 33.975 1.425
44.025 33.975 0.675
44.025 33.975 -0.525
44.025 33.975 2.175
44.025 33.975 -0.375
44.025 33.975 2.475
44.025 33.975 0.825
44.025 36.075 -0.525
44.175 33.075 -1.575
44.325 37.575 0.525
44.325 37.575 0.675
47.925 42.375 1.425
47.925 42.375 0.075
47.925 42.375 -2.475
44.025 33.825 0.525
48.975 42.975 -1.425
45.675 40.275 0.075
45.675 40.275 0.375
45.675 40.275 -0.075
45.675 40.275 0.225
44.625 38.475 0.525
46.425 41.175 0.825
44.025 36.375 0.375
44.025 36.375 -0.975
44.025 36.375 -0.375
44.175 37.125 0.375
46.875 41.625 -2.025
46.125 40.875 -0.225
45.525 40.125 0.225
48.075 42.525 0.075
48.075 42.525 -0.075
44.025 36.525 -0.975
44.025 33.525 -0.225
45.975 40.725 -0.075
44.175 37.275 0.225
43.875 35.025 -2.325
43.875 34.875 3.525
43.875 35.175 3.825
43.875 35.175 1.425
45.825 40.575 0.375
43.875 34.725 3.975
45.825 40.575 0.075
45.825 40.575 -0.075
43.875 35.325 0.375
44.025 36.675 0.375
44.025 36.675 -0.975
43.875 35.475 -1.425
47.775 42.375 -0.075
43.875 34.425 0.675
43.875 34.425 -1.275
48.225 42.675 0.075
45.675 40.425 -0.225
50.325 43.575 -0.225
43.875 34.275 0.675
43.875 34.275 1.425
50.925 43.725 1.125
43.875 35.925 1.125
43.875 35.925 3.075
47.925 42.525 -0.075
45.525 40.275 0.675
45.525 40.275 -0.075
45.525 40.275 0.975
43.875 33.975 2.475
43.875 33.975 2.175
43.875 33.975 1.725
43.875 33.975 0.525
43.875 36.075 0.375
44.025 36.975 -4.275
44.175 37.575 -0.825
50.175 43.575 2.925
43.875 33.825 -1.425
48.375 42.825 -0.375
48.375 42.825 -0.075
48.375 42.825 0.075
45.975 40.875 0.375
47.625 42.375 -0.075
47.625 42.375 -0.225
45.825 40.725 0.075
45.825 40.725 1.425
45.825 40.725 -0.075
45.825 40.725 0.225
47.025 41.925 0.825
44.025 37.125 0.075
48.075 42.675 -0.075
43.875 36.375 -0.375
43.875 33.675 0.975
44.175 37.725 -0.075
44.175 37.725 -0.525
44.325 38.175 0.375
45.675 40.575 0.075
45.675 40.575 -0.225
47.775 42.525 0.075
47.775 42.525 -0.075
50.475 43.725 2.175
50.475 43.725 1.875
44.025 37.275 0.675
44.025 37.275 0.075
44.025 37.275 0.225
44.775 39.225 1.575
45.525 40.425 0.225
45.525 40.425 -0.375
43.725 35.175 0.075
43.725 34.875 1.875
43.875 36.675 -0.825
43.875 36.675 0.225
43.725 34.725 3.975
48.225 42.825 -0.225
43.725 34.575 1.125
43.725 34.575 3.825
44.175 37.875 -2.025
44.175 37.875 1.575
44.175 37.875 0.225
44.325 38.325 -0.075
44.025 37.425 0.675
43.725 34.275 0.675
46.725 41.775 -0.225
45.975 41.025 -0.075
43.875 33.225 2.325
47.925 42.675 0.225
43.875 36.825 0.375
45.375 40.275 -0.525
45.375 40.275 0.975
45.375 40.275 -0.075
45.375 40.275 1.125
45.375 40.275 -0.225
45.375 40.275 0.825
47.475 42.375 -0.375
47.475 42.375 0.075
43.725 35.925 0.525
45.825 40.875 -0.075
45.825 40.875 0.825
45.825 40.875 0.675
45.825 40.875 -0.225
43.725 33.975 1.725
43.725 36.075 0.825
43.725 36.075 0.525
43.725 36.075 0.975
44.175 38.025 -1.875
44.175 38.025 0.075
48.975 43.275 -1.125
43.875 36.975 2.925
48.375 42.975 0.075
48.375 42.975 -0.225
48.375 42.975 -0.075
44.775 39.375 0.525
45.675 40.725 0.225
45.675 40.725 0.525
44.025 37.575 -0.225
45.675 40.725 0.075
45.675 40.725 -0.075
47.625 42.525 -0.225
43.725 33.825 2.175
43.725 33.825 3.225
43.725 36.225 1.125
48.075 42.825 0.075
45.525 40.575 0.825
45.525 40.575 1.125
43.875 32.925 2.475
43.875 32.925 2.025
43.875 37.125 0.225
43.875 37.125 -0.525
43.725 36.375 1.125
44.025 37.725 1.725
47.325 42.375 -0.375
45.375 40.425 0.375
45.375 40.425 0.525
43.725 36.525 1.125
43.725 33.525 1.875
43.725 36.525 0.525
44.475 38.925 -0.225
46.575 41.775 -0.225
46.575 41.775 -1.125
46.575 41.775 -0.825
43.875 37.275 -0.525
48.225 42.975 -0.225
44.325 38.625 -0.075
46.725 41.925 0.675
46.725 41.925 -0.225
45.825 41.025 0.075
43.575 35.025 -1.875
43.575 35.025 -0.225
43.575 35.025 -0.375
