# .PCD v0.7 - Point Cloud Data file format
VERSION 0.7
FIELDS x y z
SIZE 4 4 4
TYPE F F F
COUNT 1 1 1
WIDTH 2048
HEIGHT 1
VIEWPOINT 0 0 0 1 0 0 0
POINTS 2048
DATA ascii
2.325 -36.675 1.125
2.325 -36.825 1.275
2.325 -36.825 0.675
2.475 -36.375 0.975
2.775 -36.675 1.875
2.175 -36.675 1.125
2.175 -36.525 0.975
2.625 -36.975 -3.225
2.175 -36.375 1.725
2.175 -36.375 2.475
2.175 -36.375 2.175
2.175 -36.975 0.825
2.175 -36.975 1.425
2.175 -36.975 0.975
2.175 -36.975 1.725
2.025 -36.825 1.125
2.625 -37.125 4.575
2.175 -36.225 1.275
2.175 -36.225 1.725
2.025 -36.375 2.175
2.025 -36.975 1.275
2.025 -36.975 -0.975
2.175 -37.125 0.975
3.075 -36.675 1.125
3.075 -36.675 1.875
1.875 -36.675 1.875
2.325 -36.075 0.225
2.325 -36.075 2.025
2.325 -36.075 0.525
1.875 -36.525 1.875
3.075 -36.525 1.725
1.875 -36.525 1.725
1.875 -36.825 2.025
1.875 -36.825 1.875
3.075 -36.825 1.125
3.075 -36.825 2.025
2.925 -36.225 3.675
2.925 -36.225 3.825
2.025 -36.225 1.275
2.175 -36.075 1.425
3.075 -36.375 0.525
3.075 -36.375 0.825
1.875 -36.375 1.575
2.775 -37.275 1.875
2.175 -37.275 1.875
1.875 -36.975 2.775
1.875 -36.975 1.875
1.875 -36.975 2.025
1.875 -36.975 2.925
2.925 -36.075 0.525
2.025 -36.075 1.575
2.025 -36.075 1.725
2.025 -36.075 0.075
3.075 -36.225 0.525
1.875 -36.225 1.425
3.075 -36.225 0.675
1.875 -36.225 1.275
3.225 -36.675 0.975
1.725 -36.675 2.025
2.925 -37.275 0.525
3.225 -36.525 3.525
3.225 -36.525 -0.375
3.225 -36.525 3.825
3.225 -36.525 3.975
2.325 -35.925 0.525
2.625 -35.925 -0.075
1.725 -36.825 1.575
3.225 -36.375 -0.075
3.225 -36.375 0.975
3.225 -36.375 0.525
2.775 -35.925 1.575
2.775 -35.925 -0.075
1.725 -36.975 -0.225
3.075 -36.075 0.375
3.075 -36.075 1.725
3.075 -36.075 0.525
1.875 -37.275 1.125
3.225 -36.225 0.525
3.225 -36.225 1.875
2.925 -35.925 0.675
2.925 -35.925 -0.075
2.925 -35.925 1.425
2.325 -35.775 0.375
1.575 -36.525 1.725
1.575 -36.525 1.575
1.575 -36.825 1.725
1.575 -36.825 1.125
1.575 -36.825 1.575
2.325 -37.575 0.975
2.775 -35.775 -0.075
2.175 -35.775 0.525
1.575 -36.375 1.875
3.375 -36.975 0.525
1.575 -36.975 -1.275
1.575 -36.975 1.725
2.175 -37.575 1.725
3.225 -36.075 0.525
1.725 -36.075 1.425
1.875 -37.425 2.025
3.075 -35.925 0.375
1.875 -37.425 1.575
1.875 -37.425 1.875
3.075 -35.925 0.075
3.075 -35.925 1.725
3.375 -36.225 0.075
2.925 -37.575 0.825
2.025 -37.575 2.175
2.025 -37.575 1.425
2.475 -35.625 1.725
2.475 -37.725 0.675
2.625 -35.625 0.225
1.425 -36.525 0.825
1.425 -36.525 1.725
1.425 -36.525 1.875
1.725 -37.425 2.025
1.725 -37.425 1.125
1.725 -35.925 1.425
1.725 -35.925 0.525
1.425 -36.825 2.925
2.325 -37.725 0.675
2.625 -37.725 0.525
2.625 -37.725 1.725
3.375 -36.075 0.075
1.875 -35.775 2.475
1.575 -37.275 -0.675
1.575 -37.275 -0.525
1.575 -37.275 -0.375
1.875 -37.575 1.875
1.875 -37.575 1.275
3.075 -37.575 0.825
1.875 -37.575 2.025
1.875 -37.575 1.425
2.775 -35.625 0.075
2.175 -35.625 0.525
2.175 -35.625 -0.375
2.175 -37.725 1.275
2.175 -37.725 0.675
2.175 -37.725 2.325
2.175 -37.725 1.125
2.025 -35.625 1.425
1.425 -36.225 0.975
3.525 -37.125 2.625
1.425 -37.125 0.975
1.425 -37.125 -0.075
1.725 -35.775 0.525
3.375 -35.925 1.725
1.575 -37.425 -1.125
1.575 -37.425 -0.975
1.725 -37.575 2.025
2.475 -35.475 0.225
1.275 -36.675 0.975
2.475 -37.875 0.675
3.525 -36.075 1.725
1.875 -35.625 0.675
3.675 -36.525 0.825
1.275 -36.525 0.225
1.275 -36.525 1.575
2.625 -37.875 -3.375
2.625 -37.875 0.675
2.325 -37.875 -0.075
3.675 -36.375 0.975
1.275 -36.375 0.825
1.275 -36.975 0.975
2.175 -37.875 1.275
2.175 -37.875 1.125
1.575 -35.775 0.675
1.575 -37.575 -0.075
1.575 -37.575 1.575
2.925 -35.475 0.225
2.025 -35.475 0.525
3.675 -36.225 0.975
3.675 -36.225 1.575
1.275 -36.225 0.825
1.275 -37.125 1.125
1.275 -37.125 0.375
2.925 -37.875 0.675
2.925 -37.875 1.425
1.425 -37.425 1.275
3.075 -35.475 0.525
3.075 -35.475 0.225
3.675 -36.075 0.975
3.675 -36.075 0.825
1.275 -36.075 1.425
1.275 -37.275 0.225
1.275 -37.275 0.075
1.275 -37.275 1.275
1.875 -37.875 2.175
3.075 -37.875 3.675
3.075 -37.875 1.275
2.475 -38.025 -2.475
3.825 -36.525 -2.775
1.125 -36.825 0.975
2.325 -38.025 0.975
2.175 -35.325 -0.375
1.575 -35.625 0.975
1.575 -35.625 0.675
1.125 -36.975 0.975
1.125 -36.975 0.225
2.175 -38.025 0.975
2.175 -38.025 1.275
3.375 -37.725 0.975
1.575 -37.725 1.575
1.575 -37.725 1.875
1.425 -37.575 1.275
1.425 -37.575 -0.825
1.425 -37.575 2.025
1.425 -37.575 1.575
3.225 -35.475 0.825
3.225 -35.475 1.125
3.225 -35.475 0.975
3.225 -35.475 0.225
3.675 -35.925 0.825
1.275 -37.425 1.425
1.725 -37.875 3.075
2.025 -35.325 0.525
1.125 -36.225 1.275
1.125 -37.125 0.525
1.125 -37.125 0.975
3.825 -37.125 2.775
2.925 -38.025 0.675
2.925 -38.025 0.825
3.075 -35.325 0.375
3.075 -35.325 0.975
1.875 -35.325 1.275
3.075 -35.325 0.525
3.825 -36.075 2.025
1.125 -36.075 0.825
3.825 -36.075 0.975
1.125 -37.275 0.975
1.425 -37.725 1.425
3.375 -35.475 -0.225
1.575 -35.475 0.675
0.975 -36.675 0.975
1.575 -37.875 1.875
1.275 -37.575 1.725
3.975 -36.525 0.825
2.325 -38.175 1.575
2.325 -35.175 0.675
0.975 -36.825 1.425
3.975 -36.375 0.675
2.175 -38.175 0.975
2.175 -38.175 0.675
2.175 -35.175 0.525
3.225 -35.325 1.575
3.225 -35.325 0.075
3.225 -35.325 0.525
3.225 -35.325 1.125
3.225 -35.325 0.825
3.825 -35.925 2.025
2.925 -35.175 0.375
2.925 -38.175 0.975
2.025 -35.175 1.725
2.025 -38.175 0.675
3.975 -37.125 0.975
3.525 -35.475 0.375
1.275 -37.725 1.875
1.275 -37.725 1.425
3.975 -36.075 0.975
3.975 -36.075 1.575
0.975 -36.075 1.875
1.875 -35.175 0.825
1.875 -35.175 0.525
3.075 -35.175 0.375
0.975 -37.275 1.125
3.375 -35.325 0.975
3.375 -35.325 -0.075
3.375 -35.325 0.075
3.375 -35.325 0.525
3.375 -35.325 2.325
3.825 -35.775 2.175
1.575 -38.025 1.875
4.125 -36.675 0.525
0.825 -36.675 1.575
2.325 -35.025 0.375
2.325 -35.025 1.875
2.325 -35.025 0.675
0.825 -36.525 1.575
0.825 -36.825 1.275
0.825 -36.825 -0.375
2.625 -38.325 -0.225
2.175 -35.025 0.675
2.175 -35.025 1.725
2.175 -35.025 1.875
0.825 -36.375 1.575
3.975 -37.425 0.225
3.225 -35.175 0.075
3.975 -35.925 1.575
0.975 -37.425 0.975
4.125 -36.975 -0.225
0.825 -36.975 0.825
2.175 -38.325 0.975
1.275 -35.475 -0.825
1.275 -37.875 1.875
2.925 -35.025 0.375
0.825 -36.225 1.575
0.825 -37.125 0.675
1.425 -38.025 1.575
1.425 -38.025 1.875
1.125 -37.725 0.975
2.925 -38.325 0.525
2.025 -38.325 1.425
2.025 -38.325 0.675
3.375 -35.175 0.075
1.575 -38.175 1.875
1.575 -38.175 -0.825
1.575 -35.175 -0.225
0.975 -37.575 0.975
0.975 -37.575 3.825
3.975 -37.575 0.975
1.875 -35.025 0.525
3.075 -35.025 0.075
3.075 -35.025 -0.075
0.825 -37.275 0.975
0.825 -37.275 1.575
1.875 -38.325 0.675
0.675 -36.675 3.075
0.675 -36.675 0.075
2.475 -38.475 1.425
3.675 -35.325 0.225
3.675 -35.325 0.375
2.325 -34.875 0.375
2.325 -34.875 1.725
2.325 -34.875 0.825
0.675 -36.525 1.725
1.275 -38.025 1.875
1.125 -37.875 1.725
1.125 -37.875 1.575
2.325 -38.475 1.725
2.325 -38.475 1.125
2.625 -38.475 1.875
3.225 -35.025 0.075
3.225 -35.025 1.425
0.825 -37.425 1.425
0.825 -37.425 0.975
1.725 -38.325 1.875
1.725 -38.325 0.375
1.725 -38.325 0.975
2.175 -34.875 2.025
2.175 -34.875 0.675
2.175 -34.875 1.725
0.675 -36.375 1.725
0.675 -36.375 1.425
0.675 -36.975 0.225
2.175 -38.475 3.375
2.175 -38.475 1.575
3.525 -35.175 1.275
3.525 -35.175 0.525
1.425 -38.175 2.025
0.675 -36.225 1.725
2.925 -38.475 0.525
2.025 -38.475 1.125
3.375 -35.025 1.125
1.575 -38.325 1.875
1.875 -34.875 1.275
1.875 -34.875 1.125
3.075 -34.875 0.375
1.875 -34.875 0.975
1.875 -38.475 1.875
1.125 -35.325 -1.725
3.675 -35.175 0.225
3.675 -35.175 1.425
1.275 -35.175 -0.825
1.275 -38.175 1.875
3.225 -34.875 0.075
0.525 -36.675 1.725
0.525 -36.675 1.275
0.525 -36.675 3.225
2.475 -38.625 0.675
1.725 -38.475 2.025
2.325 -34.725 0.375
2.325 -34.725 0.675
2.325 -34.725 1.725
2.325 -34.725 1.575
4.125 -35.625 0.975
4.125 -35.625 3.825
3.525 -35.025 0.225
1.425 -35.025 -0.525
4.425 -36.825 -0.075
4.425 -36.825 -0.975
0.525 -36.825 1.125
0.525 -36.825 1.875
2.325 -38.625 0.675
2.325 -38.625 0.975
2.625 -38.625 0.675
2.325 -38.625 1.425
1.425 -38.325 2.025
2.175 -34.725 0.375
0.525 -36.375 2.025
0.525 -36.975 1.125
0.525 -36.975 0.225
0.525 -36.975 2.025
2.775 -38.625 3.075
2.175 -38.625 1.275
2.025 -34.725 1.425
2.025 -34.725 0.675
0.525 -36.225 2.175
0.525 -36.225 1.875
2.925 -38.625 -2.025
2.025 -38.625 0.525
0.675 -37.575 2.325
1.575 -38.475 1.875
1.575 -38.475 -4.725
1.125 -35.175 4.575
1.125 -35.175 -0.225
0.975 -38.025 0.975
0.975 -38.025 -0.525
3.975 -38.025 0.375
3.075 -34.725 0.225
1.875 -34.725 1.125
4.125 -35.475 0.225
4.425 -36.075 1.725
0.525 -36.075 2.925
3.675 -35.025 1.725
3.675 -35.025 1.425
1.275 -35.025 0.225
3.075 -38.625 0.525
1.275 -38.325 -2.325
1.275 -38.325 1.575
1.275 -38.325 1.275
3.525 -34.875 1.425
4.275 -35.625 1.725
3.525 -38.475 1.425
4.425 -35.925 -0.075
0.525 -37.425 2.325
0.525 -37.425 0.225
3.225 -38.625 -4.125
2.475 -34.575 1.875
0.375 -36.675 0.225
0.375 -36.675 0.975
2.475 -38.775 0.375
0.375 -36.825 0.525
2.325 -38.775 2.025
2.325 -38.775 0.525
2.625 -38.775 0.375
2.625 -38.775 1.875
2.775 -34.575 0.225
2.175 -34.575 1.575
0.375 -36.375 2.325
0.975 -38.175 4.125
3.975 -35.175 0.225
3.975 -35.175 1.125
2.175 -38.775 0.525
2.775 -38.775 0.675
2.175 -38.775 0.825
2.175 -38.775 0.375
4.125 -35.325 1.575
4.125 -35.325 0.225
4.125 -35.325 0.825
0.825 -35.325 0.225
1.125 -35.025 1.575
0.825 -38.025 1.575
1.125 -38.325 0.375
2.025 -34.575 0.375
2.025 -34.575 1.125
1.575 -34.725 0.825
4.425 -35.775 2.025
0.375 -36.225 2.025
0.525 -35.775 1.425
0.375 -37.125 0.375
2.925 -38.775 1.575
2.925 -38.775 0.675
2.025 -38.775 0.825
2.025 -38.775 1.275
2.025 -38.775 0.375
1.575 -38.625 1.875
1.575 -38.625 1.725
0.525 -37.575 0.225
0.525 -37.575 0.525
0.525 -37.575 0.675
3.675 -34.875 1.725
1.275 -34.875 0.225
0.675 -35.475 -0.075
4.275 -35.475 0.525
0.675 -37.875 2.925
0.675 -37.875 2.175
0.675 -37.875 3.525
1.275 -38.475 -1.275
1.275 -38.475 1.125
1.875 -34.575 1.275
0.375 -36.075 2.025
4.575 -37.275 0.375
3.075 -38.775 0.525
3.525 -38.625 -0.225
0.525 -37.725 0.225
0.525 -37.725 0.525
1.425 -38.625 2.325
1.425 -38.625 1.875
1.425 -38.625 1.725
3.975 -35.025 1.125
3.975 -35.025 1.425
3.975 -35.025 0.675
0.825 -38.175 1.125
4.125 -38.175 -1.575
0.825 -38.175 0.975
4.125 -35.175 1.575
4.125 -35.175 1.125
4.575 -37.425 1.275
3.975 -38.325 -5.025
0.975 -38.325 3.975
0.975 -38.325 0.525
0.975 -38.325 0.975
0.675 -35.325 -0.075
4.275 -35.325 0.675
4.275 -35.325 1.425
4.725 -36.675 0.075
0.225 -36.675 0.375
0.225 -36.675 0.525
2.475 -34.425 1.725
2.475 -34.425 1.425
2.475 -34.425 0.225
0.675 -38.025 0.975
0.225 -36.825 0.675
0.225 -36.825 0.825
2.175 -38.925 -1.725
2.775 -38.925 -2.175
2.175 -34.425 2.475
2.175 -34.425 0.525
4.725 -36.975 -0.075
0.225 -36.975 1.725
1.575 -38.775 1.875
0.375 -37.575 1.875
1.275 -34.725 1.425
0.525 -35.475 0.825
0.525 -35.475 0.675
0.525 -37.875 1.275
0.525 -37.875 0.375
0.525 -37.875 2.925
3.675 -38.625 -0.075
1.275 -38.625 3.975
2.925 -34.425 0.225
2.025 -38.925 1.125
2.025 -38.925 1.425
0.225 -37.125 1.125
0.225 -36.075 2.325
3.075 -38.925 0.675
1.875 -38.925 1.125
1.875 -38.925 3.075
4.725 -37.275 -0.075
3.075 -38.925 0.825
4.125 -35.025 1.125
4.125 -38.325 0.675
0.825 -38.325 0.975
0.675 -35.175 -0.075
0.675 -38.175 2.325
0.675 -38.175 0.975
0.675 -38.175 1.275
0.675 -35.175 -1.725
1.425 -34.575 0.675
0.375 -35.625 1.275
4.575 -35.625 0.975
1.425 -38.775 1.725
1.425 -38.775 2.325
0.375 -37.725 -0.375
0.375 -37.725 2.175
0.375 -37.725 2.025
0.375 -37.725 1.725
4.425 -35.325 0.675
0.525 -35.325 0.675
0.525 -35.325 0.825
0.525 -35.325 -0.075
0.525 -35.325 0.375
4.725 -35.925 -0.075
4.725 -35.925 2.325
3.225 -34.425 0.375
1.725 -38.925 1.875
1.125 -38.625 1.125
2.475 -34.275 1.575
0.075 -36.675 0.825
2.475 -39.075 0.375
2.325 -34.275 0.225
2.325 -34.275 1.575
2.625 -34.275 1.575
2.325 -34.275 2.025
0.075 -36.525 0.975
0.075 -36.525 0.675
0.075 -36.825 0.825
0.075 -36.825 1.125
0.075 -36.825 0.975
2.625 -39.075 2.025
2.625 -39.075 0.675
0.375 -35.475 -0.075
0.375 -35.475 0.975
0.375 -35.475 0.525
0.375 -35.475 0.375
4.575 -35.475 0.225
4.575 -35.475 0.975
4.875 -36.375 0.375
0.075 -36.975 1.275
0.075 -36.975 0.825
0.375 -37.875 1.875
0.375 -37.875 1.725
1.275 -38.775 1.425
1.275 -38.775 -0.675
2.175 -39.075 1.125
0.225 -35.775 2.175
1.575 -38.925 1.875
1.575 -38.925 2.025
4.725 -37.575 0.075
0.225 -37.575 0.375
0.825 -34.875 -2.775
2.025 -34.275 -2.475
2.025 -34.275 1.875
4.275 -35.025 0.375
0.675 -38.325 0.525
2.925 -39.075 0.525
2.925 -39.075 1.125
2.025 -39.075 1.425
4.425 -38.175 -0.225
0.525 -35.175 2.175
3.975 -38.625 0.375
0.075 -36.075 2.025
1.875 -39.075 1.425
0.225 -35.625 0.525
0.225 -35.625 2.775
1.425 -34.425 0.225
1.425 -38.925 -3.225
0.225 -37.725 -0.225
0.375 -35.325 -0.075
0.375 -35.325 2.175
4.575 -38.025 -0.225
3.225 -34.275 -0.525
4.875 -37.425 0.075
1.725 -39.075 2.025
1.725 -39.075 0.075
0.675 -34.875 2.175
0.675 -38.475 0.525
4.275 -38.475 0.225
2.475 -34.125 2.325
2.475 -34.125 0.225
1.275 -38.925 -1.125
-0.075 -36.675 2.025
-0.075 -36.675 0.525
-0.075 -36.675 0.825
-0.075 -36.675 0.675
5.025 -36.675 0.525
2.325 -34.125 0.225
0.525 -35.025 -1.725
0.525 -35.025 -0.075
-0.075 -36.825 1.725
-0.075 -36.825 0.825
-0.075 -36.825 -0.225
-0.075 -36.825 1.125
-0.075 -36.825 0.975
4.125 -38.625 1.125
4.125 -38.625 0.375
0.825 -38.625 0.375
4.425 -38.325 0.975
0.525 -38.325 -1.575
2.325 -39.225 2.175
2.625 -39.225 0.825
3.375 -34.275 0.075
3.375 -34.275 -2.325
4.875 -35.775 0.525
1.575 -39.075 2.025
2.175 -34.125 0.525
-0.075 -36.975 0.825
5.025 -36.975 -0.375
2.775 -39.225 1.725
2.775 -39.225 0.525
2.175 -39.225 -1.575
0.375 -35.175 0.975
0.375 -38.175 0.675
0.375 -35.175 -0.225
0.975 -38.775 2.175
0.975 -38.775 0.075
5.025 -37.125 3.225
4.875 -35.625 0.675
5.025 -37.275 1.125
0.075 -37.725 0.075
3.075 -39.225 0.375
1.425 -39.075 1.575
0.225 -35.325 0.375
0.675 -34.725 2.025
4.425 -38.475 0.825
0.525 -38.475 0.225
1.725 -39.225 1.875
4.125 -34.575 0.825
4.575 -35.025 0.075
4.575 -35.025 1.125
0.825 -38.775 0.975
0.075 -35.475 -3.375
0.075 -35.475 1.575
0.075 -35.475 0.975
0.075 -35.475 1.425
4.875 -35.475 -0.075
0.075 -37.875 -0.525
-0.225 -36.675 0.675
2.325 -33.975 0.225
2.625 -33.975 2.025
-0.075 -35.775 -2.775
0.225 -35.175 0.225
3.975 -34.425 1.125
0.225 -38.175 0.375
-0.225 -36.525 0.975
-0.225 -36.825 0.525
-0.225 -36.825 2.025
-0.225 -36.825 1.125
2.625 -39.375 1.575
2.325 -39.375 0.675
1.575 -39.225 2.025
2.175 -33.975 0.825
2.175 -33.975 0.975
-0.225 -36.975 0.975
-0.225 -36.975 -0.225
-0.225 -36.975 0.675
-0.225 -36.975 -0.075
2.175 -39.375 2.025
2.175 -39.375 2.325
2.025 -39.375 2.175
0.075 -35.325 0.375
0.075 -35.325 0.675
1.125 -34.275 1.275
0.075 -38.025 0.975
3.825 -39.075 -0.675
3.525 -34.125 -0.075
3.525 -34.125 0.075
3.525 -39.225 -4.575
1.425 -39.225 2.775
1.425 -39.225 0.375
3.525 -39.225 0.825
5.175 -36.075 -0.825
0.675 -38.775 0.975
0.375 -38.475 0.675
0.375 -38.475 1.275
1.875 -39.375 2.325
1.875 -39.375 2.175
0.825 -38.925 0.975
0.825 -34.425 -1.275
4.125 -38.925 2.775
4.725 -38.325 0.375
0.225 -38.325 0.675
0.225 -38.325 0.375
3.225 -33.975 -0.075
3.225 -33.975 -1.425
3.225 -33.975 0.075
1.725 -33.975 1.275
5.175 -35.925 -0.075
1.725 -39.375 2.475
3.675 -34.125 0.075
-0.075 -35.475 0.825
5.025 -35.475 0.375
1.275 -39.225 1.875
1.275 -39.225 2.175
1.275 -39.225 3.225
0.075 -35.175 0.225
0.075 -35.175 0.525
4.875 -38.175 1.125
0.975 -39.075 0.825
0.975 -39.075 2.325
0.975 -39.075 1.875
0.975 -39.075 -1.275
3.375 -33.975 -0.225
3.375 -33.975 -1.575
3.375 -33.975 -1.425
-0.225 -37.575 -0.975
-0.375 -36.675 0.975
2.475 -39.525 1.275
2.475 -39.525 -0.225
2.325 -33.825 1.125
2.325 -33.825 -0.975
2.325 -33.825 0.975
2.325 -33.825 1.875
2.325 -39.525 1.125
2.325 -39.525 3.225
2.325 -39.525 2.175
2.175 -33.825 0.975
2.175 -33.825 1.725
4.425 -34.575 1.125
-0.375 -36.975 1.125
-0.375 -36.975 1.275
2.175 -39.525 1.875
0.525 -38.775 0.975
2.175 -39.525 0.975
4.575 -38.625 2.025
0.375 -38.625 0.675
4.575 -38.625 0.525
4.725 -34.875 1.125
0.675 -38.925 0.525
0.675 -34.425 -2.025
0.675 -34.425 0.225
0.675 -34.425 -1.425
0.675 -38.925 1.425
0.675 -38.925 0.675
0.675 -38.925 0.975
0.225 -38.475 0.225
2.025 -33.825 2.025
2.025 -33.825 -0.825
-0.075 -35.325 0.525
3.825 -34.125 -0.675
-0.075 -38.025 1.125
-0.075 -38.025 1.425
5.025 -38.025 1.425
2.025 -39.525 4.425
2.925 -39.525 1.125
1.125 -39.225 1.125
1.125 -39.225 2.175
3.525 -33.975 0.975
3.525 -33.975 -0.075
3.525 -33.975 0.825
3.525 -33.975 0.075
3.525 -33.975 0.225
5.175 -35.625 0.975
-0.225 -35.625 0.375
5.175 -37.725 3.075
-0.225 -37.725 -1.125
-0.225 -37.725 0.225
3.075 -33.825 -0.075
1.875 -39.525 1.575
0.075 -38.325 0.975
0.075 -38.325 0.075
0.075 -38.325 0.675
0.075 -38.325 1.275
0.075 -38.325 2.025
3.225 -33.825 -0.225
3.225 -33.825 -0.075
3.225 -33.825 0.075
5.325 -37.425 1.575
1.725 -39.525 2.625
3.675 -33.975 -0.225
3.675 -33.975 1.275
3.675 -33.975 0.375
-0.225 -35.475 0.675
-0.225 -35.475 5.475
-0.225 -35.475 0.825
1.275 -39.375 2.325
3.975 -34.125 0.225
-0.075 -38.175 0.975
-0.075 -38.175 1.125
-0.075 -35.175 0.525
0.975 -39.225 1.875
0.975 -39.225 2.175
0.975 -39.225 2.025
4.575 -34.575 -0.075
4.575 -34.575 -0.225
0.375 -38.775 1.875
4.725 -34.725 1.125
0.525 -38.925 1.875
4.725 -38.625 0.075
0.225 -38.625 0.675
0.225 -38.625 0.225
0.225 -38.625 0.525
3.375 -33.825 0.975
3.375 -33.825 0.075
3.375 -33.825 -0.075
3.375 -33.825 0.675
1.575 -39.525 2.925
1.575 -39.525 1.425
3.375 -39.525 1.275
5.475 -36.675 -0.525
2.475 -33.675 -0.225
2.475 -39.675 2.475
2.475 -39.675 2.775
0.075 -38.475 0.975
0.675 -39.075 2.175
0.675 -39.075 0.525
0.675 -39.075 2.025
0.675 -39.075 1.875
2.325 -33.675 -0.975
-0.525 -36.825 0.975
2.325 -39.675 1.125
2.325 -39.675 2.325
2.325 -39.675 2.175
2.175 -39.675 0.975
2.775 -39.675 1.125
2.775 -39.675 0.825
2.175 -39.675 2.025
-0.525 -36.975 0.975
5.175 -35.325 1.275
-0.225 -35.325 -2.175
-0.225 -38.025 2.475
1.125 -39.375 1.575
1.125 -39.375 1.725
2.025 -33.675 2.025
2.025 -33.675 2.325
2.925 -39.675 0.225
2.925 -39.675 1.425
2.025 -39.675 1.875
-0.525 -37.125 2.625
1.425 -33.825 -1.425
3.525 -33.825 -0.075
3.525 -33.825 1.275
3.525 -33.825 1.875
3.525 -33.825 1.425
-0.075 -35.025 -0.825
3.525 -39.525 -2.175
-0.375 -37.725 -0.375
1.425 -39.525 2.475
1.425 -39.525 1.575
-0.075 -38.325 0.975
-0.075 -38.325 2.325
-0.075 -38.325 1.425
-0.075 -38.325 1.875
3.075 -33.675 0.075
4.575 -38.925 -0.375
4.575 -38.925 1.725
4.575 -38.925 -0.225
0.375 -38.925 1.875
0.225 -38.775 2.025
0.225 -38.775 0.225
0.225 -38.775 2.775
3.975 -33.975 -0.225
3.975 -33.975 0.075
-0.225 -38.175 0.975
-0.225 -38.175 1.275
-0.225 -38.175 1.425
-0.225 -38.175 1.125
0.975 -39.375 2.175
0.975 -39.375 -2.475
3.675 -33.825 1.125
0.075 -34.725 3.075
-0.375 -35.475 0.825
0.525 -34.275 0.225
5.475 -37.425 1.575
3.225 -33.675 2.925
3.225 -33.675 0.075
1.275 -39.525 2.025
0.075 -38.625 1.125
0.075 -38.625 0.225
4.425 -39.075 0.375
0.525 -39.075 0.075
0.525 -39.075 -0.975
4.275 -34.125 -0.675
0.675 -34.125 0.525
5.025 -34.875 -0.075
-0.075 -38.475 1.125
-0.075 -38.475 2.325
-0.075 -38.475 2.175
-0.075 -38.475 2.025
0.675 -39.225 1.875
0.675 -39.225 0.525
-0.525 -35.775 0.975
1.575 -33.675 -1.425
3.375 -33.675 1.275
3.375 -33.675 1.125
3.375 -33.675 -0.075
2.475 -33.525 -0.225
2.475 -33.525 0.375
-0.675 -36.675 6.075
2.475 -39.825 1.125
3.825 -33.825 0.975
2.625 -33.525 2.025
-0.675 -36.525 -4.575
5.325 -38.025 0.525
5.325 -38.025 0.375
1.125 -39.525 1.875
1.125 -39.525 2.025
1.125 -39.525 2.175
3.825 -39.525 1.125
2.625 -39.825 0.975
2.625 -39.825 1.575
4.125 -33.975 -0.375
0.825 -33.975 0.525
0.825 -33.975 0.675
2.175 -33.525 1.575
-0.675 -36.975 1.125
0.825 -39.375 1.575
0.825 -39.375 1.875
5.175 -38.325 0.825
-0.225 -38.325 1.875
-0.225 -38.325 1.125
-0.225 -38.325 1.425
-0.225 -38.325 1.575
-0.225 -38.325 0.975
2.175 -39.825 2.175
1.425 -33.675 -1.425
1.425 -39.675 1.125
2.025 -33.525 3.375
0.225 -38.925 1.125
-0.675 -37.125 1.125
-0.675 -37.125 0.375
2.925 -39.825 0.225
2.025 -39.825 1.875
2.925 -39.825 1.275
2.925 -39.825 0.975
0.375 -34.275 0.225
-0.675 -37.275 0.375
3.075 -39.825 1.425
1.875 -39.825 2.325
-0.075 -34.725 -0.075
0.525 -34.125 0.225
0.525 -39.225 2.325
0.525 -39.225 2.025
3.975 -33.825 0.675
3.975 -33.825 0.075
3.975 -33.825 1.125
0.975 -33.825 -2.925
-0.375 -38.175 -3.675
5.325 -38.175 0.825
0.975 -39.525 3.075
3.975 -39.525 1.125
0.975 -39.525 1.875
0.975 -39.525 1.725
-0.525 -35.475 0.825
1.275 -39.675 1.725
1.275 -39.675 1.425
3.225 -33.525 0.075
3.225 -33.525 2.925
4.275 -33.975 -0.675
4.275 -33.975 -0.075
-0.225 -34.875 -0.375
5.175 -38.475 1.125
0.675 -39.375 -0.525
0.675 -39.375 0.375
0.675 -39.375 0.975
0.675 -39.375 0.825
0.675 -39.375 1.725
-0.225 -38.475 -0.225
-0.225 -38.475 1.425
-0.225 -38.475 1.275
-0.225 -38.475 2.475
3.375 -33.525 -3.525
1.575 -39.825 1.575
4.725 -34.275 0.675
4.725 -34.275 -0.225
4.875 -34.425 1.275
3.825 -33.675 0.525
0.075 -34.425 2.025
4.125 -33.825 -0.375
0.825 -33.825 0.375
0.825 -33.825 0.675
0.825 -39.525 0.375
0.825 -39.525 1.725
0.825 -39.525 1.875
0.825 -39.525 0.975
-0.375 -38.325 0.075
-0.375 -38.325 -0.075
-0.375 -38.325 1.275
-0.375 -38.325 2.025
2.325 -33.375 -0.225
2.325 -33.375 0.225
2.625 -33.375 0.375
-0.825 -36.825 1.125
5.025 -38.775 0.975
0.375 -39.225 0.375
0.375 -39.225 0.825
2.625 -39.975 1.875
2.625 -39.975 1.575
2.175 -33.375 1.575
-0.825 -36.975 -0.225
-0.825 -36.975 1.575
-0.825 -36.975 0.375
2.175 -39.975 3.525
2.775 -39.975 1.875
3.525 -33.525 -3.525
5.625 -35.625 3.975
5.625 -35.625 0.975
-0.225 -34.725 0.825
-0.825 -36.225 1.125
-0.825 -37.125 0.975
-0.825 -37.125 1.575
-0.825 -37.125 0.375
-0.825 -37.125 -0.225
-0.225 -38.625 -0.225
-0.225 -38.625 -0.525
-0.225 -38.625 2.025
-0.225 -38.625 -3.375
2.925 -39.975 1.875
2.025 -39.975 2.325
2.025 -39.975 3.675
-0.525 -35.175 2.775
3.975 -33.675 0.075
0.975 -39.675 0.975
1.875 -39.975 2.775
-0.375 -34.875 3.075
0.675 -39.525 1.725
0.675 -39.525 0.975
0.675 -39.525 2.475
-0.375 -38.475 1.575
-0.375 -38.475 0.975
-0.375 -38.475 0.375
-0.375 -38.475 0.825
-0.825 -35.925 0.525
3.225 -39.975 1.725
0.075 -39.075 0.075
4.725 -34.125 -0.675
0.225 -34.125 0.675
-0.075 -38.925 -0.375
0.225 -39.225 0.975
0.375 -33.975 0.075
0.375 -33.975 1.725
0.375 -33.975 0.675
0.375 -33.975 0.975
1.575 -33.375 -1.425
3.375 -33.375 1.725
-0.825 -35.775 0.675
-0.225 -38.775 1.125
-0.225 -38.775 2.325
-0.225 -38.775 -2.175
-0.225 -38.775 -1.575
-0.225 -38.775 -2.025
0.375 -39.375 1.725
1.575 -39.975 1.575
1.575 -39.975 2.925
0.825 -33.675 0.525
4.125 -33.675 -0.825
0.825 -39.675 1.575
0.825 -39.675 2.025
-0.525 -38.325 1.275
1.125 -39.825 2.325
1.125 -39.825 1.125
1.125 -39.825 3.225
2.475 -33.225 -0.075
-0.975 -36.675 1.125
0.525 -33.825 0.525
2.325 -33.225 -0.225
-0.975 -36.525 3.375
-0.975 -36.825 0.225
0.525 -39.525 0.975
-0.375 -38.625 1.425
2.325 -40.125 1.425
2.625 -40.125 1.725
2.175 -33.225 1.425
3.525 -33.375 0.075
-0.825 -35.625 0.525
-0.825 -35.625 0.675
-0.825 -35.625 1.275
5.775 -35.625 0.075
5.775 -35.625 3.975
-0.975 -36.375 1.125
-0.975 -36.975 2.025
2.175 -40.125 2.475
2.175 -40.125 3.075
2.775 -40.125 1.875
2.925 -33.225 1.875
2.925 -40.125 0.675
2.025 -40.125 2.475
-0.675 -38.175 2.325
-0.675 -35.175 -0.975
0.675 -39.675 0.975
0.675 -39.675 1.425
5.475 -38.475 0.825
-0.525 -38.475 1.275
5.025 -34.275 -0.375
0.075 -39.225 1.725
0.075 -39.225 2.325
0.075 -39.225 0.825
-0.075 -39.075 1.425
-0.075 -39.075 2.325
-0.825 -35.475 1.425
-0.825 -35.475 0.825
-0.825 -35.475 0.975
1.275 -39.975 2.475
1.275 -39.975 2.175
4.725 -33.975 3.075
4.725 -33.975 1.425
0.225 -33.975 0.675
5.175 -38.925 0.675
5.175 -34.425 -0.525
-0.225 -38.925 1.725
0.225 -39.375 2.325
1.725 -33.225 0.525
3.225 -33.225 2.175
-0.975 -35.925 1.275
-0.975 -37.425 -0.375
-0.975 -35.925 1.725
0.375 -33.825 0.675
0.375 -33.825 0.525
-0.375 -34.575 0.225
-0.375 -38.775 -0.375
0.375 -39.525 0.675
-0.675 -38.325 0.825
0.825 -39.825 0.975
0.825 -39.825 2.325
0.825 -39.825 2.175
1.575 -33.225 -1.575
1.575 -33.225 -1.425
1.575 -33.225 -1.875
-0.825 -35.325 0.525
5.925 -35.775 0.225
-0.975 -35.775 0.675
-0.975 -35.775 1.575
-0.975 -37.575 5.475
1.575 -40.125 1.125
1.575 -40.125 2.325
1.125 -39.975 2.325
0.525 -39.675 1.275
-0.525 -38.625 0.075
-0.525 -38.625 -0.525
-0.525 -38.625 1.125
2.325 -33.075 -0.225
2.325 -33.075 1.275
-1.125 -36.825 0.075
-1.125 -36.825 2.325
1.425 -33.225 2.625
1.425 -33.225 -1.875
1.425 -33.225 -0.075
5.925 -35.625 2.025
-0.975 -35.625 0.525
4.875 -33.975 -1.275
5.175 -34.275 -1.425
-0.225 -34.275 0.075
0.075 -39.375 -3.375
-0.225 -39.075 2.475
-0.225 -39.075 2.325
-0.225 -39.075 1.275
0.975 -39.975 2.325
0.975 -39.975 2.175
2.925 -33.075 1.875
2.025 -33.075 1.275
-1.125 -37.125 1.275
5.625 -38.475 0.675
-0.675 -38.475 1.125
-0.675 -38.475 0.825
0.675 -39.825 0.525
0.225 -33.825 2.025
0.225 -33.825 0.675
-0.375 -38.925 1.875
-0.375 -38.925 1.575
-0.375 -38.925 2.925
5.325 -34.425 0.525
0.225 -39.525 2.175
0.225 -39.525 -0.675
1.875 -40.275 2.175
-0.975 -35.475 1.875
-0.525 -34.575 1.125
-0.525 -34.575 0.525
0.375 -33.675 2.025
0.375 -33.675 1.875
-1.125 -35.925 1.275
1.725 -40.275 -3.225
5.775 -35.025 -0.675
0.825 -39.975 2.175
5.925 -35.325 0.825
5.625 -34.725 0.675
5.625 -38.625 2.625
5.625 -38.625 0.825
-0.675 -38.625 2.625
-0.675 -38.625 0.675
1.125 -40.125 2.325
0.525 -39.825 -1.275
0.525 -39.825 -1.425
1.575 -40.275 2.475
-0.225 -34.125 0.075
-0.075 -39.375 0.975
-0.075 -39.375 1.875
-0.225 -39.225 -1.875
4.875 -33.825 -0.075
0.075 -33.825 -0.225
-0.375 -39.075 -0.375
-0.375 -39.075 2.325
1.425 -33.075 -0.525
2.475 -32.925 -0.375
-0.525 -38.925 1.725
0.225 -39.675 2.175
5.775 -38.475 1.575
0.675 -39.975 1.725
4.275 -39.975 1.875
-1.275 -36.375 -0.075
-1.275 -36.375 2.025
0.975 -40.125 0.975
2.025 -32.925 1.125
2.925 -40.425 2.475
0.375 -33.525 0.525
4.575 -33.525 -0.525
-0.675 -38.775 -1.575
0.375 -39.825 0.225
3.675 -33.075 -3.225
6.075 -35.475 2.475
1.875 -40.425 2.025
3.075 -40.425 3.375
-1.275 -37.275 0.525
-0.225 -33.975 0.075
-0.225 -39.375 1.875
-0.225 -39.375 0.975
-0.225 -39.375 0.825
-0.075 -33.825 0.225
-1.275 -35.925 2.175
1.725 -40.425 2.175
-0.975 -38.325 1.275
4.425 -33.375 0.075
-0.825 -38.625 1.275
-0.825 -38.625 2.325
5.775 -38.625 2.025
0.525 -39.975 0.375
4.875 -33.675 -0.075
0.075 -39.675 1.425
-0.525 -39.075 0.375
1.125 -40.275 1.575
6.225 -37.575 0.075
-0.675 -38.925 0.525
0.675 -33.225 1.725
0.675 -33.225 0.375
4.275 -33.225 0.825
4.275 -33.225 0.375
-0.975 -38.475 1.125
-0.975 -38.475 -1.425
0.675 -40.125 1.425
0.675 -40.125 -1.725
0.675 -40.125 0.975
0.675 -40.125 2.625
1.425 -32.925 -0.525
1.425 -40.425 2.175
1.425 -40.425 2.475
0.975 -33.075 0.375
0.975 -33.075 0.525
6.075 -35.175 0.675
6.075 -38.175 0.075
0.975 -40.275 0.975
2.475 -40.575 1.575
2.325 -32.775 0.075
2.625 -32.775 -0.225
2.325 -32.775 -0.225
0.375 -33.375 1.125
6.375 -36.975 1.575
-0.825 -38.775 0.525
2.775 -40.575 -3.375
-0.225 -33.825 0.075
-0.225 -33.825 0.225
5.325 -33.975 -0.825
-1.425 -37.125 0.825
-0.225 -39.525 0.975
-0.375 -39.375 0.825
1.275 -40.425 1.575
1.275 -40.425 1.425
6.225 -37.875 0.825
-1.425 -37.275 2.775
-1.425 -37.275 3.225
1.875 -40.575 2.475
4.125 -33.075 -2.925
4.875 -33.525 0.075
0.825 -40.275 0.225
0.825 -40.275 0.975
0.825 -40.275 2.625
-1.125 -38.325 1.875
4.425 -33.225 -0.375
-0.975 -38.625 2.325
-0.975 -38.625 0.975
4.425 -40.125 1.875
1.725 -32.775 0.525
3.225 -32.775 1.275
6.375 -35.925 2.175
-1.425 -37.425 0.525
1.725 -40.575 2.175
1.125 -32.925 -0.375
1.125 -32.925 0.975
1.125 -40.425 1.425
1.125 -40.425 1.575
-1.275 -38.025 1.275
4.725 -33.375 -0.225
-0.825 -38.925 0.675
-1.425 -35.775 -0.375
6.375 -37.575 2.325
3.375 -40.575 1.425
1.575 -40.575 2.625
1.575 -40.575 2.325
0.675 -33.075 1.725
0.675 -33.075 0.975
0.675 -33.075 0.825
-1.125 -38.475 2.325
5.325 -33.825 2.925
-0.375 -39.525 0.975
-0.375 -39.525 1.125
-0.525 -33.975 0.075
-0.225 -33.675 0.075
-0.225 -39.675 -1.425
-0.225 -39.675 1.425
0.375 -33.225 0.525
-0.975 -34.575 1.275
1.425 -32.775 -2.925
0.975 -40.425 1.125
0.975 -40.425 1.275
0.975 -40.425 0.975
0.975 -40.425 1.425
4.575 -40.125 2.925
1.425 -40.575 2.475
2.475 -32.625 -0.225
2.475 -40.725 1.575
2.325 -32.625 -0.225
-0.675 -39.225 0.525
2.325 -40.725 0.825
2.625 -40.725 0.675
2.775 -32.625 -1.875
-1.575 -36.375 0.825
6.525 -36.975 1.575
2.775 -40.725 0.525
2.925 -40.725 0.675
6.375 -37.875 0.375
-1.425 -37.875 1.575
-1.425 -37.875 1.725
-0.825 -39.075 1.725
1.275 -40.575 0.525
1.275 -40.575 1.725
4.425 -33.075 0.525
0.525 -33.075 0.375
0.525 -40.275 0.525
-1.125 -38.625 2.475
1.875 -40.725 2.475
3.075 -40.725 1.575
0.825 -40.425 0.225
1.725 -32.625 0.225
-1.575 -37.425 0.075
-1.575 -37.425 1.875
-0.975 -34.425 -3.675
0.225 -40.125 -0.825
4.725 -40.125 2.325
1.725 -40.725 1.875
6.375 -38.025 0.525
1.125 -40.575 1.575
1.125 -40.575 0.975
1.125 -40.575 1.275
-0.375 -39.675 1.125
-0.375 -33.675 0.675
3.375 -32.625 0.825
1.575 -32.625 0.225
-0.675 -33.975 0.525
-1.575 -37.575 0.375
6.525 -37.575 0.825
-0.675 -39.375 0.675
-0.675 -39.375 -2.175
1.575 -40.725 2.325
1.575 -40.725 1.875
-0.225 -39.825 1.875
0.675 -32.925 1.125
0.675 -40.425 2.475
-1.125 -38.775 0.225
0.375 -40.275 0.375
0.375 -40.275 -1.425
4.575 -40.275 2.925
5.775 -34.125 1.575
-0.825 -39.225 1.275
3.525 -32.625 -1.575
3.525 -32.625 1.275
3.525 -32.625 0.525
1.425 -32.625 -1.125
-1.575 -37.725 0.225
6.525 -37.725 0.525
3.525 -40.725 0.825
1.425 -40.725 1.725
1.425 -40.725 1.575
2.625 -32.475 -0.225
0.075 -40.125 -1.125
-0.975 -39.075 1.425
-1.725 -36.375 0.075
2.775 -40.875 0.075
3.675 -32.625 0.075
3.675 -32.625 0.825
1.275 -32.625 5.325
6.525 -37.875 0.525
3.675 -40.725 2.325
1.275 -40.725 1.575
1.275 -40.725 1.425
4.425 -32.925 0.525
0.525 -32.925 0.375
0.525 -40.425 0.525
0.525 -40.425 0.675
0.825 -40.575 1.425
-1.725 -36.075 1.125
6.675 -37.275 0.075
-0.525 -39.675 1.125
-0.525 -39.675 0.975
-0.525 -33.675 0.075
-1.725 -37.275 0.675
1.875 -40.875 -2.325
4.725 -33.075 -4.125
-1.125 -38.925 2.025
0.225 -40.275 -1.275
0.225 -40.275 0.375
-0.675 -33.825 1.275
-0.375 -33.525 -3.075
-0.675 -39.525 0.525
5.625 -39.525 0.075
-0.375 -39.825 1.725
-0.375 -39.825 -3.975
-0.375 -39.825 1.125
-0.375 -39.825 1.275
-0.825 -39.375 1.425
-0.825 -39.375 2.025
-0.225 -39.975 1.125
-0.225 -39.975 1.575
-1.725 -35.925 1.275
1.725 -40.875 1.875
3.825 -32.625 0.075
1.125 -40.725 1.275
1.125 -40.725 1.575
1.125 -40.725 4.125
5.925 -34.125 -1.275
-0.975 -34.125 1.275
-0.975 -34.125 0.975
-0.975 -39.225 -3.075
-0.975 -39.225 -0.825
3.375 -32.475 0.525
1.575 -32.475 -1.125
-1.725 -37.575 1.725
-1.725 -37.575 2.025
3.375 -40.875 1.425
3.375 -40.875 1.725
0.375 -32.925 0.375
0.375 -40.425 0.375
-1.125 -34.275 0.525
0.075 -40.275 -1.875
-1.125 -39.075 2.025
3.525 -32.475 0.525
1.425 -32.475 2.175
-1.725 -37.725 3.525
1.425 -40.875 0.825
1.425 -40.875 0.675
1.425 -40.875 1.725
2.475 -32.325 -0.225
-0.675 -39.675 0.825
2.325 -32.325 0.975
2.625 -41.025 2.325
2.325 -41.025 1.275
2.175 -32.325 0.975
5.325 -33.375 -0.825
-0.825 -39.525 1.425
-0.825 -39.525 0.825
-0.825 -39.525 1.275
-1.425 -38.625 0.975
-0.375 -39.975 0.975
-0.375 -39.975 1.125
0.525 -40.575 0.525
0.525 -40.575 -0.525
0.525 -40.575 1.275
3.675 -32.475 -0.225
3.675 -32.475 1.125
3.675 -40.875 1.275
1.275 -40.875 1.425
4.125 -32.625 0.225
4.125 -32.625 0.375
0.825 -32.625 0.375
0.225 -32.925 -0.075
0.225 -40.425 2.625
2.925 -41.025 1.575
2.925 -41.025 2.175
2.925 -41.025 0.225
-1.575 -38.325 0.225
0.825 -40.725 0.825
5.925 -33.975 0.675
-0.975 -39.375 -2.325
-1.875 -37.275 -2.175
3.075 -41.025 2.025
-0.075 -33.075 0.825
-0.075 -33.075 0.675
3.825 -32.475 0.375
3.825 -32.475 0.675
3.825 -32.475 -0.075
1.125 -32.475 -6.075
6.075 -34.125 -0.225
-1.125 -34.125 0.525
6.675 -38.025 0.525
-0.075 -40.275 1.725
-1.125 -39.225 2.025
1.125 -40.875 1.575
1.125 -40.875 0.825
3.225 -32.325 0.375
1.725 -32.325 -1.125
-1.875 -37.425 0.975
1.725 -41.025 1.575
3.225 -41.025 1.575
3.225 -41.025 2.325
4.575 -32.775 0.225
-1.425 -38.775 0.975
0.375 -40.575 0.375
0.675 -32.625 1.275
-1.575 -38.475 0.825
3.375 -32.325 0.375
3.375 -32.325 0.525
3.375 -32.325 1.275
-1.875 -37.575 0.225
3.375 -41.025 1.875
1.575 -41.025 1.125
-1.275 -34.275 1.425
0.075 -32.925 0.675
0.075 -40.425 1.125
6.225 -39.075 0.375
-0.675 -39.825 1.125
-0.675 -39.825 -1.725
3.975 -32.475 -0.075
3.975 -32.475 1.125
0.975 -32.475 0.375
0.975 -32.475 0.075
-0.825 -39.675 1.125
-0.825 -39.675 2.625
-0.825 -39.675 0.675
0.975 -40.875 0.825
-0.525 -39.975 1.125
3.525 -32.325 0.225
-0.975 -33.825 0.825
-0.375 -33.225 2.325
-1.875 -37.725 1.875
-0.975 -39.525 1.425
3.525 -41.025 0.975
4.425 -32.625 -0.075
0.525 -32.625 -0.075
0.525 -32.625 0.525
-1.575 -38.625 -1.875
0.525 -40.725 2.325
0.525 -40.725 0.525
2.475 -32.175 0.225
2.475 -32.175 -0.225
2.475 -41.175 0.975
2.475 -41.175 3.225
-0.225 -40.275 1.575
-1.125 -39.375 1.725
0.225 -32.775 0.525
2.625 -32.175 0.375
2.625 -32.175 -0.225
0.225 -40.575 2.475
2.175 -32.175 1.125
3.675 -32.325 0.225
3.675 -32.325 0.075
1.275 -32.325 -2.025
1.275 -32.325 2.175
4.125 -32.475 0.225
0.825 -32.475 0.825
0.825 -32.475 0.975
-1.875 -37.875 -0.075
3.675 -41.025 2.025
3.675 -41.025 1.425
1.275 -41.025 0.975
4.125 -40.875 3.525
6.975 -36.225 -1.575
2.025 -41.175 3.825
-2.025 -37.125 2.925
6.225 -34.125 0.075
-0.075 -40.425 -3.075
-0.075 -40.425 1.425
-0.075 -40.425 2.025
-0.075 -40.425 -3.225
3.075 -32.175 0.825
3.075 -41.175 2.475
3.825 -32.325 -0.075
3.825 -32.325 0.225
1.125 -41.025 1.425
3.825 -41.025 2.025
3.825 -41.025 2.475
0.375 -32.625 0.525
0.375 -32.625 -0.075
3.225 -32.175 0.225
3.225 -41.175 0.675
1.725 -32.175 0.375
5.625 -39.975 2.625
-0.675 -39.975 0.675
0.375 -40.725 -1.275
0.375 -40.725 0.525
0.375 -40.725 0.375
-0.825 -39.825 0.675
4.275 -32.475 0.675
0.675 -32.475 0.525
4.275 -32.475 -0.075
0.675 -32.475 0.675
6.675 -34.875 1.575
-1.725 -38.475 0.825
-1.725 -38.475 1.125
0.675 -40.875 0.675
-0.975 -39.675 2.925
-0.525 -40.125 -0.525
-0.525 -40.125 -1.575
0.075 -32.775 0.075
3.375 -32.175 0.225
3.375 -41.175 1.425
1.575 -41.175 4.125
-2.025 -35.775 -4.425
6.975 -35.775 -2.325
-2.025 -37.575 0.525
6.075 -33.825 0.375
-1.125 -39.525 1.725
-1.125 -39.525 1.575
0.975 -32.325 2.325
0.975 -32.325 2.175
3.975 -32.325 0.075
3.975 -32.325 0.225
0.975 -41.025 0.675
3.525 -32.175 0.225
-0.225 -32.925 -0.225
3.525 -41.175 1.725
3.525 -41.175 1.275
1.425 -41.175 2.925
3.525 -32.175 0.675
-1.275 -39.375 -0.525
-1.275 -39.375 1.725
4.425 -32.475 0.675
-1.725 -34.725 1.125
0.525 -40.875 0.375
0.225 -40.725 2.175
2.475 -32.025 -0.225
0.825 -32.325 0.525
0.825 -32.325 2.625
4.125 -32.325 -0.225
2.325 -32.025 -0.825
0.825 -41.025 2.775
0.825 -41.025 0.675
3.675 -32.175 -0.075
3.675 -41.175 1.425
1.275 -41.175 0.975
-2.025 -37.875 0.375
-2.025 -37.875 -0.975
2.175 -32.025 1.575
2.175 -32.025 1.275
-0.075 -32.775 0.675
2.175 -41.325 2.025
2.175 -41.325 2.925
-0.825 -39.975 0.825
-0.825 -39.975 1.575
-0.825 -39.975 0.525
-0.825 -39.975 2.775
-0.825 -39.975 -1.875
-0.675 -40.125 -0.975
-0.675 -40.125 -0.675
-0.675 -40.125 0.825
-0.975 -39.825 0.825
-0.525 -33.075 1.575
-1.125 -39.675 -2.025
-0.525 -40.275 -3.075
1.875 -32.025 -1.125
1.875 -41.325 1.875
6.675 -38.775 0.525
-1.725 -38.775 1.425
-1.725 -38.775 0.225
0.375 -40.875 0.075
0.375 -40.875 1.875
0.375 -40.875 0.525
3.825 -32.175 1.725
1.125 -41.175 0.825
1.125 -41.175 0.375
1.125 -32.175 2.175
1.125 -32.175 -0.675
-2.025 -38.025 2.625
0.675 -32.325 0.675
0.675 -32.325 1.425
0.675 -32.325 1.575
0.675 -32.325 0.525
0.675 -32.325 -0.075
0.075 -32.625 0.225
0.675 -41.025 0.525
0.675 -41.025 1.875
-1.575 -39.075 1.725
6.225 -33.825 0.225
1.725 -32.025 0.225
6.225 -39.525 -0.225
-0.375 -40.425 0.225
1.725 -41.325 1.875
1.725 -41.325 1.575
1.575 -32.025 -0.825
1.575 -41.325 1.725
1.575 -41.325 2.925
1.575 -41.325 2.625
-0.225 -32.775 0.375
-0.225 -32.775 1.125
-0.225 -32.775 0.225
0.975 -32.175 2.025
3.975 -32.175 0.075
3.975 -32.175 1.875
3.975 -32.175 2.475
-0.225 -40.575 0.375
-0.225 -40.575 1.875
0.225 -32.475 -0.075
0.225 -32.475 4.425
0.525 -32.325 0.225
0.525 -32.325 0.525
3.525 -32.025 -2.475
0.525 -41.025 -0.375
0.525 -41.025 0.375
3.525 -41.325 0.525
1.425 -41.325 0.675
-0.825 -40.125 0.825
-0.825 -40.125 0.375
-0.825 -40.125 1.575
-0.975 -39.975 0.525
-0.975 -39.975 0.675
-0.975 -39.975 0.825
-0.675 -40.275 0.375
-0.675 -40.275 0.675
-0.675 -40.275 -0.825
-0.675 -40.275 1.425
-1.125 -39.825 1.725
-0.075 -32.625 0.225
-0.075 -32.625 0.375
-1.575 -39.225 -0.225
-0.075 -40.725 0.675
-0.075 -40.725 0.225
0.825 -32.175 0.075
0.825 -32.175 0.225
0.825 -41.175 2.925
0.825 -41.175 0.675
0.825 -41.175 2.775
0.825 -32.175 0.525
2.475 -31.875 1.125
3.675 -32.025 2.475
1.275 -32.025 2.325
5.475 -32.925 -1.725
-1.275 -33.675 1.125
3.675 -41.325 1.425
1.275 -41.325 0.825
2.175 -31.875 0.975
-2.325 -36.975 -0.225
2.175 -41.475 2.775
-2.325 -37.125 3.975
2.025 -41.475 -0.675
2.025 -41.475 3.225
2.025 -41.475 1.575
-1.425 -33.825 0.225
-0.375 -32.775 1.275
-1.425 -39.525 1.425
0.375 -41.025 0.375
-0.375 -40.575 0.225
-0.375 -40.575 -3.225
0.075 -32.475 0.375
0.075 -32.475 -0.075
-1.725 -39.075 1.575
1.125 -32.025 2.175
1.125 -41.325 0.825
1.125 -41.325 1.275
0.675 -32.175 0.675
0.675 -32.175 -0.075
0.675 -41.175 0.525
0.675 -41.175 0.825
3.225 -31.875 -1.275
-2.325 -37.425 -2.325
1.725 -41.475 0.525
1.725 -41.475 1.725
-0.225 -32.625 -1.275
-0.225 -32.625 1.275
-0.225 -32.625 0.675
-0.825 -40.275 -0.375
-0.825 -40.275 -0.525
5.775 -40.275 -1.725
-1.125 -39.975 2.025
1.575 -41.475 1.425
1.575 -41.475 -1.275
0.975 -32.025 -1.575
3.975 -32.025 -0.225
3.975 -32.025 2.475
-2.175 -38.175 0.075
-2.175 -38.175 1.575
0.225 -32.325 0.375
4.725 -32.325 -2.025
-0.675 -40.425 1.425
-0.675 -40.425 1.275
-0.675 -40.425 0.675
-0.675 -40.425 1.875
-1.275 -39.825 1.425
-1.275 -39.825 0.675
4.425 -32.175 -1.125
-2.025 -38.625 0.675
-2.325 -35.625 1.875
-2.325 -37.725 0.375
7.275 -37.725 1.575
-0.075 -40.875 0.225
-0.075 -40.875 3.825
1.425 -41.475 0.825
1.425 -41.475 0.675
1.425 -41.475 2.325
1.425 -41.475 0.075
-0.525 -32.775 1.425
-1.425 -33.675 -2.475
-0.525 -40.575 -1.275
0.825 -32.025 0.375
0.825 -41.325 2.925
0.825 -41.325 2.775
0.825 -41.325 0.675
1.275 -31.875 -1.275
1.275 -41.475 0.225
2.475 -31.725 -0.075
2.625 -31.725 -0.225
-0.375 -32.625 0.525
2.325 -41.625 2.775
-0.375 -40.725 0.375
-0.375 -40.725 1.275
2.175 -31.725 0.975
2.775 -31.725 0.975
-2.475 -36.975 2.925
0.375 -32.175 0.525
0.375 -41.175 0.975
-2.025 -38.775 1.275
0.075 -32.325 -0.225
4.875 -32.325 -0.525
2.025 -31.725 -5.625
1.125 -31.875 -0.525
7.425 -36.075 0.525
-2.475 -37.275 -1.425
3.825 -41.475 1.275
-0.225 -32.475 0.675
-0.225 -32.475 1.575
5.175 -32.475 -2.775
-0.825 -40.425 1.425
-0.825 -40.425 0.825
-0.825 -40.425 0.525
-0.825 -40.425 2.175
-1.275 -39.975 2.025
1.725 -41.625 3.225
-0.675 -40.575 1.125
-0.675 -40.575 1.275
-0.675 -40.575 0.975
0.975 -31.875 0.075
-2.325 -38.175 1.275
0.975 -41.475 2.175
1.575 -31.725 -1.125
0.225 -41.175 -0.375
-2.025 -34.425 0.825
3.375 -41.625 1.275
-0.525 -32.625 0.825
-2.175 -38.625 1.125
1.425 -31.725 2.325
1.425 -31.725 2.475
1.425 -41.625 2.925
6.675 -33.825 0.675
-0.375 -32.475 1.575
-0.375 -32.475 0.675
-0.375 -32.475 1.275
-1.725 -33.825 1.275
-1.725 -33.825 1.425
4.125 -31.875 0.075
4.125 -31.875 0.225
-0.375 -40.875 1.575
-0.375 -40.875 1.425
0.825 -41.475 0.225
0.825 -41.475 0.675
-1.125 -40.275 0.975
3.675 -31.725 2.325
1.275 -31.725 -1.125
-2.475 -35.475 2.175
3.675 -41.625 1.125
3.675 -41.625 0.975
-0.975 -40.425 -2.475
-1.275 -40.125 1.875
2.475 -31.575 1.425
2.475 -31.575 -0.075
0.075 -41.175 2.025
2.475 -41.775 1.875
-2.025 -39.075 -1.275
-2.025 -39.075 1.725
2.625 -31.575 1.425
2.325 -31.575 1.425
2.625 -31.575 1.575
2.625 -31.575 0.225
-2.175 -38.775 1.425
2.325 -41.775 1.575
2.325 -41.775 0.525
0.375 -41.325 2.775
2.775 -31.575 0.825
2.175 -31.575 0.975
2.775 -31.575 -0.075
-0.825 -32.775 0.825
-1.425 -39.975 -1.725
-0.825 -40.575 -0.975
-0.225 -32.325 0.825
-0.225 -32.325 0.675
-0.225 -32.325 -0.075
-1.875 -33.975 1.275
-1.875 -33.975 1.575
2.025 -31.575 2.475
2.025 -31.575 2.175
-1.875 -39.375 1.125
-1.875 -39.375 3.825
-1.875 -39.375 1.425
-2.325 -34.875 3.975
7.275 -34.875 2.325
4.275 -41.475 3.075
1.125 -31.725 -1.275
3.825 -31.725 3.525
-0.675 -32.625 1.425
-0.675 -32.625 1.275
1.125 -41.625 0.375
-0.675 -40.725 1.125
1.875 -31.575 0.975
1.875 -31.575 1.275
3.075 -41.775 -2.625
1.875 -41.775 1.575
1.725 -31.575 -0.975
1.725 -31.575 1.425
3.225 -31.575 -0.975
-0.525 -32.475 1.425
-0.525 -40.875 0.525
-2.175 -38.925 0.975
-0.075 -32.175 -0.075
-0.075 -32.175 1.275
-0.075 -32.175 1.425
-0.075 -41.175 1.575
-0.075 -41.175 1.725
0.975 -41.625 3.975
-2.625 -37.575 2.925
3.375 -41.775 0.975
3.375 -41.775 1.275
3.375 -41.775 3.225
-1.275 -33.075 0.375
-1.125 -40.425 0.075
-1.875 -39.525 1.125
-0.375 -41.025 1.575
3.525 -41.775 1.275
3.525 -41.775 1.125
-1.425 -40.125 0.375
4.125 -31.725 0.075
0.825 -31.725 0.075
4.125 -31.725 -2.625
5.775 -32.625 -1.425
-0.825 -40.725 1.425
0.075 -32.025 1.275
0.075 -32.025 0.975
2.475 -31.425 -0.075
2.475 -41.925 0.525
-0.675 -40.875 1.125
2.625 -31.425 1.425
2.325 -41.925 0.675
2.625 -41.925 1.425
2.325 -41.925 1.725
2.175 -31.425 1.275
2.175 -31.425 1.125
2.175 -41.925 3.375
1.125 -31.575 0.525
1.125 -31.575 2.475
1.125 -31.575 2.925
1.875 -31.425 1.125
1.875 -31.425 -0.975
1.875 -31.425 1.725
1.875 -41.925 0.375
0.225 -31.875 0.825
0.225 -41.475 -3.075
-1.275 -40.425 1.125
-1.275 -40.425 1.575
-2.775 -37.425 1.725
-1.425 -33.075 0.075
-1.125 -40.575 -0.075
0.975 -31.575 2.625
4.425 -31.725 0.075
5.925 -32.625 -1.725
-0.975 -40.725 6.675
-0.975 -40.725 0.075
-0.975 -40.725 1.125
1.575 -41.925 3.075
1.575 -41.925 0.825
-0.375 -41.175 1.575
-0.825 -40.875 1.425
1.425 -31.425 1.275
3.525 -41.925 1.425
0.825 -31.575 2.325
4.125 -31.575 0.075
4.875 -31.875 -0.525
0.075 -31.875 2.175
0.075 -41.475 1.575
0.075 -41.475 1.425
-2.175 -39.375 1.425
-2.175 -39.375 2.325
3.675 -31.425 3.075
3.675 -31.425 -0.675
3.675 -41.925 1.275
1.275 -41.925 0.825
1.275 -41.925 2.025
2.625 -31.275 1.275
-2.925 -36.525 0.225
-1.275 -32.775 0.375
-1.425 -40.425 1.575
2.925 -31.275 -1.275
2.025 -42.075 0.525
2.025 -42.075 1.125
2.925 -42.075 1.425
2.925 -42.075 0.075
1.125 -41.925 0.225
