# .PCD v0.7 - Point Cloud Data file format
VERSION 0.7
FIELDS x y z
SIZE 4 4 4
TYPE F F F
COUNT 1 1 1
WIDTH 2048
HEIGHT 1
VIEWPOINT 0 0 0 1 0 0 0
POINTS 2048
DATA ascii
-25.275 -0.375 0.675
-25.125 -0.375 -1.125
-25.125 -0.375 1.725
-24.975 -0.375 1.125
-24.975 -0.375 1.875
-25.275 -0.075 -4.125
-25.575 -0.375 2.025
-24.975 -0.525 -0.525
-24.975 -0.525 1.875
-24.975 -0.525 -0.075
-24.975 -0.225 1.425
-25.125 -0.075 5.175
-25.125 -0.675 -0.675
-25.125 -0.675 -0.375
-25.575 -0.225 1.725
-25.425 -0.075 1.725
-24.975 -0.075 -3.525
-24.975 -0.675 -0.975
-24.975 -0.675 -0.075
-24.975 -0.675 2.025
-25.575 -0.075 1.575
-25.575 -0.675 -0.525
-25.575 -0.075 -0.825
-25.575 -0.675 1.425
-25.575 -0.675 1.725
-24.825 -0.375 5.475
-25.275 -0.825 -0.825
-25.275 0.075 -3.975
-25.275 0.075 4.125
-24.825 -0.225 1.875
-24.825 -0.225 5.325
-24.825 -0.525 -0.825
-24.825 -0.525 0.975
-25.125 -0.825 -0.975
-25.725 -0.225 -0.525
-25.725 -0.225 -0.975
-25.725 -0.225 0.375
-25.725 -0.525 1.725
-25.725 -0.525 0.225
-24.975 0.075 1.275
-24.825 -0.075 2.925
-24.825 -0.075 1.875
-24.825 -0.075 0.075
-24.825 -0.675 -1.275
-25.575 -0.825 1.275
-25.575 0.075 1.275
-25.725 -0.075 0.375
-25.725 -0.675 1.725
-25.725 -0.675 1.575
-24.675 -0.375 3.525
-25.875 -0.375 0.225
-25.875 -0.375 1.575
-24.675 -0.225 -0.075
-24.675 -0.525 3.225
-24.675 -0.525 0.525
-25.125 -0.975 3.075
-25.425 0.225 1.875
-25.425 -0.975 -0.825
-25.425 0.225 2.025
-25.875 -0.525 -0.825
-25.875 -0.225 0.675
-25.875 -0.525 -0.525
-25.875 -0.525 0.075
-25.875 -0.225 0.225
-24.825 -0.825 -2.925
-24.825 -0.825 1.125
-24.825 0.075 5.475
-25.725 0.075 0.375
-24.675 -0.075 -0.525
-24.975 0.225 2.175
-24.975 0.225 -0.525
-24.975 0.225 1.725
-25.575 0.225 0.525
-25.875 -0.675 0.225
-25.875 -0.075 0.225
-25.875 -0.675 0.675
-25.875 -0.675 1.875
-25.875 -0.075 -0.225
-25.875 -0.675 0.075
-24.675 -0.825 1.575
-24.675 0.075 -0.675
-24.825 0.225 1.575
-26.025 -0.375 1.125
-24.525 -0.375 -1.275
-25.275 0.375 2.325
-25.275 -1.125 -0.375
-24.525 -0.375 0.675
-25.275 0.375 0.825
-26.025 -0.375 1.875
-26.025 -0.375 -0.825
-25.275 0.375 1.575
-24.525 -0.375 0.375
-26.025 -0.375 0.075
-25.875 -0.825 2.925
-25.875 -0.825 0.075
-25.875 -0.825 1.425
-25.875 0.075 -0.525
-25.875 0.075 0.825
-25.875 0.075 0.225
-25.875 0.075 1.875
-25.725 0.225 0.225
-25.725 -0.975 2.325
-25.725 -0.975 1.875
-25.725 0.225 0.525
-25.125 0.375 3.525
-25.125 0.375 2.025
-24.525 -0.225 0.375
-26.025 -0.225 1.125
-26.025 -0.225 -1.575
-24.525 -0.525 -0.525
-24.525 -0.225 1.275
-24.525 -0.525 3.525
-26.025 -0.525 1.275
-26.025 -0.225 1.875
-26.025 -0.225 0.075
-24.525 -0.525 -2.025
-26.025 -0.225 -4.125
-26.025 -0.525 -0.225
-24.525 -0.525 0.675
-24.525 -0.225 -2.475
-25.425 -1.125 2.625
-25.425 -1.125 -0.825
-25.425 -1.125 2.175
-26.025 -0.075 0.225
-24.525 -0.075 -3.975
-26.025 -0.075 0.075
-26.025 -0.075 -0.225
-24.525 -0.075 1.875
-26.025 -0.675 0.525
-26.025 -0.675 2.025
-26.025 -0.675 1.275
-26.025 -0.675 -0.225
-26.025 -0.675 -0.075
-25.575 0.375 0.525
-25.575 -1.125 3.375
-24.675 -0.975 1.575
-25.875 -0.975 -4.125
-25.875 -0.975 2.025
-25.875 -0.975 -0.075
-25.875 -0.975 2.925
-25.875 -0.975 -0.675
-25.875 0.225 0.375
-24.525 -0.825 1.425
-26.025 -0.825 -0.075
-24.525 -0.825 2.925
-26.025 -0.825 1.275
-26.025 -0.825 0.375
-26.025 -0.825 1.425
-24.525 0.075 0.075
-26.025 0.075 -3.075
-26.025 0.075 0.375
-26.025 0.075 -0.525
-26.025 0.075 3.075
-25.725 0.375 0.225
-25.725 0.375 0.525
-25.725 -1.125 -0.975
-25.275 -1.275 -3.375
-25.275 -1.275 -0.225
-25.275 0.525 0.825
-25.275 0.525 -5.175
-26.175 -0.375 1.275
-26.175 -0.375 0.075
-24.375 -0.525 1.125
-24.375 -0.525 1.575
-24.375 -0.525 3.975
-24.375 -0.225 -4.425
-24.375 -0.225 0.375
-24.375 -0.525 1.725
-24.375 -0.225 -0.825
-24.375 -0.525 -4.275
-24.375 -0.225 -0.075
-24.375 -0.525 -0.525
-25.125 0.525 1.875
-25.425 -1.275 -1.425
-25.425 -1.275 -0.825
-25.425 -1.275 -4.875
-25.425 -1.275 -1.275
-25.425 0.525 1.875
-25.425 0.525 0.825
-25.425 0.525 0.975
-26.175 -0.225 1.425
-26.175 -0.525 1.275
-26.175 -0.525 0.075
-26.175 -0.525 1.125
-26.175 -0.225 1.725
-26.175 -0.525 0.375
-24.375 -0.075 -0.075
-24.375 -0.675 0.375
-24.375 -0.675 -4.575
-24.375 -0.675 3.375
-24.375 -0.675 0.225
-24.375 -0.675 1.275
-24.375 -0.675 0.525
-24.375 -0.675 -0.075
-24.375 -0.675 2.775
-25.575 0.525 0.525
-25.575 0.525 2.175
-26.175 -0.075 2.625
-26.175 -0.075 -0.375
-26.175 -0.075 0.525
-26.175 -0.075 -0.075
-26.175 -0.075 1.275
-26.175 -0.675 -0.075
-26.175 -0.675 -0.375
-26.175 -0.675 3.825
-26.175 -0.675 1.275
-24.675 -1.125 2.775
-24.675 0.375 0.525
-24.675 0.375 1.725
-26.025 -0.975 1.425
-26.025 -0.975 1.275
-26.025 -0.975 -0.075
-24.525 0.225 0.525
-25.875 0.375 0.225
-25.875 0.375 0.375
-25.875 -1.125 2.325
-25.875 0.375 1.875
-25.875 -1.125 1.875
-25.875 -1.125 2.475
-25.875 -1.125 2.625
-24.375 -0.825 -0.525
-24.375 0.075 0.075
-24.375 0.075 1.875
-25.725 -1.275 2.175
-25.725 -1.275 1.875
-25.725 0.525 0.975
-25.725 0.525 -0.075
-25.725 0.525 0.225
-25.725 0.525 -0.225
-25.725 0.525 0.525
-26.175 0.075 -0.225
-26.175 0.075 -0.375
-26.175 -0.825 1.725
-26.175 0.075 0.225
-26.175 -0.825 0.075
-26.175 -0.825 -0.075
-26.175 -0.825 -0.825
-26.175 0.075 -0.075
-26.175 -0.825 1.125
-24.225 -0.375 2.325
-25.275 -1.425 -0.975
-25.275 -1.425 -0.375
-26.325 -0.375 1.875
-26.325 -0.375 0.075
-26.325 -0.375 1.575
-26.325 -0.375 1.425
-24.225 -0.525 0.225
-25.125 0.675 -0.525
-25.125 -1.425 -0.675
-25.125 0.675 -0.825
-25.125 -1.425 1.425
-25.125 -1.425 -0.525
-25.125 0.675 -0.975
-26.025 0.375 1.725
-26.025 -1.125 -0.075
-24.525 -1.125 1.875
-26.025 -1.125 1.275
-24.525 -1.125 0.225
-24.525 -1.125 1.575
-24.525 0.375 1.125
-26.025 -1.125 1.575
-24.525 0.375 -0.225
-26.025 -1.125 1.725
-24.525 0.375 0.525
-25.425 -1.425 -1.575
-25.425 0.675 0.825
-26.325 -0.225 1.875
-26.325 -0.225 1.125
-26.325 -0.225 1.725
-24.375 0.225 0.375
-24.375 0.225 0.675
-24.375 0.225 0.525
-24.375 0.225 1.275
-24.375 -0.975 3.675
-24.375 -0.975 -0.525
-24.675 0.525 0.525
-24.675 0.525 1.125
-24.675 0.525 0.825
-25.875 -1.275 2.475
-25.875 -1.275 2.025
-25.875 -1.275 1.425
-25.875 -1.275 2.325
-25.875 -1.275 1.875
-25.875 0.525 5.025
-26.175 -0.975 2.175
-26.175 -0.975 1.875
-26.175 0.225 1.125
-26.175 -0.975 -0.075
-26.175 0.225 -0.075
-26.175 -0.975 0.075
-26.175 0.225 1.575
-24.225 -0.675 0.075
-24.225 -0.675 0.825
-24.225 -0.075 -0.075
-24.225 -0.675 -0.075
-24.225 -0.675 -5.025
-24.975 0.675 0.525
-24.975 0.675 0.675
-24.975 0.675 1.575
-24.975 -1.425 0.225
-24.975 -1.425 -2.925
-25.575 0.675 0.525
-25.575 0.675 -1.425
-25.575 -1.425 1.875
-25.575 0.675 -2.025
-25.575 -1.425 -1.275
-25.575 0.675 -1.275
-25.575 -1.425 2.325
-26.325 -0.075 1.875
-26.325 -0.075 -3.825
-26.325 -0.075 1.425
-26.325 -0.075 -0.675
-26.325 -0.675 -2.625
-24.225 0.075 -1.425
-24.225 -0.825 0.225
-24.825 0.675 1.275
-24.825 -1.425 0.825
-24.825 0.675 1.125
-24.825 0.675 0.375
-26.325 0.075 1.275
-26.325 0.075 -0.075
-26.325 0.075 -0.825
-26.325 0.075 0.975
-25.725 -1.425 0.225
-25.725 0.675 -0.075
-25.725 0.675 -2.475
-25.725 0.675 0.975
-25.725 -1.425 2.025
-24.375 -1.125 -0.075
-24.375 -1.125 0.825
-24.375 0.375 0.375
-24.375 -1.125 -4.575
-24.375 -1.125 1.275
-24.375 0.375 0.525
-26.025 -1.275 1.725
-26.025 -1.275 2.475
-26.025 -1.275 2.625
-26.025 -1.275 0.975
-26.025 -1.275 -0.225
-26.025 -1.275 2.925
-26.025 -1.275 1.575
-24.525 -1.275 0.675
-24.525 -1.275 1.875
-26.025 -1.275 1.275
-26.025 -1.275 1.125
-24.525 0.525 0.525
-24.525 0.525 0.075
-26.175 -1.125 0.075
-26.175 0.375 -0.075
-26.175 -1.125 -3.675
-26.175 -1.125 0.225
-26.175 -1.125 0.525
-24.075 -0.375 1.425
-24.075 -0.375 0.075
-25.275 0.825 -0.825
-26.475 -0.375 2.475
-26.475 -0.375 -1.725
-26.475 -0.375 -1.875
-26.475 -0.375 2.325
-24.225 0.225 -0.225
-24.225 -0.975 0.975
-24.225 -0.975 0.675
-24.225 -0.975 0.375
-24.675 -1.425 3.375
-24.675 0.675 -2.625
-24.675 0.675 -2.775
-24.675 0.675 -0.075
-24.675 0.675 -1.575
-24.075 -0.525 -0.225
-24.075 -0.225 -3.525
-24.075 -0.525 -0.525
-25.125 -1.575 -0.525
-25.125 0.825 -0.075
-25.125 0.825 -0.975
-25.125 -1.575 1.425
-25.125 -1.575 2.925
-25.125 -1.575 2.775
-25.125 -1.575 1.275
-25.425 0.825 0.525
-25.425 -1.575 -1.575
-25.425 -1.575 0.075
-25.425 0.825 -1.725
-26.325 -0.975 1.725
-26.325 0.225 -0.825
-26.325 -0.975 1.425
-26.325 0.225 1.125
-25.875 -1.425 2.025
-25.875 -1.425 1.875
-25.875 -1.425 2.775
-25.875 -1.425 -2.025
-26.475 -0.225 1.725
-26.475 -0.525 2.475
-26.475 -0.525 2.325
-26.475 -0.525 1.875
-26.475 -0.525 0.525
-26.475 -0.525 1.575
-26.475 -0.225 2.175
-26.475 -0.525 -1.575
-26.475 -0.225 2.025
-24.975 0.825 -1.125
-24.975 0.825 0.075
-24.975 0.825 0.975
-24.975 -1.575 -2.475
-24.975 -1.575 -0.675
-24.075 -0.675 -2.325
-24.075 -0.075 -4.275
-24.075 -0.075 0.075
-25.575 0.825 0.675
-25.575 -1.575 0.375
-26.475 -0.075 2.025
-26.475 -0.675 2.175
-26.475 -0.075 1.575
-26.475 -0.675 0.525
-26.475 -0.675 1.425
-26.475 -0.675 1.125
-26.475 -0.675 1.575
-26.475 -0.075 0.975
-26.475 -0.075 -0.525
-24.375 -1.275 -0.075
-24.375 -1.275 0.075
-24.375 0.525 0.225
-24.375 0.525 0.375
-24.375 0.525 0.975
-24.375 0.525 0.525
-26.175 -1.275 -0.075
-26.175 -1.275 -0.225
-26.175 0.525 -5.475
-26.175 0.525 -0.525
-24.075 -0.825 -0.225
-24.075 -0.825 2.925
-24.075 -0.825 0.075
-24.075 0.075 6.075
-24.075 0.075 -0.525
-24.075 0.075 -1.575
-24.825 0.825 1.425
-24.825 -1.575 1.275
-24.825 -1.575 0.225
-24.825 -1.575 -2.475
-25.725 -1.575 0.075
-25.725 -1.575 2.175
-25.725 -1.575 2.925
-25.725 -1.575 2.025
-25.725 0.825 0.525
-26.475 -0.825 1.725
-26.475 -0.825 -4.275
-26.475 0.075 1.875
-26.475 -0.825 1.875
-26.475 -0.825 2.775
-26.475 -0.825 0.675
-26.475 0.075 1.725
-24.225 -1.125 0.075
-24.225 -1.125 0.675
-24.225 -1.125 0.375
-24.225 0.375 -1.425
-24.225 0.375 -0.375
-24.225 0.375 -0.525
-24.225 -1.125 -0.825
-24.225 0.375 0.525
-26.025 -1.425 2.625
-26.025 -1.425 1.575
-26.025 -1.425 1.425
-26.025 -1.425 0.225
-26.025 -1.425 1.275
-26.025 -1.425 -0.075
-24.525 0.675 0.375
-26.025 0.675 -0.825
-24.525 -1.425 -0.225
-24.525 -1.425 1.275
-24.525 -1.425 0.675
-24.525 -1.425 2.775
-24.525 -1.425 -0.525
-26.025 0.675 -0.075
-26.025 0.675 0.225
-24.525 0.675 -2.475
-24.525 0.675 -3.975
-24.525 0.675 0.525
-26.025 -1.425 2.475
-26.325 0.375 -2.925
-26.325 0.375 1.125
-26.325 0.375 0.825
-26.325 0.375 2.175
-26.325 -1.125 2.475
-26.325 -1.125 0.675
-26.325 -1.125 0.075
-24.675 -1.575 -1.275
-24.675 0.825 0.525
-24.675 0.825 1.725
-24.075 0.225 -0.225
-24.075 0.225 2.025
-25.875 -1.575 2.775
-25.875 -1.575 1.875
-25.875 0.825 1.725
-26.475 0.225 0.825
-26.475 -0.975 1.875
-26.475 -0.975 1.575
-26.475 -0.975 2.025
-26.475 -0.975 2.775
-26.475 -0.975 0.075
-26.475 0.225 1.725
-23.925 -0.375 -0.675
-23.925 -0.375 -1.125
-23.925 -0.375 1.425
-23.925 -0.375 -0.525
-25.275 0.975 0.525
-25.275 -1.725 2.775
-26.625 -0.375 1.875
-26.625 -0.375 -2.475
-26.625 -0.375 2.025
-26.625 -0.375 1.275
-23.925 -0.525 -0.375
-23.925 -0.225 -0.825
-25.125 0.975 -1.275
-25.125 0.975 1.425
-25.125 -1.725 -2.475
-25.125 -1.725 1.275
-25.125 -1.725 0.675
-25.425 -1.725 1.875
-25.425 0.975 4.125
-25.425 0.975 0.675
-25.425 -1.725 2.325
-25.425 -1.725 -0.075
-26.625 -0.225 1.575
-26.625 -0.225 1.725
-26.625 -0.525 0.825
-26.625 -0.525 -2.325
-26.625 -0.525 -3.375
-26.625 -0.525 -3.675
-26.625 -0.525 -1.575
-24.225 0.525 0.225
-24.225 0.525 -0.075
-24.225 0.525 -0.375
-24.225 0.525 0.375
-23.925 -0.675 2.175
-23.925 -0.075 0.825
-24.375 -1.425 -0.675
-24.375 -1.425 0.975
-24.375 0.675 1.275
-24.375 0.675 0.375
-24.375 0.675 0.675
-24.375 0.675 0.525
-24.975 0.975 -2.025
-24.975 0.975 1.725
-24.975 0.975 -0.825
-24.975 0.975 1.125
-24.975 -1.725 -0.375
-24.975 -1.725 -1.725
-24.975 0.975 1.425
-25.575 0.975 2.175
-25.575 0.975 0.525
-25.575 -1.725 0.225
-25.575 -1.725 3.075
-25.575 -1.725 -1.125
-26.325 -1.275 0.975
-26.325 -1.275 2.775
-26.325 -1.275 0.225
-26.325 -1.275 0.525
-26.325 -1.275 0.075
-26.175 -1.425 -0.225
-26.175 -1.425 -0.075
-26.175 -1.425 2.775
-26.625 -0.675 0.675
-26.175 -1.425 2.475
-26.625 -0.675 1.275
-26.625 -0.075 2.025
-26.175 -1.425 1.425
-26.175 -1.425 2.625
-26.175 -1.425 1.575
-26.625 -0.675 0.825
-26.175 -1.425 1.875
-26.625 -0.075 1.425
-26.625 -0.675 -0.825
-26.175 0.675 -0.975
-26.175 -1.425 0.675
-24.075 0.375 -0.525
-24.075 -1.125 -0.675
-24.075 -1.125 -0.225
-24.525 -1.575 1.275
-26.025 0.825 -0.225
-26.025 0.825 2.175
-26.025 -1.575 1.425
-26.025 0.825 0.375
-26.025 0.825 1.575
-26.025 -1.575 1.575
-24.525 0.825 -0.675
-26.475 -1.125 -0.075
-26.475 0.375 2.325
-26.475 0.375 0.975
-26.475 0.375 0.375
-26.475 -1.125 1.725
-24.825 0.975 -1.125
-24.825 0.975 1.275
-24.825 0.975 -1.425
-24.825 -1.725 -0.075
-25.725 -1.725 0.675
-25.725 -1.725 2.025
-25.725 0.975 -3.075
-26.625 0.075 -1.875
-26.625 -0.825 -1.875
-26.625 -0.825 -1.275
-26.625 -0.825 1.575
-26.625 -0.825 1.125
-26.625 0.075 1.875
-26.625 -0.825 -0.375
-23.925 0.225 0.525
-23.925 -0.975 2.175
-24.675 0.975 1.425
-24.675 0.975 0.375
-24.675 -1.725 0.525
-24.675 -1.725 0.375
-25.875 0.975 1.725
-25.875 0.975 0.075
-26.625 0.225 2.475
-26.625 -0.975 2.475
-26.625 -0.975 0.075
-26.625 -0.975 -3.225
-26.625 -0.975 -0.075
-26.625 -0.975 1.125
-26.625 -0.975 -2.475
-26.625 -0.975 2.325
-26.625 -0.975 1.875
-26.625 -0.975 1.725
-26.625 -0.975 -0.525
-26.625 -0.975 0.225
-24.225 -1.425 -0.825
-24.225 0.675 1.125
-24.225 0.675 0.375
-24.225 0.675 -0.375
-24.225 0.675 0.525
-24.225 -1.425 0.225
-26.325 0.675 1.425
-26.325 0.675 1.875
-26.325 -1.425 -0.075
-26.325 -1.425 0.225
-24.375 0.825 1.275
-24.375 0.825 0.675
-24.375 0.825 1.725
-24.375 0.825 1.125
-24.375 0.825 0.375
-24.375 -1.575 -0.825
-24.375 -1.575 1.275
-24.375 -1.575 -0.225
-24.075 -1.275 -3.675
-24.075 -1.275 0.675
-24.075 0.525 -0.675
-24.075 0.525 2.025
-25.275 1.125 0.975
-23.775 -0.375 0.075
-25.275 1.125 0.675
-23.775 -0.375 -0.375
-26.775 -0.375 -4.125
-26.775 -0.375 2.175
-26.775 -0.375 -1.725
-26.775 -0.375 -2.025
-25.275 -1.875 2.775
-26.775 -0.375 2.325
-25.275 -1.875 1.425
-25.275 -1.875 -0.075
-26.175 0.825 1.425
-26.175 0.825 -0.525
-26.175 -1.575 1.425
-26.175 -1.575 -0.075
-26.475 -1.275 2.475
-26.475 -1.275 1.575
-26.475 -1.275 0.825
-26.475 0.525 0.525
-26.475 0.525 6.225
-26.475 0.525 -0.075
-25.125 1.125 0.525
-26.775 -0.225 -1.725
-23.775 -0.525 1.725
-23.775 -0.525 2.175
-23.775 -0.525 -0.525
-26.775 -0.225 2.175
-23.775 -0.525 -0.225
-26.775 -0.225 2.025
-26.775 -0.225 1.875
-26.775 -0.525 -0.525
-26.775 -0.225 1.575
-26.775 -0.525 -1.575
-23.775 -0.225 0.225
-26.775 -0.525 2.775
-25.425 -1.875 0.225
-25.425 1.125 -1.875
-25.425 1.125 0.225
-25.425 1.125 2.175
-25.425 1.125 0.675
-25.425 1.125 -1.425
-25.425 -1.875 -2.475
-25.425 -1.875 1.725
-25.425 -1.875 3.225
-24.975 -1.875 2.625
-24.975 -1.875 0.675
-24.975 -1.875 1.575
-26.775 -0.075 1.125
-26.775 -0.075 1.725
-23.775 -0.675 2.025
-26.775 -0.075 1.875
-26.775 -0.675 1.575
-26.775 -0.675 2.775
-26.775 -0.675 -2.025
-26.775 -0.675 0.675
-25.575 1.125 0.975
-25.575 1.125 0.525
-25.575 -1.875 2.175
-25.575 -1.875 1.725
-25.575 -1.875 1.575
-25.575 -1.875 2.025
-25.575 -1.875 3.375
-23.925 0.375 0.075
-23.925 -1.125 0.525
-24.525 0.975 1.275
-24.525 0.975 0.525
-24.525 0.975 0.675
-24.525 0.975 1.425
-26.025 0.975 0.525
-24.525 -1.725 1.275
-24.525 -1.725 -1.125
-24.525 -1.725 0.525
-24.525 -1.725 -0.225
-26.025 -1.725 4.725
-26.025 -1.725 1.575
-26.625 0.375 0.225
-26.625 -1.125 1.725
-26.625 -1.125 -0.225
-26.625 -1.125 -0.825
-26.625 -1.125 -2.925
-26.625 -1.125 0.075
-26.625 -1.125 1.875
-24.825 1.125 1.125
-24.825 1.125 0.675
-24.825 -1.875 -0.075
-24.825 -1.875 0.975
-24.825 -1.875 2.175
-23.775 -0.825 -0.825
-23.775 -0.825 1.875
-26.775 0.075 1.575
-26.775 0.075 1.275
-26.775 0.075 -0.075
-26.775 0.075 1.875
-26.775 0.075 1.725
-26.775 0.075 1.125
-26.775 -0.825 1.725
-26.775 -0.825 -1.125
-26.775 -0.825 0.975
-23.775 0.075 0.075
-25.725 -1.875 1.875
-24.225 0.825 0.375
-24.225 0.825 -0.375
-24.225 0.825 0.675
-24.225 0.825 1.125
-24.225 -1.575 1.575
-24.225 -1.575 -0.525
-24.075 0.675 0.225
-24.075 0.675 0.375
-24.075 -1.425 -0.375
-26.325 -1.575 -0.225
-26.325 -1.575 0.225
-26.325 -1.575 -0.075
-26.325 -1.575 0.375
-26.325 -1.575 2.175
-26.325 0.825 2.625
-26.325 -1.575 -2.625
-26.475 -1.425 1.725
-26.475 -1.425 -1.425
-26.475 -1.425 -1.275
-26.475 0.675 0.525
-24.675 1.125 0.975
-24.675 1.125 1.125
-24.675 1.125 0.525
-24.675 -1.875 0.375
-24.675 -1.875 0.525
-24.675 -1.875 0.225
-24.675 -1.875 -0.975
-24.675 -1.875 0.075
-23.775 -0.975 2.925
-23.775 -0.975 2.325
-23.775 0.225 -0.825
-23.775 0.225 -0.375
-26.775 0.225 0.075
-26.775 -0.975 1.125
-25.875 1.125 0.675
-23.925 -1.275 2.025
-23.925 0.525 -0.375
-23.925 0.525 -0.075
-23.925 0.525 -0.525
-24.375 0.975 0.975
-24.375 0.975 0.375
-24.375 0.975 -3.225
-24.375 -1.725 0.075
-24.375 -1.725 2.475
-24.375 -1.725 0.225
-26.175 0.975 -0.075
-26.175 0.975 2.775
-26.625 -1.275 0.075
-26.625 0.525 2.175
-26.625 0.525 2.625
-26.625 0.525 2.025
-26.625 0.525 3.975
-26.625 0.525 -0.975
-26.625 0.525 0.975
-26.175 -1.725 2.775
-26.175 -1.725 2.025
-26.625 -1.275 1.725
-25.275 1.275 1.275
-25.275 -2.025 0.525
-25.275 -2.025 2.175
-26.925 -0.375 -0.075
-26.925 -0.375 1.125
-26.925 -0.375 -0.525
-26.925 -0.375 0.375
-23.625 -0.525 0.525
-23.625 -0.225 -0.825
-25.125 1.275 -1.425
-25.125 -2.025 0.225
-25.125 -2.025 2.775
-25.125 1.275 -0.375
-25.425 -2.025 2.625
-25.425 1.275 0.675
-25.425 1.275 0.525
-26.925 -0.225 1.725
-26.925 -0.225 -0.675
-26.925 -0.525 -1.725
-26.925 -0.525 1.725
-26.925 -0.525 1.875
-26.925 -0.525 -0.075
-26.925 -0.225 -0.825
-26.925 -0.225 2.025
-23.625 -0.675 -0.975
-23.625 -0.675 -0.825
-23.625 -0.075 0.075
-24.975 -2.025 0.825
-24.975 -2.025 0.525
-24.975 1.275 0.675
-24.525 -1.875 1.275
-23.775 -1.125 0.525
-24.525 -1.875 -0.075
-24.525 -1.875 0.525
-26.775 0.375 0.825
-26.775 0.375 0.225
-26.775 0.375 1.875
-26.775 0.375 -0.975
-26.775 0.375 2.175
-24.525 -1.875 0.975
-24.525 -1.875 1.875
-26.025 1.125 -0.375
-24.525 -1.875 -0.975
-24.525 -1.875 0.225
-23.775 0.375 -0.675
-25.575 1.275 1.125
-25.575 1.275 -0.225
-25.575 -2.025 -0.825
-24.525 -1.875 -0.375
-25.575 -2.025 2.475
-24.525 -1.875 0.675
-26.775 -1.125 -0.075
-25.575 1.275 1.275
-24.525 1.125 0.825
-26.925 -0.675 0.225
-26.925 -0.075 -0.675
-26.925 -0.075 5.475
-26.925 -0.075 0.675
-24.075 -1.575 -0.525
-24.075 -1.575 -0.375
-24.075 0.825 0.225
-24.075 0.825 0.375
-24.075 0.825 3.225
-24.075 -1.575 2.625
-26.475 0.825 -0.075
-26.475 -1.575 1.725
-26.475 -1.575 0.225
-24.225 0.975 0.525
-24.225 0.975 0.375
-24.225 0.975 1.125
-23.925 -1.425 0.375
-23.925 -1.425 -0.375
-23.925 -1.425 3.225
-24.225 -1.725 -0.225
-23.925 0.675 -0.075
-23.925 0.675 0.225
-23.625 -0.825 1.575
-24.825 1.275 0.825
-24.825 -2.025 0.225
-24.825 -2.025 -0.675
-24.825 1.275 1.125
-24.825 -2.025 -0.525
-26.325 0.975 0.075
-26.325 -1.725 -0.075
-25.725 -2.025 -1.275
-25.725 1.275 2.175
-26.625 0.675 0.675
-26.625 0.675 0.525
-26.625 0.675 0.975
-26.625 -1.425 -0.525
-26.625 -1.425 1.725
-26.625 -1.425 2.025
-26.625 -1.425 0.075
-26.925 -0.825 0.525
-26.925 0.075 0.375
-26.925 0.075 -0.675
-26.925 0.075 -0.525
-26.925 -0.825 -0.825
-26.925 -0.825 1.275
-26.925 -0.825 2.775
-24.375 -1.875 -1.275
-24.375 1.125 0.525
-24.375 -1.875 3.075
-24.375 -1.875 -0.825
-24.375 -1.875 0.225
-24.375 -1.875 -3.825
-24.375 1.125 0.675
-24.375 -1.875 -0.075
-26.775 -1.275 2.475
-26.775 -1.275 -0.525
-26.775 -1.275 -0.375
-26.775 -1.275 1.875
-26.775 0.525 0.375
-23.775 0.525 0.075
-26.775 0.525 -0.675
-26.775 0.525 2.175
-26.775 0.525 0.825
-26.775 0.525 0.975
-26.775 0.525 2.325
-26.775 0.525 1.875
-26.775 0.525 1.125
-26.175 1.125 -0.225
-26.175 1.125 -0.075
-23.625 -0.975 2.775
-24.675 -2.025 0.075
-24.675 -2.025 -0.375
-24.675 -2.025 0.525
-24.675 1.275 2.325
-24.675 1.275 0.975
-24.675 -2.025 -0.075
-25.875 1.275 -0.525
-25.875 1.275 0.075
-25.875 -2.025 1.725
-25.875 -2.025 1.875
-26.925 -0.975 0.075
-26.925 -0.975 -1.875
-26.925 -0.975 -0.825
-26.925 0.225 0.075
-26.925 -0.975 3.075
-26.925 0.225 -0.375
-26.925 0.225 -0.675
-26.925 0.225 1.725
-23.475 -0.375 1.725
-25.275 -2.175 2.175
-25.275 -2.175 0.225
-25.275 -2.175 -3.525
-25.275 -2.175 1.275
-25.275 -2.175 1.575
-25.275 -2.175 2.625
-25.275 1.425 0.675
-27.075 -0.375 3.975
-27.075 -0.375 -4.725
-27.075 -0.375 1.875
-23.475 -0.525 -1.425
-23.475 -0.525 0.825
-23.925 -1.575 0.375
-23.925 -1.575 -4.125
-23.925 0.825 0.975
-24.075 0.975 0.225
-24.075 -1.725 0.525
-25.125 -2.175 1.575
-25.125 -2.175 -0.375
-25.125 -2.175 2.175
-25.125 -2.175 1.125
-25.125 1.425 -0.225
-25.425 -2.175 -2.325
-25.425 -2.175 -0.975
-25.425 -2.175 2.475
-25.425 1.425 0.675
-25.425 1.425 1.425
-27.075 -0.525 0.675
-27.075 -0.225 -0.825
-27.075 -0.225 4.275
-27.075 -0.225 -0.075
-27.075 -0.525 1.275
-27.075 -0.525 -1.725
-27.075 -0.525 1.425
-27.075 -0.525 -0.675
-27.075 -0.525 -0.375
-27.075 -0.525 1.575
-26.625 -1.575 -0.225
-26.625 -1.575 1.725
-26.625 -1.575 2.175
-26.625 0.825 1.125
-26.475 -1.725 -1.875
-23.625 -1.125 -3.975
-23.625 -1.125 0.075
-26.025 1.275 -0.075
-26.025 1.275 -0.225
-24.525 1.275 2.175
-24.525 -2.025 1.425
-24.525 -2.025 1.875
-24.525 -2.025 0.675
-24.525 -2.025 0.525
-24.525 -2.025 0.825
-24.525 -2.025 -0.075
-24.525 -2.025 0.225
-26.925 -1.125 -2.025
-26.925 -1.125 0.675
-26.925 -1.125 -0.075
-26.925 -1.125 -0.375
-26.925 0.375 0.375
-26.925 0.375 1.125
-26.925 0.375 2.175
-26.925 0.375 -0.375
-26.925 0.375 2.025
-23.475 -0.075 -0.075
-24.975 -2.175 1.575
-24.975 1.425 -0.375
-24.975 1.425 0.525
-24.975 1.425 0.075
-25.575 -2.175 -2.475
-25.575 1.425 0.525
-25.575 1.425 0.975
-27.075 -0.675 -1.125
-27.075 -0.675 1.725
-27.075 -0.075 2.475
-27.075 -0.075 -0.975
-27.075 -0.075 -0.375
-27.075 -0.075 -0.225
-27.075 -0.075 -0.525
-24.225 -1.875 2.925
-24.225 1.125 0.375
-24.225 -1.875 -0.075
-24.225 -1.875 0.525
-24.225 -1.875 -0.975
-26.775 -1.425 1.125
-26.775 -1.425 0.075
-26.775 -1.425 -2.025
-23.775 -1.425 1.725
-23.775 -1.425 0.375
-23.775 -1.425 -0.075
-26.775 -1.425 -0.525
-26.775 0.675 1.125
-26.775 0.675 2.175
-26.775 0.675 0.825
-26.775 0.675 -1.575
-26.775 0.675 -0.675
-26.775 0.675 1.425
-26.775 0.675 0.975
-23.775 0.675 0.375
-26.775 -1.425 1.725
-26.775 -1.425 -0.225
-26.325 -1.875 -0.075
-26.325 -1.875 -0.975
-26.325 1.125 1.875
-26.325 -1.875 0.225
-23.475 0.075 -0.075
-23.475 -0.825 2.025
-24.825 -2.175 -0.375
-24.825 1.425 0.525
-24.825 1.425 -3.525
-25.725 -2.175 1.875
-25.725 -2.175 -0.975
-27.075 -0.825 -0.825
-27.075 -0.825 -1.575
-27.075 0.075 -0.075
-27.075 0.075 0.825
-27.075 0.075 -0.525
-27.075 0.075 -0.675
-27.075 0.075 0.075
-27.075 0.075 0.225
-23.625 0.525 -2.925
-23.625 0.525 -0.825
-23.625 -1.275 -3.525
-24.375 1.275 0.525
-24.375 -2.025 0.675
-24.375 -2.025 0.975
-24.375 -2.025 0.825
-24.375 -2.025 -0.225
-24.375 -2.025 0.525
-24.375 -2.025 0.375
-24.375 -2.025 0.225
-24.375 -2.025 1.125
-24.375 -2.025 1.275
-24.375 -2.025 1.725
-26.175 -2.025 -1.125
-26.175 -2.025 0.075
-26.175 1.275 0.075
-26.925 -1.275 2.025
-26.925 -1.275 -0.075
-26.925 -1.275 -0.975
-26.925 0.525 1.725
-26.925 0.525 -1.275
-26.925 0.525 0.675
-26.925 0.525 0.375
-26.925 0.525 0.825
-26.925 0.525 -0.375
-26.925 0.525 0.975
-26.925 0.525 1.575
-26.925 0.525 1.875
-26.925 0.525 2.175
-26.925 0.525 -0.225
-26.925 0.525 1.125
-23.475 0.225 -3.075
-24.675 -2.175 2.025
-24.675 -2.175 0.675
-24.675 -2.175 -0.975
-24.675 -2.175 1.725
-24.675 -2.175 0.375
-24.675 -2.175 0.075
-24.675 -2.175 0.825
-25.875 -2.175 1.875
-27.075 -0.975 2.025
-27.075 -0.975 -1.275
-27.075 -0.975 2.925
-27.075 0.225 -0.075
-27.075 0.225 0.075
-23.925 -1.725 0.375
-26.625 0.975 1.125
-26.625 0.975 2.025
-26.625 -1.725 -0.975
-26.625 -1.725 1.575
-26.625 -1.725 -0.675
-24.075 -1.875 -1.875
-24.075 -1.875 0.675
-24.075 1.125 1.275
-24.075 1.125 1.725
-24.075 1.125 0.375
-23.775 -1.575 -2.325
-23.775 -1.575 2.325
-26.775 0.825 0.975
-26.775 0.825 0.375
-26.775 0.825 1.125
-26.775 0.825 0.825
-26.775 0.825 1.275
-26.775 0.825 -1.425
-26.775 -1.575 -1.875
-26.775 -1.575 1.575
-26.775 -1.575 2.475
-26.475 -1.875 -0.225
-26.475 -1.875 -1.425
-26.475 -1.875 0.375
-26.475 -1.875 1.575
-23.475 -1.125 3.075
-23.475 0.375 2.775
-26.025 -2.175 -1.275
-24.525 -2.175 0.375
-24.525 -2.175 0.525
-24.525 -2.175 -0.675
-24.525 -2.175 -0.075
-24.525 -2.175 0.075
-24.525 -2.175 1.125
-25.275 1.575 0.675
-25.275 1.575 1.275
-26.025 1.425 1.425
-25.275 -2.325 1.125
-25.275 -2.325 5.625
-25.275 -2.325 0.225
-25.275 -2.325 2.625
-27.075 0.375 -3.525
-27.075 0.375 1.275
-27.075 0.375 -0.075
-27.075 0.375 1.425
-27.075 0.375 0.525
-27.075 0.375 -0.225
-27.075 0.375 0.675
-27.075 -1.125 0.975
-27.225 -0.375 -1.275
-27.225 -0.375 -3.075
-27.225 -0.375 -2.325
-24.225 -2.025 -1.125
-24.225 -2.025 0.675
-24.225 -2.025 1.425
-24.225 1.275 -1.125
-24.225 1.275 0.525
-23.625 -1.425 -0.075
-23.625 -1.425 -4.125
-23.325 -0.525 1.725
-23.325 -0.225 1.725
-25.125 1.575 1.875
-25.125 1.575 -1.425
-25.125 -2.325 0.225
-25.125 -2.325 2.775
-25.125 -2.325 -0.375
-25.425 1.575 1.125
-25.425 1.575 0.675
-25.425 1.575 0.975
-26.325 -2.025 0.675
-26.325 -2.025 0.225
-26.325 -2.025 -0.075
-26.325 -2.025 0.075
-25.425 -2.325 -2.925
-25.425 -2.325 0.375
-26.925 0.675 -0.675
-26.925 0.675 0.825
-26.925 0.675 -0.525
-26.925 0.675 2.325
-26.925 0.675 1.125
-26.925 0.675 0.975
-26.925 -1.425 -0.375
-26.925 -1.425 2.325
-26.925 -1.425 -0.975
-26.925 -1.425 -0.075
-26.925 -1.425 0.225
-26.925 -1.425 1.575
-26.925 -1.425 2.925
-26.925 -1.425 -0.675
-26.925 0.675 0.525
-27.225 -0.225 -0.675
-27.225 -0.525 -0.225
-27.225 -0.525 -0.675
-27.225 -0.525 1.425
-23.325 -0.075 0.225
-23.325 -0.075 -0.225
-23.325 -0.075 1.725
-24.975 1.575 2.325
-24.975 -2.325 2.175
-24.975 -2.325 0.525
-24.975 -2.325 2.475
-24.975 -2.325 -0.375
-24.975 -2.325 1.575
-25.575 1.575 0.225
-25.575 1.575 0.525
-25.575 -2.325 -0.225
-25.575 -2.325 -0.075
-27.225 -0.075 -0.075
-27.225 -0.075 0.075
-27.225 -0.675 -0.675
-27.225 -0.675 -1.425
-23.325 0.075 1.725
-23.325 -0.825 2.325
-24.825 1.575 -3.375
-24.825 -2.325 0.225
-24.825 -2.325 1.575
-24.825 -2.325 0.375
-24.825 -2.325 -0.075
-24.825 -2.325 0.525
-24.825 -2.325 2.325
-24.825 -2.325 -0.525
-24.825 -2.325 -0.975
-25.725 1.575 0.225
-25.725 -2.325 -0.075
-25.725 -2.325 -0.375
-25.725 -2.325 -0.225
-27.225 0.075 -0.075
-27.225 0.075 -0.225
-27.225 0.075 -0.675
-27.225 0.075 -0.375
-27.225 -0.825 -1.275
-27.225 -0.825 -0.075
-23.475 -1.275 3.225
-23.475 0.525 -3.075
-24.375 -2.175 0.225
-24.375 -2.175 1.125
-24.375 -2.175 -0.825
-24.375 -2.175 1.425
-24.375 -2.175 1.575
-24.375 -2.175 -0.075
-24.375 -2.175 0.825
-24.375 -2.175 1.875
-24.375 -2.175 0.375
-24.375 -2.175 0.525
-27.075 0.525 0.975
-27.075 0.525 1.275
-27.075 0.525 1.125
-27.075 0.525 -1.425
-27.075 0.525 0.825
-27.075 0.525 0.675
-27.075 0.525 1.725
-27.075 0.525 -0.375
-27.075 0.525 -0.075
-27.075 0.525 2.025
-27.075 0.525 -1.275
-27.075 0.525 1.875
-27.075 0.525 -0.675
-27.075 -1.275 -0.975
-27.075 -1.275 1.875
-27.075 -1.275 -1.875
-26.175 -2.175 -0.525
-26.175 -2.175 -1.425
-26.175 -2.175 1.575
-26.175 -2.175 0.075
-26.175 -2.175 2.325
-23.925 1.125 -0.675
-23.925 -1.875 -0.825
-23.925 -1.875 0.075
-26.775 0.975 1.275
-26.775 0.975 1.875
-26.775 0.975 -0.225
-26.775 0.975 1.125
-26.775 0.975 0.975
-23.775 -1.725 2.175
-23.775 -1.725 -5.325
-23.775 -1.725 2.025
-23.775 -1.725 1.125
-23.775 -1.725 -0.525
-26.775 -1.725 -2.925
-26.775 -1.725 -1.125
-26.625 -1.875 -0.975
-26.625 -1.875 1.575
-26.625 -1.875 -1.275
-26.625 -1.875 -1.725
-26.625 -1.875 1.425
-26.625 1.125 -0.375
-24.675 1.575 0.375
-23.325 -0.975 4.275
-23.325 -0.975 2.325
-23.325 0.225 6.525
-24.675 -2.325 1.875
-24.675 -2.325 0.375
-24.675 -2.325 0.975
-24.675 -2.325 -0.525
-24.675 -2.325 -0.075
-24.675 -2.325 1.575
-24.675 -2.325 0.225
-24.675 -2.325 0.075
-24.075 1.275 -0.825
-25.875 1.575 -0.075
-25.875 1.575 -0.225
-25.875 -2.325 2.025
-26.475 -2.025 -0.075
-26.475 -2.025 0.375
-26.925 -1.575 -0.525
-26.925 0.825 0.825
-26.925 0.825 -1.575
-26.925 0.825 1.575
-26.925 0.825 0.675
-26.475 1.275 -5.025
-26.475 1.275 -4.875
-26.475 1.275 1.425
-27.225 0.225 -0.375
-27.225 0.225 -0.225
-27.225 0.225 -0.675
-27.225 0.225 -0.075
-27.225 -0.975 -1.125
-27.225 -0.975 -0.525
-27.225 -0.975 1.125
-27.225 -0.975 0.225
-27.225 -0.975 -0.825
-23.475 -1.425 2.475
-23.475 -1.425 2.175
-23.475 0.675 -1.125
-24.225 -2.175 -4.875
-24.225 -2.175 -0.825
-24.225 -2.175 0.525
-24.225 -2.175 1.875
-26.325 -2.175 0.075
-26.325 -2.175 -0.075
-27.075 0.675 0.675
-27.075 0.675 -0.825
-27.075 0.675 0.375
-27.075 0.675 0.825
-27.075 0.675 0.975
-27.075 0.675 -0.075
-27.075 0.675 1.875
-27.075 0.675 -0.525
-27.075 -1.425 -0.375
-27.075 -1.425 -0.825
-27.075 -1.425 0.375
-23.325 -1.125 -0.975
-24.525 1.575 1.125
-26.025 1.575 1.425
-26.025 1.575 -0.225
-26.025 1.575 -0.375
-26.025 1.575 0.675
-24.525 -2.325 -0.375
-24.525 -2.325 0.375
-24.525 -2.325 1.125
-24.525 -2.325 0.675
-24.525 -2.325 0.525
-24.525 -2.325 0.225
-24.525 -2.325 -3.675
-24.525 -2.325 -2.925
-24.525 -2.325 1.725
-24.525 -2.325 -0.075
-24.525 -2.325 -0.525
-27.225 -1.125 -1.875
-27.225 -1.125 2.625
-27.225 -1.125 2.475
-27.225 -1.125 0.375
-27.225 0.375 0.075
-27.225 0.375 -0.525
-27.225 0.375 0.375
-27.225 0.375 -0.675
-27.225 0.375 0.825
-27.225 0.375 -0.225
-23.175 -0.375 2.925
-25.275 -2.475 -2.325
-25.275 -2.475 0.975
-25.275 -2.475 1.425
-25.275 1.725 1.275
-25.275 1.725 1.125
-25.275 1.725 0.675
-27.375 -0.375 -2.625
-25.125 -2.475 -1.425
-25.125 -2.475 1.425
-25.425 -2.475 1.275
-25.425 -2.475 0.975
-25.425 1.725 0.675
-27.375 -0.225 -0.675
-27.375 -0.525 -0.075
-27.375 -0.525 3.375
-23.175 -0.675 2.025
-24.975 -2.475 -0.075
-24.975 1.725 0.675
-26.775 -1.875 -2.175
-26.775 -1.875 -1.575
-26.775 -1.875 1.575
-26.775 -1.875 -1.275
-26.775 -1.875 -0.525
-26.775 -1.875 -0.675
-26.775 -1.875 -0.975
-23.775 -1.875 -3.825
-23.775 -1.875 2.025
-23.775 -1.875 1.575
-23.775 -1.875 -4.875
-26.775 1.125 1.575
-25.575 1.725 0.375
-25.575 -2.475 2.175
-27.375 -0.675 1.875
-27.375 -0.675 -0.375
-27.375 -0.675 2.625
-27.375 -0.075 0.675
-23.925 1.275 2.775
-23.925 -2.025 2.025
-23.925 -2.025 2.625
-23.925 -2.025 0.675
-23.925 -2.025 -3.675
-23.925 -2.025 2.175
-23.925 -2.025 -3.525
-23.925 -2.025 -0.675
-23.625 -1.725 0.975
-26.925 0.975 1.125
-26.925 0.975 -1.275
-26.925 0.975 0.975
-26.925 0.975 2.175
-26.925 0.975 2.625
-26.925 0.975 2.025
-26.925 -1.725 0.975
-26.925 -1.725 -1.875
-23.175 -0.825 2.025
-24.375 1.575 -0.525
-23.325 -1.275 3.375
-23.325 0.525 6.525
-23.325 0.525 -0.825
-24.375 -2.325 -0.075
-24.375 -2.325 -0.375
-24.375 -2.325 0.975
-24.375 -2.325 1.575
-24.375 -2.325 0.825
-24.375 -2.325 0.525
-24.375 -2.325 -0.825
-24.375 -2.325 0.375
-24.375 -2.325 1.725
-24.825 -2.475 -0.075
-24.825 -2.475 0.375
-24.825 -2.475 0.675
-24.825 -2.475 1.875
-24.825 -2.475 1.725
-24.825 1.725 -0.225
-25.725 1.725 -0.075
-25.725 1.725 -0.225
-25.725 -2.475 -3.525
-25.725 -2.475 -0.675
-26.175 -2.325 -0.975
-27.375 -0.825 1.575
-27.375 -0.825 -1.275
-27.375 -0.825 2.475
-27.225 -1.275 1.875
-27.225 -1.275 0.375
-27.225 -1.275 -0.375
-27.225 -1.275 1.725
-27.225 0.525 0.825
-27.225 0.525 0.525
-27.225 0.525 -0.675
-27.225 0.525 1.875
-27.225 0.525 -0.075
-27.225 0.525 0.075
-27.225 0.525 -0.225
-27.225 0.525 -0.525
-23.475 -1.575 2.325
-23.475 -1.575 1.275
-24.075 -2.175 1.875
-24.075 -2.175 0.075
-27.075 0.825 0.825
-27.075 0.825 -1.275
-27.075 0.825 0.525
-27.075 0.825 0.675
-27.075 0.825 1.875
-27.075 0.825 -0.075
-27.075 -1.575 0.675
-27.075 -1.575 -0.375
-27.075 -1.575 0.525
-27.075 -1.575 -0.975
-27.075 -1.575 0.225
-27.075 0.825 0.975
-26.475 -2.175 0.225
-26.475 -2.175 -0.675
-26.475 -2.175 -0.075
-26.475 -2.175 0.375
-23.175 -0.975 2.325
-23.175 -0.975 1.875
-24.675 -2.475 0.675
-24.675 -2.475 -0.225
-24.675 -2.475 1.125
-24.675 -2.475 1.575
-24.675 -2.475 2.025
-24.675 -2.475 -0.675
-24.675 -2.475 0.525
-24.675 -2.475 0.075
-25.875 1.725 -0.375
-25.875 -2.475 -3.675
-25.875 -2.475 1.575
-27.375 -0.975 4.425
-27.375 -0.975 2.025
-27.375 -0.975 0.225
-27.375 -0.975 1.725
-27.375 0.225 -0.075
-24.225 -2.325 0.225
-24.225 -2.325 1.125
-24.225 -2.325 -0.675
-24.225 -2.325 1.425
-24.225 -2.325 -5.175
-23.325 0.675 1.725
-23.325 -1.425 2.775
-23.325 0.675 -0.975
-26.325 1.575 -1.875
-26.325 -2.325 0.975
-26.325 -2.325 0.075
-27.225 0.675 2.775
-27.225 0.675 1.275
-27.225 0.675 0.825
-27.225 0.675 -0.375
-27.225 0.675 -0.225
-23.175 -1.125 1.875
-23.175 0.375 2.175
-23.175 -1.125 5.925
-23.625 -1.875 -3.375
-23.775 -2.025 -4.875
-23.775 -2.025 1.125
-23.775 -2.025 0.825
-23.775 -2.025 -0.525
-26.025 1.725 0.675
-24.525 -2.475 0.675
-24.525 -2.475 -0.675
-24.525 -2.475 0.825
-24.525 -2.475 2.175
-24.525 -2.475 -0.075
-24.525 -2.475 -1.275
-24.525 -2.475 0.525
-24.525 -2.475 0.375
-26.025 1.725 0.075
-26.775 -2.025 -0.525
-26.775 -2.025 2.025
-26.775 -2.025 -1.725
-23.775 1.275 -0.525
-23.775 1.275 -0.975
-24.525 1.725 0.525
-26.775 1.275 1.425
-26.925 1.125 1.575
-26.925 -1.875 -0.525
-26.925 -1.875 -0.825
-26.925 -1.875 2.175
-26.925 -1.875 0.075
-26.925 -1.875 -0.375
-23.925 -2.175 0.075
-23.925 1.425 -0.975
-23.925 1.425 1.575
-25.275 1.875 0.675
-27.525 -0.375 2.475
-25.275 -2.625 0.375
-27.075 0.975 0.975
-27.075 0.975 0.675
-27.075 0.975 2.175
-27.075 -1.725 1.875
-27.075 -1.725 1.275
-27.075 -1.725 2.625
-27.075 -1.725 -0.525
-27.075 -1.725 -1.275
-27.075 -1.725 0.675
-27.075 -1.725 -0.975
-26.625 1.425 -0.825
-26.625 1.425 2.175
-26.625 -2.175 0.225
-26.625 -2.175 2.325
-25.125 1.875 0.675
-27.525 -0.525 -0.075
-27.525 -0.525 -0.525
-27.525 -0.525 1.575
-27.525 -0.225 -4.275
-27.525 -0.225 0.075
-25.425 1.875 -0.675
-25.425 1.875 -0.825
-25.425 -2.625 2.475
-25.425 -2.625 -0.075
-24.975 -2.625 2.325
-24.975 -2.625 2.025
-24.975 -2.625 0.825
-24.975 -2.625 -0.375
-24.975 -2.625 -0.075
-24.975 -2.625 -2.325
-24.975 1.875 0.675
-23.025 -0.675 1.875
-27.525 -0.075 1.275
-27.525 -0.075 0.075
-23.175 -1.275 -0.075
-23.175 -1.275 -4.875
-23.175 -1.275 2.175
-23.175 -1.275 2.925
-23.175 -1.275 2.025
-24.375 1.725 -0.825
-24.375 1.725 1.125
-24.375 -2.475 -0.225
-24.375 -2.475 0.075
-24.375 -2.475 -0.075
-24.375 -2.475 0.375
-24.375 -2.475 0.675
-24.375 -2.475 -4.875
-26.175 1.725 4.725
-26.175 -2.475 0.975
-26.175 -2.475 -0.975
-27.375 0.525 0.825
-27.375 0.525 -0.075
-27.375 -1.275 2.325
-27.375 -1.275 2.175
-27.375 -1.275 -1.875
-27.375 -1.275 -1.725
-23.325 -1.575 2.325
-23.325 -1.575 -5.025
-23.325 -1.575 -2.625
-24.075 -2.325 1.725
-24.075 -2.325 0.075
-26.475 -2.325 -1.275
-26.475 -2.325 -0.075
-26.475 -2.325 -1.575
-27.225 -1.575 -0.525
-27.225 -1.575 3.075
-27.225 -1.575 2.175
-27.225 -1.575 -0.675
-27.225 -1.575 2.625
-27.225 -1.575 -3.075
-27.225 0.825 0.075
-27.225 0.825 0.675
-27.225 0.825 0.825
-27.225 0.825 1.575
-27.225 0.825 0.375
-27.225 0.825 4.725
-27.225 0.825 1.275
-27.225 0.825 0.525
-24.825 -2.625 0.825
-24.825 -2.625 0.675
-24.825 1.875 -0.075
-24.825 -2.625 -0.525
-24.825 -2.625 -0.975
-24.825 -2.625 0.225
-24.825 -2.625 0.375
-24.825 -2.625 1.725
-23.025 -0.825 2.325
-23.025 -0.825 0.375
-24.825 -2.625 -0.375
-24.825 1.875 0.675
-27.525 0.075 -0.525
-27.525 0.075 0.075
-27.525 -0.825 0.825
-27.525 -0.825 -4.725
-27.525 -0.825 2.325
-27.525 -0.825 -1.275
-27.525 -0.825 -4.425
-27.525 -0.825 -1.875
-27.525 -0.825 1.875
-23.025 0.075 2.175
-25.725 -2.625 -0.825
-25.725 1.875 0.075
-25.725 1.875 0.225
-24.675 -2.625 -0.975
-24.675 -2.625 0.975
-24.675 -2.625 0.525
-24.675 -2.625 1.125
-24.675 -2.625 0.375
-24.675 -2.625 -0.225
-24.675 -2.625 2.025
-24.675 1.875 -3.825
-24.675 1.875 -1.875
-24.675 -2.625 1.425
-24.675 -2.625 -0.075
-27.525 -0.975 0.375
-27.525 -0.975 1.425
-27.525 -0.975 -1.425
-27.525 -0.975 1.875
-27.525 -0.975 4.575
-27.525 -0.975 -0.075
-23.025 -0.975 -5.025
-23.025 -0.975 1.725
-27.525 0.225 2.475
-27.525 0.225 2.625
-27.525 -0.975 2.325
-25.875 -2.625 -0.075
-25.875 -2.625 0.075
-25.875 -2.625 -0.525
-23.625 1.275 0.675
-23.625 1.275 -1.275
-23.625 -2.025 -4.275
-23.625 -2.025 2.625
-26.925 -2.025 0.375
-26.925 -2.025 -0.525
-26.925 -2.025 -2.325
-26.925 1.275 5.025
-26.925 1.275 0.975
-23.475 1.125 1.275
-23.775 -2.175 -1.125
-23.775 -2.175 1.575
-23.775 -2.175 0.075
-23.775 -2.175 2.025
-23.775 -2.175 -3.675
-23.775 -2.175 -4.125
-26.775 -2.175 -4.125
-26.775 -2.175 1.725
-26.775 1.425 1.275
-26.775 1.425 0.525
-27.075 -1.875 -0.225
-27.075 -1.875 0.075
-27.075 -1.875 -0.375
-27.075 1.125 -0.675
-27.075 -1.875 -1.875
-27.075 -1.875 2.025
-23.175 -1.425 1.575
-23.175 -1.425 2.625
-24.225 -2.475 -3.225
-24.225 -2.475 0.975
-24.225 -2.475 0.075
-24.225 -2.475 1.425
-24.225 -2.475 0.375
-24.225 -2.475 -0.975
-24.225 1.725 -0.525
-24.225 1.725 -0.675
-24.225 -2.475 -0.525
-26.325 1.725 -0.975
-26.325 1.725 2.475
-26.325 1.725 0.975
-26.325 1.725 -1.575
-26.325 -2.475 -0.975
-26.325 -2.475 -1.275
-26.325 -2.475 -1.575
-27.375 0.675 -2.625
-27.375 0.675 0.525
-27.375 0.675 0.825
-27.375 -1.425 -1.575
-27.375 -1.425 -0.675
-23.925 -2.325 2.925
-23.925 -2.325 -4.725
-23.325 -1.725 -3.225
-23.325 -1.725 0.525
-23.325 0.975 -0.975
-23.325 0.975 1.575
-27.525 -1.125 -1.425
-27.525 -1.125 2.925
-27.525 -1.125 -1.125
-24.525 -2.625 -0.075
-24.525 -2.625 0.375
-24.525 -2.625 1.425
-24.525 -2.625 2.025
-23.025 -1.125 2.325
-23.025 -1.125 2.925
-23.025 -1.125 -5.475
-26.025 1.875 1.425
-26.025 1.875 -0.375
-26.025 1.875 -0.225
-26.625 1.575 1.875
-26.625 -2.325 0.825
-26.625 -2.325 -1.425
-26.625 -2.325 -1.575
-27.225 0.975 0.375
-27.225 0.975 0.675
-27.225 0.975 -0.075
-27.225 0.975 0.075
-27.225 0.975 4.125
-27.225 0.975 0.825
-27.225 -1.725 -0.375
-27.225 -1.725 -0.975
-27.225 -1.725 -0.225
-27.225 -1.725 -1.725
-27.225 -1.725 -1.125
-25.275 -2.775 -0.075
-27.675 -0.375 2.775
-27.675 -0.375 1.575
-27.675 -0.375 1.275
-22.875 -0.225 3.225
-22.875 -0.225 2.925
-25.125 2.025 0.675
-25.125 -2.775 -8.175
-25.125 -2.775 -2.025
-25.125 -2.775 -0.225
-25.125 -2.775 -0.075
-27.675 -0.525 5.325
-27.675 -0.225 2.025
-23.175 -1.575 1.425
-23.175 -1.575 0.525
-23.175 0.825 1.725
-22.875 -0.675 -0.975
-24.975 -2.775 2.025
-24.975 -2.775 2.475
-24.975 -2.775 -0.075
-24.975 -2.775 2.625
-24.975 2.025 1.275
-24.975 2.025 0.675
-24.975 2.025 1.125
-24.075 -2.475 1.275
-24.075 -2.475 2.025
-25.575 2.025 0.525
-25.575 2.025 0.675
-25.575 -2.775 -3.675
-25.575 2.025 2.925
-25.575 2.025 -2.175
-27.375 0.825 1.575
-27.375 0.825 0.525
-27.375 0.825 0.825
-27.375 0.825 -1.275
-27.375 -1.575 2.325
-27.375 -1.575 -0.525
-27.375 -1.575 -0.825
-27.375 -1.575 -0.975
-27.375 -1.575 -1.575
-26.475 -2.475 0.075
-26.475 -2.475 -0.975
-26.475 -2.475 -2.025
-26.475 1.725 0.525
-26.475 1.725 1.275
-27.675 -0.675 3.375
-27.675 -0.675 -0.825
-27.675 -0.675 -4.425
-24.375 -2.625 0.375
-24.375 -2.625 1.725
-24.375 -2.625 0.825
-24.375 -2.625 0.975
-24.375 -2.625 2.025
-24.375 -2.625 -0.975
-24.375 -2.625 0.225
-27.525 -1.275 2.325
-23.025 0.525 2.025
-27.525 0.525 0.975
-27.525 0.525 0.075
-27.525 0.525 2.475
-26.175 1.875 -1.125
-26.175 -2.625 0.225
-23.475 1.275 -1.125
-23.475 -2.025 0.975
-23.475 -2.025 -1.875
-23.475 -2.025 2.625
-23.625 -2.175 1.125
-23.625 -2.175 -0.525
-23.625 -2.175 2.475
-23.625 -2.175 0.375
-24.825 -2.775 2.325
-24.825 -2.775 -0.375
-24.825 -2.775 0.075
-24.825 2.025 0.675
-25.725 2.025 -0.075
-25.725 2.025 0.225
-25.725 2.025 -1.575
-27.075 -2.025 -0.825
-27.075 -2.025 -1.125
-27.075 -2.025 1.125
-27.075 -2.025 -0.375
-27.075 -2.025 2.175
-27.075 -2.025 -1.425
-27.075 -2.025 -0.225
-27.075 -2.025 -0.675
-26.925 -2.175 -0.225
-26.925 -2.175 0.375
-26.925 -2.175 -0.375
-26.925 1.425 -4.125
-26.925 1.425 -0.525
-27.675 -0.825 0.975
-27.675 0.075 0.375
-23.325 1.125 -0.975
-23.325 -1.875 3.825
-26.775 1.575 2.025
-26.775 1.575 0.675
-26.775 1.575 -0.675
-26.775 1.575 0.375
-23.775 1.575 1.725
-27.225 1.125 0.375
-27.225 1.125 0.675
-27.225 -1.875 -0.225
-27.225 -1.875 -2.025
-27.225 -1.875 -0.375
-27.225 -1.875 2.925
-27.225 -1.875 -1.875
-24.675 -2.775 1.275
-24.675 -2.775 -0.075
-24.675 -2.775 0.525
-24.675 -2.775 0.825
-24.675 2.025 1.275
-25.875 2.025 -0.075
-25.875 2.025 2.925
-25.875 -2.775 -0.075
-27.675 -0.975 -1.575
-27.675 -0.975 -1.875
-24.225 -2.625 -0.375
-24.225 -2.625 1.725
-24.225 -2.625 1.425
-24.225 1.875 -0.675
-24.225 1.875 2.025
-24.225 1.875 2.175
-27.525 0.675 0.375
-27.525 -1.425 -0.525
-27.525 -1.425 2.325
-26.325 -2.625 0.075
-23.925 1.725 -0.225
-23.925 -2.475 -0.075
-26.625 -2.475 -0.225
-26.625 -2.475 -1.425
-26.625 1.725 1.275
-26.625 1.725 1.125
-27.375 -1.725 -0.525
-27.375 -1.725 -1.275
-27.375 0.975 0.225
-27.375 0.975 0.825
-24.525 -2.775 0.675
-24.525 -2.775 -0.225
-24.525 -2.775 0.525
-24.525 -2.775 5.475
-24.525 2.025 0.525
-26.025 2.025 -0.225
-26.025 2.025 -0.375
-26.025 2.025 -0.525
-24.525 -2.775 0.825
-27.675 -1.125 2.925
-23.475 -2.175 1.425
-23.475 1.425 -0.975
-27.075 -2.175 -0.375
-27.075 -2.175 -0.525
-27.075 -2.175 -0.675
-27.075 -2.175 -1.875
-27.075 1.425 0.675
-22.725 -0.375 1.875
-24.075 -2.625 2.025
-24.075 -2.625 0.225
-24.075 -2.625 0.075
-24.075 1.875 -0.825
-24.075 1.875 -0.675
-24.075 1.875 -0.525
-27.525 -1.575 1.875
-27.525 -1.575 -0.225
-27.525 -1.575 -0.675
-27.525 -1.575 -7.575
-27.525 0.825 2.025
-25.275 2.175 -2.025
-25.275 2.175 2.025
-27.525 0.825 0.375
-25.275 -2.925 0.225
-25.275 -2.925 -0.525
-27.825 -0.375 1.275
-26.475 -2.625 0.375
-26.475 -2.625 0.075
-26.475 -2.625 -1.125
-22.725 -0.525 2.025
-22.725 -0.525 2.625
-22.725 -0.225 -3.825
-23.625 1.575 -1.275
-23.325 -2.025 1.725
-23.325 -2.025 -3.525
-23.325 1.275 -0.825
-25.125 2.175 0.675
-25.125 2.175 -0.675
-25.125 -2.925 -0.375
-25.125 -2.925 -8.775
-25.125 -2.925 1.125
-25.425 2.175 0.825
-25.425 2.175 0.075
-25.425 2.175 1.125
-25.425 -2.925 0.075
-25.425 -2.925 -0.075
-27.825 -0.525 -0.975
-27.825 -0.525 0.675
-26.925 -2.325 2.325
-26.925 -2.325 -1.425
-26.925 -2.325 -0.525
-26.925 1.575 1.275
-26.925 1.575 0.975
-26.925 1.575 0.675
-27.225 -2.025 -0.375
-27.225 -2.025 -0.225
-24.375 -2.775 1.125
-24.375 -2.775 -0.825
-24.375 -2.775 0.075
-24.375 2.025 0.525
-24.375 -2.775 -0.375
-26.175 -2.775 -0.825
-26.175 -2.775 0.375
-26.175 -2.775 -2.925
-27.675 -1.275 -1.425
-27.675 0.525 -2.625
-22.725 -0.675 1.875
-24.975 2.175 0.675
-24.975 -2.925 -0.675
-24.975 -2.925 2.025
-24.975 -2.925 -0.075
-24.975 -2.925 0.375
-24.975 -2.925 -1.125
-24.975 -2.925 1.275
-24.975 2.175 0.825
-24.975 2.175 1.875
-24.975 2.175 1.125
-25.575 2.175 2.325
-27.825 -0.675 2.325
-27.825 -0.675 1.125
-27.825 -0.675 0.975
-27.825 -0.675 1.575
-27.825 -0.075 2.925
-27.825 -0.675 -1.275
-27.825 -0.675 -0.975
-23.175 -1.875 -4.275
-23.175 1.125 0.225
-23.175 -1.875 0.975
-23.775 1.725 0.675
-23.775 -2.475 -5.175
-23.775 -2.475 0.075
-26.775 1.725 0.825
-26.775 1.725 0.225
-26.775 1.725 1.875
-26.775 1.725 1.125
-27.375 -1.875 -1.725
-27.375 -1.875 -1.125
-27.375 -1.875 1.725
-22.725 -0.825 2.925
-22.725 0.075 2.325
-22.725 -0.825 3.225
-24.825 -2.925 0.825
-24.825 -2.925 0.975
-24.825 -2.925 0.225
-24.825 -2.925 -0.825
-24.825 -2.925 1.875
-24.825 -2.925 1.575
-24.825 2.175 0.825
-24.825 2.175 -1.125
-25.725 -2.925 2.325
-25.725 -2.925 1.425
-25.725 -2.925 -2.925
-25.725 -2.925 -3.375
-25.725 2.175 -0.675
-25.725 2.175 0.225
-27.825 -0.825 -1.275
-27.825 -0.825 -1.125
-24.225 -2.775 0.075
-24.225 -2.775 0.525
-24.225 -2.775 2.475
-24.225 2.025 3.225
-24.225 2.025 2.925
-24.225 2.025 2.175
-24.675 -2.925 0.225
-24.675 -2.925 0.825
-24.675 -2.925 1.875
-24.675 -2.925 -0.075
