# .PCD v0.7 - Point Cloud Data file format
VERSION 0.7
FIELDS x y z
SIZE 4 4 4
TYPE F F F
COUNT 1 1 1
WIDTH 2048
HEIGHT 1
VIEWPOINT 0 0 0 1 0 0 0
POINTS 2048
DATA ascii
4.875 -53.475 2.025
4.875 -54.075 2.475
4.575 -54.075 2.325
4.425 -53.775 2.775
4.725 -53.325 1.875
4.725 -53.325 1.575
4.425 -53.625 1.275
4.425 -53.925 2.025
4.725 -54.225 2.175
5.175 -53.325 -0.075
4.575 -53.325 1.725
4.575 -53.325 0.975
4.425 -53.475 0.375
4.425 -53.475 0.825
5.475 -53.775 1.425
4.275 -53.775 -0.375
4.875 -54.375 1.575
5.475 -53.925 -0.375
5.025 -53.175 -0.075
5.325 -53.325 -0.225
5.325 -53.325 0.375
5.475 -53.475 -1.425
4.575 -54.375 1.425
5.475 -53.325 0.075
5.625 -53.775 -0.825
4.125 -53.775 -0.075
4.125 -53.775 1.275
4.125 -53.625 0.525
4.125 -53.625 0.675
4.125 -53.475 0.375
4.125 -53.475 0.525
4.125 -53.475 0.675
4.125 -53.325 -0.975
4.125 -53.325 0.525
4.425 -54.525 1.875
5.325 -54.525 2.625
5.325 -53.025 -0.075
4.125 -54.225 1.725
4.875 -54.675 2.175
3.975 -53.625 1.425
5.775 -53.625 2.025
5.175 -54.675 0.675
3.975 -53.475 0.525
4.275 -53.025 0.375
4.275 -53.025 2.475
5.625 -53.175 2.175
4.125 -53.175 1.275
5.625 -53.175 -0.225
4.125 -54.375 2.025
4.125 -53.175 0.375
3.975 -53.325 1.425
5.775 -53.325 2.025
3.825 -53.775 0.675
3.825 -53.775 0.075
3.825 -53.925 0.975
3.825 -53.625 0.675
4.125 -53.025 2.925
5.025 -54.825 2.925
5.025 -54.825 0.975
5.475 -52.875 -0.375
5.475 -54.675 -0.375
3.825 -53.475 -1.125
3.825 -53.475 -0.075
3.825 -53.475 0.225
5.175 -54.825 2.925
5.325 -52.725 0.225
3.825 -53.325 1.725
5.325 -54.825 3.075
3.675 -53.625 0.825
3.675 -53.625 -0.075
5.175 -52.575 0.825
3.675 -53.475 0.075
3.675 -53.475 -0.525
3.675 -53.475 0.375
3.675 -53.325 2.325
3.675 -53.325 0.225
3.525 -53.775 0.375
4.875 -55.125 2.775
4.875 -55.125 1.125
3.525 -53.625 -0.375
3.525 -53.625 0.225
4.725 -55.125 2.625
3.975 -52.725 1.875
3.825 -54.675 2.325
3.675 -54.525 -2.475
3.525 -53.325 3.075
3.525 -53.325 2.925
3.525 -53.325 -0.375
3.375 -53.775 0.825
3.375 -53.775 2.925
3.375 -53.625 -0.075
3.375 -53.625 0.525
5.025 -55.275 2.625
4.575 -55.275 2.325
4.575 -55.275 1.425
3.375 -54.375 0.525
3.375 -53.175 -0.225
3.525 -54.675 1.275
3.975 -52.425 -5.475
4.875 -52.125 0.375
3.225 -53.775 0.525
3.225 -53.775 3.075
4.725 -55.425 2.475
4.725 -55.425 2.175
3.225 -53.625 0.675
3.225 -53.625 0.525
3.225 -53.475 0.525
3.225 -53.475 -0.225
3.225 -53.475 0.675
4.125 -52.275 2.175
4.425 -52.125 1.725
3.225 -53.325 0.675
3.525 -54.825 2.775
3.375 -52.875 1.425
4.275 -52.125 2.025
3.075 -53.775 0.225
4.875 -55.575 3.075
3.075 -53.625 0.075
3.075 -53.475 0.075
3.075 -53.475 2.775
3.075 -53.475 -0.075
3.075 -54.075 0.825
3.375 -54.825 2.775
3.375 -54.825 1.875
3.075 -53.325 3.075
3.075 -53.325 0.525
3.225 -54.675 1.575
3.225 -54.675 2.775
3.525 -55.125 2.625
3.675 -52.275 1.725
2.925 -53.775 0.825
4.125 -55.575 3.975
5.625 -55.575 0.225
4.725 -51.825 1.575
2.925 -53.625 0.225
2.925 -53.475 0.075
2.925 -54.225 1.275
2.925 -54.225 1.575
3.675 -55.425 1.275
2.925 -53.175 1.425
4.275 -55.725 3.525
2.925 -54.525 2.925
2.775 -53.775 0.675
4.875 -55.875 2.475
2.775 -53.625 0.225
2.775 -53.625 0.825
2.775 -53.475 0.075
3.525 -55.425 1.275
3.975 -51.825 -0.825
2.775 -53.325 1.875
2.775 -54.225 1.425
3.975 -55.725 -0.075
3.675 -51.975 -5.925
3.225 -55.275 3.225
2.775 -54.525 0.525
3.075 -52.425 -2.025
2.625 -53.625 0.825
4.575 -51.525 2.025
2.625 -54.225 1.425
3.375 -51.975 -5.475
2.625 -54.525 -4.125
4.875 -51.375 -1.575
2.475 -53.775 0.075
5.025 -56.175 0.825
2.475 -53.625 0.075
4.575 -51.375 0.675
4.575 -51.375 2.325
2.475 -53.475 -0.375
4.425 -51.375 0.675
3.075 -55.425 0.675
3.225 -55.575 0.075
4.275 -51.375 0.675
2.625 -54.825 -3.975
3.525 -55.875 2.325
2.325 -53.775 0.225
4.725 -51.225 0.525
3.225 -55.725 4.125
3.975 -51.375 -0.375
4.575 -56.325 0.525
3.375 -51.675 0.825
3.375 -55.875 2.775
4.425 -51.225 0.675
2.925 -51.975 1.575
2.925 -51.975 1.875
2.325 -53.025 -0.825
2.175 -53.475 0.525
2.925 -55.725 4.275
2.925 -55.725 0.825
2.175 -54.375 -1.725
3.075 -55.875 2.625
3.075 -55.875 3.225
3.075 -51.675 0.825
3.075 -55.875 0.375
3.225 -51.525 0.825
4.125 -51.075 -4.875
4.125 -56.475 0.675
3.675 -56.325 -4.125
2.175 -52.875 -0.525
2.025 -53.775 0.225
2.025 -53.775 0.375
4.875 -56.625 2.325
4.875 -56.625 1.875
2.025 -53.625 2.175
2.025 -53.625 -3.675
2.025 -53.925 -0.375
5.175 -56.625 2.025
3.075 -56.025 2.625
5.925 -51.075 2.175
6.075 -51.075 2.325
2.175 -54.975 1.575
3.675 -56.475 -3.975
2.925 -56.025 2.625
2.925 -51.525 0.825
2.025 -54.675 1.275
4.875 -56.775 2.325
1.875 -53.775 0.225
1.875 -53.925 1.725
1.875 -53.925 0.675
1.875 -53.925 -0.525
1.875 -53.925 0.075
4.725 -56.775 2.475
4.725 -56.775 3.075
4.725 -50.775 -1.425
1.875 -54.075 2.025
1.875 -54.075 -0.825
3.525 -51.075 -0.075
1.875 -53.325 1.125
3.825 -56.625 -3.975
2.025 -54.825 1.575
2.025 -54.825 1.725
1.875 -53.175 -1.425
1.875 -54.375 -1.425
2.625 -51.675 1.425
6.375 -51.075 0.525
3.375 -51.075 0.075
2.025 -52.575 -0.375
1.875 -54.525 1.725
1.875 -53.025 -2.025
1.875 -54.675 2.025
1.725 -53.775 0.675
1.725 -53.775 0.825
1.725 -53.775 0.225
5.025 -50.625 1.125
4.725 -50.625 0.825
1.725 -53.625 0.825
1.725 -53.925 0.675
1.725 -53.925 1.875
1.725 -53.925 0.375
1.725 -53.625 0.525
6.225 -50.925 2.625
4.575 -50.625 2.475
3.825 -56.775 0.675
3.825 -50.775 -1.875
4.425 -50.625 2.325
5.475 -50.625 0.225
6.375 -50.925 2.625
3.375 -56.625 1.725
5.625 -50.625 0.075
5.625 -50.625 -0.375
1.725 -54.525 1.125
1.725 -53.025 -2.325
2.625 -51.375 0.825
6.225 -50.775 2.475
1.875 -52.425 -1.275
3.225 -50.925 0.525
3.225 -50.925 0.075
3.225 -56.625 1.875
6.525 -50.925 2.025
4.875 -50.475 1.125
4.875 -50.475 0.975
4.875 -50.475 0.825
1.575 -53.775 0.375
1.575 -53.775 0.675
4.725 -50.475 2.475
4.725 -50.475 -1.875
4.725 -50.475 0.375
1.575 -53.925 -0.225
1.575 -53.925 0.225
1.575 -53.625 0.825
1.575 -53.625 -0.075
2.325 -55.875 -0.075
5.175 -50.475 1.425
5.175 -50.475 2.025
1.575 -54.075 0.225
1.575 -54.075 1.125
3.825 -50.625 2.475
1.725 -54.825 1.875
1.575 -54.375 1.725
6.375 -50.775 0.225
1.875 -52.275 -1.275
3.675 -50.625 -0.225
1.725 -54.975 1.125
3.075 -50.925 0.525
1.575 -54.525 -0.075
1.575 -53.025 -0.825
2.475 -56.175 -0.075
3.225 -56.775 1.725
3.525 -50.625 1.875
4.875 -50.325 0.375
4.875 -50.325 0.525
1.425 -53.775 0.825
1.425 -53.775 0.225
1.425 -53.775 0.525
5.025 -50.325 0.525
4.725 -50.325 0.375
2.025 -51.825 -0.675
1.425 -53.925 -0.225
1.425 -53.925 1.275
1.425 -53.925 0.075
5.175 -50.325 0.375
3.825 -50.475 0.525
1.425 -53.475 0.225
1.425 -54.075 1.425
1.575 -54.825 0.975
1.575 -54.825 1.275
3.825 -57.075 1.425
4.425 -50.325 2.175
4.425 -50.325 -2.325
1.425 -54.225 1.575
1.725 -55.275 -0.525
1.875 -51.975 -0.375
1.875 -51.975 2.625
3.075 -56.775 1.875
2.475 -51.225 1.725
2.325 -51.375 1.575
2.325 -56.175 -0.075
1.425 -54.375 1.725
3.675 -50.475 0.975
3.675 -50.475 0.225
3.675 -50.475 1.275
1.575 -54.975 1.425
1.575 -54.975 2.025
3.225 -50.625 0.525
1.725 -55.425 -1.125
1.725 -52.125 2.925
1.725 -52.125 0.825
3.525 -50.475 1.275
3.525 -50.475 -0.075
3.525 -50.475 0.825
3.525 -50.475 0.225
1.425 -52.875 0.075
1.875 -51.825 -0.375
1.275 -53.775 -0.075
4.875 -50.175 0.825
1.275 -53.925 -0.075
3.825 -50.325 -2.025
3.825 -50.325 1.275
3.825 -50.325 0.375
1.425 -52.725 -0.375
1.425 -54.825 1.575
2.475 -51.075 2.625
1.275 -53.475 0.525
3.375 -50.475 0.675
1.575 -52.275 -0.825
1.725 -55.575 1.275
1.725 -55.575 0.375
2.025 -56.025 2.325
1.275 -54.375 0.675
3.675 -50.325 0.975
3.675 -50.325 2.175
3.675 -50.325 -0.075
3.675 -50.325 -0.375
3.675 -50.325 -0.225
1.425 -52.575 -1.275
1.425 -54.975 1.275
3.675 -57.225 1.575
3.675 -57.225 0.825
1.275 -54.525 -2.025
4.125 -57.375 -0.225
1.575 -55.425 1.275
1.575 -55.425 1.575
1.575 -55.425 0.375
1.575 -52.125 -1.125
3.525 -50.325 0.075
3.525 -50.325 0.675
3.525 -50.325 1.425
1.725 -51.825 0.375
1.725 -51.825 -0.975
2.925 -50.625 0.825
1.425 -52.425 -1.275
1.425 -55.125 0.825
1.725 -55.725 -0.075
1.725 -55.725 0.225
1.275 -52.875 -1.425
1.275 -52.875 1.425
1.275 -52.875 1.275
1.275 -54.675 1.275
3.975 -57.375 -2.475
1.275 -52.725 1.125
1.125 -53.775 0.975
1.125 -53.775 -0.225
1.125 -53.775 0.075
4.875 -50.025 0.825
4.875 -50.025 0.225
2.625 -50.775 2.925
3.825 -50.175 1.125
1.275 -54.825 1.275
5.025 -50.025 0.075
4.725 -50.025 0.525
4.725 -50.025 0.375
3.075 -50.475 0.825
1.575 -51.975 -1.125
1.575 -55.575 1.125
3.375 -50.325 0.375
3.375 -50.325 0.225
5.175 -50.025 -0.225
1.425 -55.275 0.525
1.425 -55.275 0.075
1.125 -53.325 1.575
4.425 -50.025 2.175
5.325 -50.025 0.975
1.125 -54.225 1.275
2.775 -50.625 0.825
1.725 -51.675 -0.825
1.275 -54.975 0.075
1.275 -54.975 0.975
1.275 -54.975 0.375
1.275 -54.975 0.225
1.275 -54.975 0.825
3.225 -50.325 0.375
1.425 -55.425 -0.075
1.425 -55.425 0.525
1.125 -54.525 0.375
1.125 -53.025 -1.275
2.025 -56.325 0.225
2.925 -50.475 0.675
1.575 -55.725 0.975
1.575 -55.725 0.375
1.575 -55.725 1.125
1.875 -56.175 2.325
1.275 -55.125 0.525
1.275 -55.125 0.225
1.125 -54.675 0.375
3.975 -50.025 0.975
2.625 -50.625 2.925
1.725 -51.525 -0.375
1.725 -56.025 0.375
3.075 -50.325 0.375
1.425 -51.975 -0.975
1.425 -51.975 -1.125
1.425 -51.975 -1.425
1.425 -55.575 0.825
1.425 -55.575 0.525
1.425 -55.575 0.225
1.125 -54.825 0.375
1.125 -54.825 0.225
4.875 -49.875 0.225
0.975 -53.775 -0.225
1.275 -55.275 0.675
1.275 -55.275 0.075
1.275 -52.275 -1.425
3.375 -50.175 0.525
3.375 -57.375 0.675
4.725 -49.875 1.875
4.725 -49.875 1.275
4.725 -49.875 0.375
0.975 -53.925 -0.225
5.175 -49.875 0.525
4.575 -49.875 0.225
0.975 -54.075 -0.375
1.575 -55.875 0.075
1.575 -55.875 -0.675
1.575 -55.875 0.975
1.575 -55.875 0.225
4.425 -49.875 1.125
5.325 -49.875 -0.675
5.325 -49.875 -0.525
2.175 -50.925 0.375
2.025 -56.475 2.775
2.325 -50.775 0.075
2.325 -50.775 2.475
2.325 -50.775 0.525
3.675 -50.025 -0.675
3.675 -50.025 -0.525
1.125 -54.975 0.675
1.125 -54.975 0.225
4.275 -49.875 -0.825
0.975 -54.375 -0.375
0.975 -54.375 -1.275
2.475 -50.625 -0.075
2.475 -50.625 0.225
1.275 -52.125 2.175
1.275 -55.425 0.375
1.425 -55.725 -0.825
1.425 -55.725 0.375
1.425 -55.725 0.225
4.125 -49.875 -0.675
0.975 -54.525 0.225
3.525 -50.025 -0.675
6.225 -50.025 0.975
2.625 -50.475 0.975
1.575 -56.025 0.375
3.975 -57.675 -4.125
1.275 -51.975 0.075
1.875 -51.075 -0.375
2.175 -56.775 2.025
2.175 -50.775 0.225
2.175 -50.775 0.525
2.175 -50.775 2.475
2.175 -50.775 -0.075
2.175 -50.775 0.075
3.825 -49.875 -0.525
3.825 -57.675 1.725
0.975 -52.725 1.275
1.125 -55.275 1.125
1.125 -55.275 -0.225
1.425 -51.675 -1.575
1.425 -55.875 0.075
1.425 -55.875 1.575
4.875 -49.725 0.075
5.025 -49.725 -0.225
4.725 -49.725 0.075
2.325 -50.625 0.075
2.325 -50.625 0.225
4.425 -49.725 2.025
0.825 -53.325 1.875
0.975 -52.575 1.275
3.675 -57.675 1.425
1.575 -56.175 -0.525
1.575 -51.375 -0.375
1.275 -51.825 2.175
0.825 -54.375 1.725
0.825 -53.175 1.425
2.925 -57.375 1.125
1.275 -55.725 -0.675
1.275 -55.725 0.075
1.275 -55.725 0.375
1.125 -52.125 -0.375
3.225 -57.525 0.975
3.225 -50.025 0.375
0.825 -54.525 0.225
0.825 -53.025 1.875
1.425 -51.525 -0.825
2.025 -50.775 -0.075
2.025 -50.775 0.375
1.875 -50.925 0.225
1.875 -50.925 -0.525
1.725 -51.075 0.225
2.175 -50.625 -0.675
1.125 -51.975 -1.275
3.075 -57.525 0.825
1.125 -55.575 -0.075
1.125 -55.575 2.175
1.125 -55.575 0.375
1.125 -55.575 -1.425
1.275 -51.675 1.725
2.325 -50.475 0.075
2.325 -57.075 2.175
3.375 -49.875 1.575
0.975 -55.275 0.825
5.925 -49.725 0.525
3.825 -49.725 -2.925
0.825 -52.725 1.725
4.875 -49.575 1.875
1.425 -51.375 -0.525
4.575 -49.575 0.225
0.825 -54.975 0.525
0.825 -54.975 2.025
1.125 -51.825 1.575
2.925 -57.525 -0.375
2.925 -50.025 0.225
1.125 -55.725 1.875
3.225 -57.675 2.175
0.975 -55.425 2.025
0.975 -55.425 0.075
0.975 -52.125 1.725
4.275 -49.575 0.675
1.875 -56.775 2.625
1.875 -50.775 -0.075
1.875 -50.775 0.525
1.875 -50.775 0.075
1.875 -50.775 -0.525
0.675 -53.175 -1.425
0.675 -53.175 1.875
1.275 -51.525 0.525
1.275 -56.025 -0.225
1.275 -56.025 0.975
1.275 -56.025 0.525
2.025 -50.625 0.075
1.725 -50.925 -0.075
1.725 -50.925 0.225
2.175 -50.475 0.075
1.575 -56.475 0.825
1.575 -56.475 0.375
2.175 -57.075 1.425
0.675 -54.525 1.425
0.825 -55.125 0.825
0.825 -55.125 -0.825
0.825 -55.125 0.975
3.525 -57.825 0.675
3.525 -57.825 2.175
1.425 -56.325 0.375
1.425 -56.325 -0.075
3.075 -49.875 1.275
0.675 -54.675 0.525
0.975 -55.575 0.375
2.775 -50.025 0.225
1.125 -55.875 1.875
1.125 -55.875 0.975
0.825 -55.275 0.525
3.375 -57.825 0.225
1.275 -56.175 -0.225
0.675 -52.725 1.725
1.875 -50.625 -0.375
1.875 -50.625 0.075
0.525 -53.775 0.975
1.725 -56.775 -0.525
1.725 -56.775 2.475
1.725 -50.775 0.075
1.725 -50.775 2.175
1.725 -50.775 -0.075
0.525 -53.925 0.675
0.975 -51.825 1.125
2.025 -50.475 0.075
2.925 -49.875 1.575
2.925 -49.875 0.225
2.925 -49.875 2.475
1.575 -56.625 0.525
1.575 -50.925 -2.325
0.975 -55.725 0.675
0.675 -54.975 1.125
0.675 -54.975 0.525
0.675 -54.975 0.825
3.225 -49.725 0.075
1.125 -51.525 1.875
1.125 -56.025 1.125
1.425 -56.475 -0.075
0.525 -53.175 1.275
0.525 -53.175 1.575
1.275 -51.225 2.475
0.675 -52.425 -0.375
1.275 -56.325 -0.525
0.525 -54.525 0.975
0.975 -55.875 -1.125
0.975 -55.875 -1.725
0.975 -55.875 0.375
0.975 -51.675 1.575
3.075 -49.725 0.375
3.075 -57.825 2.175
0.525 -54.675 1.125
0.525 -54.675 1.275
0.525 -52.875 1.575
3.975 -49.425 0.375
1.125 -51.375 -1.125
1.125 -51.375 -1.275
2.475 -50.025 0.675
2.475 -50.025 0.975
1.725 -50.625 0.075
1.725 -50.625 -2.325
1.725 -50.625 -2.475
1.725 -50.625 0.375
1.725 -56.925 1.125
1.875 -50.475 0.075
1.575 -50.775 0.075
1.575 -50.775 0.225
1.575 -50.775 -0.075
1.575 -56.775 0.525
0.675 -55.275 2.025
0.675 -55.275 0.525
1.875 -57.075 1.125
0.525 -52.725 1.425
0.525 -52.725 1.875
0.525 -54.825 1.575
0.525 -54.825 1.425
0.525 -54.825 2.025
1.425 -56.625 0.525
1.425 -50.925 -0.825
3.825 -49.425 -0.525
3.825 -49.425 1.425
2.925 -49.725 2.625
0.825 -51.825 0.525
0.825 -51.825 1.425
0.825 -51.825 -0.225
0.825 -55.725 0.375
1.275 -51.075 2.025
2.175 -50.175 -0.675
1.275 -56.475 -0.375
4.725 -49.275 2.775
0.975 -56.025 0.975
0.975 -56.025 0.675
4.725 -58.275 -0.975
0.975 -56.025 0.525
3.225 -49.575 -1.425
0.525 -52.575 1.425
0.675 -52.125 -0.225
0.525 -54.975 1.125
0.525 -54.975 0.375
0.525 -54.975 1.575
3.675 -49.425 -0.675
3.675 -49.425 0.225
2.325 -57.525 -0.225
0.525 -52.425 -1.425
0.525 -55.125 0.675
0.525 -52.425 -0.825
0.525 -52.425 0.075
0.525 -52.425 1.725
1.725 -50.475 -0.225
1.725 -50.475 -0.075
1.575 -50.625 -0.075
1.575 -50.625 0.225
1.575 -56.925 1.125
1.575 -50.625 0.075
4.125 -49.275 0.525
4.125 -49.275 -0.075
0.375 -54.525 2.025
0.375 -53.025 -1.875
1.725 -57.075 1.275
0.675 -51.975 0.225
0.675 -51.975 1.725
0.675 -51.975 1.575
0.675 -51.975 -0.225
1.875 -50.325 -0.225
1.425 -50.775 0.225
1.425 -50.775 1.425
1.425 -56.775 0.525
0.975 -51.375 -1.125
3.975 -49.275 0.225
0.375 -52.875 -1.425
3.975 -58.275 -1.125
0.375 -54.675 2.475
0.375 -54.675 1.875
0.525 -55.275 1.275
0.525 -55.275 0.675
0.525 -52.275 -0.225
3.375 -58.125 1.125
1.125 -51.075 -1.875
0.375 -52.725 1.875
0.375 -52.725 -0.225
0.375 -52.725 1.575
2.175 -50.025 1.725
0.375 -54.825 1.875
0.375 -54.825 1.275
0.375 -54.825 1.575
0.375 -54.825 1.425
1.125 -56.475 0.525
0.675 -51.825 -0.225
0.675 -55.725 1.275
0.825 -51.525 1.275
0.825 -51.525 -1.425
0.825 -56.025 0.675
0.825 -56.025 0.525
0.525 -55.425 0.225
0.225 -53.925 0.075
0.225 -53.925 1.275
3.225 -49.425 2.175
0.375 -52.575 -1.575
3.675 -58.275 0.375
0.375 -54.975 1.275
0.375 -54.975 -1.425
0.975 -51.225 -2.175
0.225 -53.475 1.275
0.975 -56.325 0.825
0.975 -56.325 0.525
1.575 -50.475 0.225
1.575 -57.075 0.675
1.725 -50.325 -3.075
1.725 -50.325 -1.275
1.725 -50.325 -0.225
0.225 -53.325 2.625
1.275 -50.775 0.225
1.875 -50.175 -0.225
1.875 -50.175 0.975
0.675 -51.675 -0.225
0.675 -55.875 0.225
3.525 -49.275 -0.675
0.375 -52.425 2.025
0.375 -55.125 1.575
0.375 -55.125 2.325
0.375 -55.125 0.225
0.375 -52.425 -0.075
0.375 -52.425 -1.725
2.475 -49.725 3.375
0.525 -51.975 -0.225
0.825 -51.375 0.975
0.225 -54.525 1.125
2.025 -50.025 -0.375
2.025 -50.025 2.175
0.225 -52.875 1.275
0.225 -54.675 2.025
0.375 -55.275 0.675
0.375 -52.275 0.525
0.975 -56.475 -0.525
2.625 -49.575 -1.875
0.675 -56.025 0.675
0.675 -56.025 0.525
0.525 -51.825 0.225
0.525 -51.825 -0.225
5.925 -49.125 0.525
0.525 -55.725 -2.175
0.225 -54.825 -1.275
0.225 -54.825 0.975
0.225 -54.825 1.275
1.575 -50.325 -2.925
1.575 -50.325 -0.075
1.425 -50.475 0.225
1.425 -50.475 -2.475
1.575 -57.225 -0.225
1.575 -57.225 1.125
1.425 -57.075 0.075
1.425 -57.075 1.125
1.275 -50.625 0.075
1.275 -50.625 -1.875
1.275 -56.925 0.975
1.725 -50.175 0.075
2.325 -49.725 2.025
0.825 -56.325 0.225
0.375 -52.125 -0.225
0.375 -52.125 0.525
0.075 -53.775 0.075
3.675 -49.125 -0.075
0.225 -52.575 -0.075
1.875 -50.025 0.075
1.875 -50.025 1.875
1.125 -56.775 0.375
1.875 -57.525 -0.225
0.225 -54.975 1.275
4.575 -48.975 2.475
0.075 -53.475 1.425
0.075 -54.075 1.725
0.075 -53.325 1.575
0.525 -51.675 -1.875
0.525 -51.675 1.125
0.525 -51.675 -0.225
0.675 -51.375 -0.525
0.675 -51.375 1.725
0.675 -56.175 1.725
0.075 -54.375 1.275
0.075 -53.175 1.725
0.225 -52.425 1.875
0.225 -52.425 -0.075
0.375 -51.975 0.525
0.375 -55.575 1.425
0.075 -53.025 1.425
0.825 -51.075 -2.025
0.825 -51.075 0.825
1.425 -57.225 -0.075
1.425 -57.225 0.825
5.775 -48.975 0.675
1.275 -50.475 -0.525
1.275 -50.475 0.225
1.275 -50.475 -0.375
0.075 -52.875 1.875
0.075 -54.675 2.025
1.575 -50.175 0.075
1.575 -50.175 -0.375
1.275 -57.075 1.875
1.275 -57.075 0.075
1.275 -57.075 0.225
0.225 -52.275 -1.425
0.225 -52.275 -0.075
1.125 -56.925 0.225
0.525 -51.525 -1.275
1.725 -50.025 0.075
1.725 -50.025 -0.375
1.725 -50.025 0.525
1.725 -57.525 0.525
0.375 -51.825 0.675
0.375 -51.825 -0.225
2.925 -49.275 -0.675
2.325 -49.575 3.675
0.075 -52.725 -1.875
0.075 -54.825 -1.425
1.875 -49.875 1.875
0.975 -56.775 0.225
0.225 -52.125 1.875
0.225 -52.125 -1.275
0.225 -55.425 4.425
0.075 -52.575 0.225
4.875 -48.825 2.025
-0.075 -53.775 -0.825
-0.075 -53.775 -0.375
-0.075 -53.625 0.225
0.825 -50.925 -2.025
-0.075 -53.475 -0.825
-0.075 -54.075 -1.575
2.775 -58.275 -0.375
4.275 -48.825 1.875
4.275 -48.825 2.475
1.275 -50.325 -0.375
3.525 -48.975 0.075
3.525 -48.975 4.125
-0.075 -53.175 -0.375
-0.075 -53.175 1.725
1.275 -57.225 1.875
2.175 -49.575 0.525
1.125 -50.475 -0.225
1.575 -50.025 -0.375
1.575 -50.025 0.075
1.575 -50.025 -0.225
1.125 -57.075 0.375
-0.075 -53.025 0.225
-0.075 -54.525 2.025
-0.075 -54.525 -1.575
-0.075 -54.525 0.975
1.725 -49.875 -0.375
1.725 -49.875 0.075
1.725 -49.875 -0.075
1.725 -57.675 1.125
0.075 -52.275 2.175
0.375 -51.525 0.975
0.375 -51.525 -0.375
0.375 -51.525 0.075
0.825 -56.775 0.225
1.875 -57.825 1.575
0.225 -55.725 -0.525
2.325 -49.425 3.375
0.525 -56.325 0.825
3.225 -48.975 -2.325
0.075 -55.425 1.575
0.075 -52.125 1.125
1.275 -57.375 0.075
1.275 -57.375 2.025
1.275 -57.375 1.425
1.425 -57.525 0.075
1.425 -50.025 0.075
1.425 -50.025 -0.075
1.425 -50.025 -0.375
1.125 -57.225 2.325
1.125 -57.225 1.275
1.125 -57.225 1.875
0.375 -51.375 -0.375
0.375 -51.375 0.975
2.475 -49.275 0.825
2.475 -58.275 0.975
-0.225 -53.625 0.225
-0.225 -53.625 -0.225
-0.225 -53.925 -0.975
-0.225 -53.925 -0.825
-0.225 -53.925 1.875
-0.225 -53.625 -0.825
0.225 -51.675 0.975
0.225 -51.675 -0.225
0.225 -51.675 -0.375
1.575 -57.675 0.975
1.575 -49.875 -0.375
1.575 -49.875 -1.575
1.575 -49.875 0.075
1.575 -49.875 -0.075
-0.225 -53.475 -0.225
-0.225 -54.075 0.075
4.575 -58.875 -1.575
0.975 -57.075 1.425
-0.225 -54.225 -1.575
2.175 -58.125 0.825
2.175 -58.125 1.725
3.525 -48.825 -1.275
1.725 -49.725 -0.075
0.825 -50.625 -1.875
-0.075 -52.425 1.875
-0.225 -53.175 1.575
-0.225 -53.175 -0.225
-0.225 -54.375 -1.575
-0.225 -53.175 0.075
-0.225 -54.375 -0.075
-0.225 -53.025 -0.225
0.675 -50.775 -0.225
0.225 -51.525 1.725
3.375 -48.825 -0.975
0.375 -56.325 0.975
3.975 -48.675 4.125
1.275 -57.525 0.975
1.275 -50.025 -0.375
1.275 -50.025 2.175
1.275 -50.025 0.075
1.125 -57.375 0.825
0.525 -50.925 1.425
2.025 -58.125 0.975
2.025 -58.125 1.575
2.025 -58.125 1.125
1.425 -49.875 0.075
0.975 -57.225 0.975
1.575 -49.725 0.375
1.575 -49.725 -3.225
0.825 -50.475 1.575
0.225 -56.175 0.825
0.225 -56.175 -5.475
-0.225 -52.575 -0.075
0.075 -55.875 -0.525
0.075 -55.875 -0.975
2.775 -58.575 -0.825
2.175 -58.275 0.975
2.175 -49.275 3.675
0.675 -56.925 0.675
-0.375 -53.775 -4.125
1.725 -57.975 1.575
-0.375 -53.625 -0.225
-0.375 -53.475 -0.225
-0.375 -53.325 -4.725
-0.375 -53.325 -1.575
-0.225 -52.425 1.275
0.525 -50.775 -1.875
0.525 -50.775 -0.225
-0.375 -53.175 -0.225
2.625 -48.975 2.475
0.075 -51.525 -0.225
0.075 -56.025 -0.975
0.075 -51.525 -0.375
1.125 -57.525 1.425
1.125 -57.525 0.075
-0.375 -53.025 -0.225
-0.375 -54.525 1.125
-0.375 -54.525 0.525
0.975 -57.375 0.675
2.925 -48.825 2.325
1.425 -49.725 0.075
1.425 -49.725 -0.375
0.825 -57.225 0.825
3.975 -48.525 2.325
-0.375 -54.675 -0.075
2.025 -58.275 1.125
5.775 -48.525 -0.075
1.575 -49.575 -0.525
1.575 -49.575 -0.075
1.575 -49.575 0.075
1.575 -57.975 0.225
-0.375 -52.725 -1.575
-0.375 -52.725 -1.425
-0.375 -54.825 -0.225
-0.375 -54.825 0.525
-0.225 -52.125 1.425
-0.225 -52.125 1.125
-0.225 -55.425 -0.825
0.075 -51.375 -0.825
0.075 -56.175 1.725
1.725 -49.425 -0.075
1.725 -58.125 0.525
2.175 -49.125 3.525
-0.075 -51.675 0.075
3.675 -48.525 -2.175
-0.375 -54.975 0.675
-0.375 -54.975 0.525
-0.525 -53.775 -0.375
-0.525 -53.775 0.075
-0.525 -53.925 0.075
5.175 -48.375 0.075
0.375 -50.775 0.225
0.375 -50.775 -0.075
1.125 -57.675 0.825
1.125 -57.675 0.525
0.975 -57.525 0.075
1.275 -49.725 0.075
4.425 -59.175 -1.875
-0.525 -54.225 -2.175
0.825 -50.175 -1.725
0.825 -50.175 -1.875
-0.375 -52.425 -0.075
-0.375 -55.125 0.375
-0.375 -55.125 1.275
-0.375 -55.125 0.525
-0.525 -53.175 1.425
-0.525 -54.375 0.675
-0.525 -54.375 1.275
1.425 -49.575 -0.075
1.425 -49.575 0.075
0.675 -50.325 1.425
0.675 -50.325 -1.875
0.075 -51.225 0.075
0.675 -57.225 0.975
0.675 -57.225 -0.075
-0.075 -51.525 -0.225
5.625 -48.375 0.075
-0.525 -54.525 1.125
-0.525 -54.525 0.675
2.025 -58.425 1.425
0.525 -50.475 -2.325
-0.375 -52.275 -0.075
1.575 -49.425 -0.075
1.575 -58.125 0.375
-0.525 -54.675 0.975
-0.525 -54.675 0.675
0.375 -50.625 -0.075
1.725 -49.275 -0.525
3.825 -48.375 0.675
-0.075 -56.175 1.425
-0.075 -56.175 1.275
-0.075 -51.375 -0.225
-0.075 -51.375 -0.375
-0.525 -54.825 1.425
-0.525 -54.825 0.825
-0.525 -54.825 0.225
-0.525 -54.825 1.125
-0.525 -54.825 0.675
-0.525 -54.825 -0.225
-0.375 -55.425 0.225
-0.225 -51.675 -0.675
2.775 -58.875 0.225
1.125 -49.725 -2.325
0.825 -57.525 0.075
0.825 -50.025 -2.025
0.825 -50.025 2.625
1.125 -57.825 0.675
1.275 -49.575 -0.075
1.275 -49.575 -2.775
-0.525 -52.575 -0.225
0.675 -50.175 -0.225
0.675 -50.175 -2.025
0.675 -50.175 1.275
-0.525 -54.975 1.125
-0.525 -54.975 0.975
-0.525 -54.975 0.375
-0.525 -54.975 1.425
-0.525 -54.975 0.825
0.225 -50.775 -0.075
0.525 -50.325 0.375
-0.675 -53.925 -0.075
1.425 -58.125 0.675
1.425 -58.125 0.375
-0.675 -54.075 0.225
-0.525 -52.425 0.225
-0.525 -52.425 -1.725
-0.525 -55.125 0.975
-0.525 -52.425 -0.075
-0.075 -51.225 -0.375
-0.075 -56.325 1.275
-0.225 -51.525 -0.225
2.625 -48.675 -5.025
0.375 -50.475 3.075
1.575 -49.275 -0.075
0.375 -57.075 0.825
4.275 -48.225 -2.775
-0.675 -54.375 -2.175
0.075 -56.625 -0.825
0.075 -50.925 0.675
-0.675 -53.025 -0.825
-0.675 -53.025 1.725
3.375 -59.175 2.025
3.375 -59.175 0.675
-0.525 -52.275 -0.075
0.225 -56.925 -3.675
0.975 -49.725 -2.325
0.825 -49.875 2.475
-0.675 -54.675 1.275
-0.675 -54.675 -0.075
-0.675 -52.875 -1.425
0.975 -57.825 0.075
0.975 -57.825 0.375
1.125 -49.575 -0.075
0.675 -50.025 -1.275
1.125 -57.975 -0.075
-0.225 -51.375 -0.225
-0.225 -56.175 1.275
-0.225 -56.175 1.125
3.225 -48.375 0.825
-0.525 -52.125 -0.075
-0.525 -55.425 0.225
0.525 -50.175 -1.875
0.525 -50.175 -0.075
3.825 -48.225 -1.725
3.825 -48.225 0.375
-0.675 -52.725 -2.025
-0.675 -54.825 1.575
-0.675 -54.825 0.375
-0.375 -55.875 1.725
-0.375 -55.875 0.375
0.075 -56.775 1.425
1.425 -49.275 -0.525
1.425 -49.275 -0.375
1.425 -49.275 -0.075
1.425 -58.275 0.375
1.425 -58.275 0.825
-0.675 -52.575 -0.075
-0.675 -54.975 1.425
3.075 -59.175 0.525
-0.825 -53.775 0.225
-0.825 -53.775 0.075
0.225 -50.475 -3.825
1.575 -58.425 -0.225
1.575 -49.125 -0.375
-0.825 -53.625 3.525
-0.825 -53.925 0.225
-0.825 -53.925 0.075
-0.825 -53.475 0.075
-0.825 -54.075 0.075
2.025 -48.825 2.625
2.625 -48.525 0.975
2.625 -48.525 1.125
-0.675 -55.125 1.125
-0.675 -52.425 -0.075
-0.375 -51.525 1.275
-0.075 -50.925 -0.225
0.825 -57.825 -0.075
0.825 -57.825 1.575
5.475 -48.075 -1.425
0.675 -57.675 0.075
0.675 -49.875 -3.675
0.675 -57.675 1.875
-0.825 -54.375 0.075
-0.525 -51.825 -0.075
-0.525 -51.825 -0.375
-0.525 -55.725 0.375
0.525 -50.025 -0.075
0.525 -50.025 1.275
0.525 -50.025 -1.875
0.525 -50.025 -2.475
0.525 -57.525 0.975
-0.675 -52.275 -0.075
-0.825 -53.025 -1.275
1.275 -49.275 -0.075
1.275 -49.275 -0.525
1.275 -58.275 0.075
0.375 -50.175 1.275
0.375 -50.175 -0.075
-0.825 -54.675 -0.975
-0.825 -54.675 0.675
-0.825 -54.675 -1.125
1.425 -58.425 0.825
1.425 -58.425 0.225
3.225 -59.325 0.525
-0.825 -52.725 -2.025
-0.825 -52.725 -0.075
3.675 -59.475 0.825
0.075 -57.075 0.975
0.075 -57.075 1.125
1.575 -58.575 -0.525
3.075 -48.225 0.975
0.675 -49.725 -0.375
0.675 -49.725 0.525
0.825 -57.975 1.125
2.325 -48.525 0.525
0.525 -49.875 1.725
0.525 -49.875 1.425
0.525 -49.875 -2.325
0.525 -57.675 0.675
-0.225 -56.625 -0.675
-0.225 -50.925 -0.225
-0.225 -50.925 -2.175
2.025 -48.675 2.775
2.025 -48.675 0.525
2.025 -48.675 -0.975
0.975 -58.125 0.825
2.625 -48.375 0.975
2.625 -48.375 0.675
2.625 -48.375 2.025
-0.975 -53.775 -0.075
-0.975 -53.775 0.075
-0.975 -53.775 0.225
-0.525 -56.025 0.375
-0.525 -56.025 -3.225
-0.975 -53.925 0.075
-0.975 -53.925 0.225
-0.975 -53.625 -5.175
-0.975 -53.625 -5.025
-0.975 -53.625 0.075
-0.975 -54.075 0.225
1.125 -49.275 0.525
1.125 -58.275 0.825
-0.825 -55.125 0.825
-0.825 -55.125 -1.275
-0.825 -55.125 1.275
-0.825 -55.125 -1.125
-0.825 -52.425 0.375
-0.825 -52.425 0.525
5.175 -47.925 2.925
4.575 -47.925 -5.025
-0.975 -54.225 -0.975
1.275 -49.125 0.225
-0.975 -54.375 0.225
-0.975 -54.375 1.875
0.225 -50.175 -2.475
0.225 -50.175 1.425
-0.975 -54.525 0.525
-0.975 -54.525 0.675
-0.975 -54.525 -0.975
2.175 -48.525 2.925
2.475 -48.375 0.825
2.475 -48.375 1.275
2.475 -48.375 1.575
2.475 -48.375 1.425
0.075 -57.225 0.975
1.425 -58.575 0.975
-0.225 -56.775 -1.575
-0.225 -50.775 0.225
-0.225 -50.775 -0.225
1.875 -48.675 3.525
1.875 -58.875 1.575
-0.975 -54.675 1.425
-0.975 -54.675 1.275
-0.975 -54.675 0.825
-0.975 -54.675 1.575
-0.975 -52.875 -5.325
-0.825 -55.425 -0.975
0.675 -49.575 2.475
0.525 -49.725 -0.375
0.525 -49.725 0.075
-0.975 -52.725 1.425
1.575 -58.725 1.875
1.575 -58.725 -5.925
1.575 -58.725 0.525
0.375 -49.875 -1.875
0.975 -49.275 0.075
0.975 -58.275 0.525
2.325 -48.375 -0.225
-0.525 -51.225 2.175
2.325 -59.175 2.625
-0.975 -54.975 -0.825
-0.975 -54.975 -0.525
-0.975 -54.975 1.275
3.675 -47.925 1.425
1.125 -49.125 -3.225
1.125 -49.125 0.225
1.125 -58.425 0.825
-0.375 -50.925 -0.225
-0.375 -50.925 -0.075
-0.375 -56.625 0.975
2.625 -48.225 1.275
2.625 -48.225 0.975
2.625 -48.225 1.425
-0.675 -56.025 0.675
-0.675 -56.025 0.375
-0.225 -56.925 -0.975
-0.225 -56.925 0.375
-1.125 -53.775 0.225
-1.125 -53.775 0.675
-1.125 -53.775 0.825
1.275 -58.575 0.975
-1.125 -53.925 -0.075
-1.125 -53.925 0.075
-1.125 -53.925 0.525
-1.125 -53.925 0.825
-1.125 -53.925 0.375
-1.125 -53.925 0.225
-0.975 -55.125 -0.975
3.525 -47.925 1.875
-1.125 -54.075 -1.125
-1.125 -54.075 -0.075
-1.125 -54.075 0.525
-1.125 -54.075 0.225
2.925 -48.075 1.275
2.925 -59.475 0.525
2.175 -48.375 -0.075
2.175 -48.375 0.525
2.175 -48.375 1.275
2.475 -48.225 0.825
2.475 -48.225 0.525
2.475 -48.225 1.425
-0.375 -50.775 -0.225
-1.125 -53.025 -1.275
-1.125 -53.025 -1.125
1.875 -59.025 0.075
0.675 -58.125 1.575
0.825 -58.275 0.225
0.825 -58.275 0.525
0.375 -57.825 2.325
-1.125 -54.675 0.375
-1.125 -54.675 -1.275
0.225 -49.875 1.875
0.225 -49.875 2.775
0.225 -49.875 1.125
0.975 -58.425 1.725
2.775 -48.075 2.625
-0.225 -50.475 -1.425
-0.225 -50.475 1.425
1.575 -58.875 1.875
1.575 -58.875 0.375
3.225 -59.625 -0.075
-1.125 -54.825 -1.275
1.125 -58.575 0.975
1.125 -58.575 0.825
-0.525 -56.625 0.075
2.325 -48.225 1.575
-0.975 -55.575 -1.425
-0.075 -50.175 1.875
-0.975 -55.575 -3.375
3.075 -59.625 -2.625
3.075 -59.625 1.875
-0.375 -50.625 0.825
1.725 -59.025 0.375
1.725 -59.025 -5.925
2.625 -48.075 1.125
2.625 -48.075 0.975
-0.825 -56.025 -0.075
-1.125 -55.125 1.275
-1.275 -53.925 0.225
-1.275 -53.625 0.525
0.525 -49.425 -0.525
0.525 -49.425 -0.225
0.375 -49.575 1.275
0.375 -49.575 -2.475
0.375 -49.575 -0.075
0.375 -49.575 -0.225
0.675 -49.275 -0.075
-1.275 -54.075 0.375
1.425 -58.875 -0.075
0.225 -49.725 1.725
0.825 -58.425 1.575
0.825 -58.425 0.225
-0.975 -55.725 -1.575
2.175 -48.225 -0.075
2.175 -48.225 0.525
2.175 -48.225 1.275
2.175 -48.225 0.825
-0.675 -56.475 0.225
2.475 -48.075 1.275
2.475 -48.075 0.525
2.475 -48.075 0.825
0.075 -49.875 1.275
-1.125 -52.275 -1.275
-0.375 -57.075 1.275
-0.375 -57.075 1.725
1.125 -48.825 0.225
1.125 -58.725 1.575
1.125 -58.725 0.825
3.975 -47.625 0.225
-0.975 -55.875 -1.875
-0.975 -55.875 0.525
2.025 -48.225 -0.075
-0.675 -56.625 0.075
-1.275 -54.825 0.225
-0.225 -50.175 -1.575
-0.225 -57.375 0.675
-0.225 -57.375 1.875
1.275 -58.875 1.575
2.325 -48.075 0.825
2.325 -48.075 1.575
1.725 -59.175 0.075
1.725 -59.175 0.675
-0.525 -50.625 -0.375
-1.125 -55.575 -2.175
0.225 -49.575 0.075
0.225 -49.575 -0.225
0.675 -58.425 1.575
0.675 -58.425 0.225
-1.275 -54.975 -0.225
-0.975 -56.025 0.675
2.625 -47.925 0.675
2.625 -47.925 1.125
0.075 -49.725 0.075
0.825 -58.575 0.075
0.825 -58.575 0.225
1.425 -59.025 0.225
1.425 -59.025 0.375
-0.375 -57.225 1.875
0.975 -58.725 0.075
2.175 -48.075 1.275
2.175 -48.075 -0.075
2.175 -48.075 0.525
2.175 -48.075 3.225
-0.825 -51.075 -0.675
-1.425 -53.475 0.375
-1.425 -54.075 -2.325
-1.425 -54.075 -0.075
-0.675 -56.775 0.075
-0.675 -56.775 0.525
6.825 -47.775 2.925
1.875 -59.325 0.675
-1.425 -53.325 -0.375
-1.425 -54.225 0.075
-0.975 -51.375 -0.225
2.475 -47.925 2.325
-0.525 -50.475 -0.525
-0.525 -50.475 -0.375
1.575 -59.175 1.125
1.575 -59.175 0.525
1.575 -48.375 0.525
-1.425 -54.375 1.125
-0.525 -57.075 1.875
-0.525 -57.075 2.175
3.375 -59.925 0.975
-1.275 -52.275 -0.225
1.125 -58.875 1.725
2.775 -47.775 0.375
0.375 -49.275 0.075
0.375 -49.275 -0.525
-0.375 -57.375 1.875
0.525 -58.425 -0.075
0.225 -49.425 0.375
0.225 -49.425 -3.675
2.025 -48.075 -0.075
-0.825 -56.625 0.075
-0.825 -50.925 -0.825
2.025 -59.475 2.175
2.025 -59.475 0.675
0.075 -49.575 -1.875
0.675 -48.975 1.725
0.675 -58.575 -0.375
1.725 -48.225 1.725
-0.975 -51.225 -0.675
-0.975 -51.225 -0.525
-0.675 -56.925 1.425
-0.675 -50.625 0.975
-0.675 -50.625 -0.375
-0.675 -50.625 0.075
2.325 -47.925 1.725
2.325 -47.925 0.525
2.325 -47.925 0.825
1.725 -59.325 1.275
1.725 -59.325 0.375
1.425 -59.175 0.675
1.425 -59.175 1.275
-1.275 -51.975 -0.225
-1.275 -51.975 0.225
7.125 -47.775 1.875
-0.525 -57.225 1.575
-1.275 -55.575 0.975
-0.225 -57.675 1.875
1.875 -48.075 -0.075
-0.825 -56.775 1.725
1.875 -59.475 0.975
-0.975 -51.075 -0.525
-1.425 -52.425 -0.375
2.175 -47.925 0.525
-1.575 -53.775 0.375
-1.575 -53.775 0.525
-1.575 -53.625 0.375
-1.575 -53.625 0.225
-1.575 -53.925 0.075
-1.575 -53.925 -0.075
-0.375 -50.025 0.075
-0.375 -50.025 -1.425
-0.375 -57.525 1.425
-0.675 -50.475 -0.375
-0.675 -50.475 -0.525
-1.575 -53.475 0.075
1.575 -59.325 0.525
-1.575 -53.325 0.225
0.375 -49.125 -0.375
0.375 -49.125 -3.825
0.225 -49.275 2.925
0.225 -49.275 -0.375
0.225 -49.275 1.275
0.225 -49.275 2.475
0.225 -58.275 -0.225
-1.425 -52.275 -0.375
0.525 -48.975 1.725
0.525 -48.975 -0.675
-1.575 -53.175 0.375
0.075 -49.425 -1.125
0.075 -49.425 0.075
0.075 -58.125 1.125
-0.075 -49.575 0.075
-0.075 -57.975 -0.525
-0.975 -50.925 -0.375
-0.975 -50.925 -0.225
-0.975 -50.925 0.075
5.775 -47.325 1.725
-0.225 -49.725 0.675
-1.425 -52.125 -0.375
-1.425 -52.125 -0.225
-0.825 -50.625 0.825
0.825 -48.675 1.875
-0.225 -57.825 2.025
2.325 -47.775 1.575
-0.675 -57.225 -2.925
-0.375 -49.875 -0.225
-0.375 -49.875 -1.275
0.975 -59.025 0.675
0.975 -59.025 0.825
0.975 -59.025 0.975
-1.575 -52.575 -2.625
1.125 -59.175 1.125
1.125 -48.375 0.375
-0.975 -50.775 -0.075
-0.975 -56.775 1.275
-0.975 -56.775 0.525
-0.525 -50.025 -2.025
1.875 -59.625 0.225
0.225 -49.125 -0.375
0.225 -49.125 2.625
-1.125 -51.075 -0.375
2.175 -47.775 0.525
0.075 -49.275 2.175
-1.125 -56.475 -0.375
0.375 -58.575 0.825
1.575 -48.075 0.375
1.575 -59.475 0.675
0.525 -48.825 0.225
-1.725 -53.775 0.525
-1.725 -53.775 -0.075
-1.725 -53.925 -0.225
-0.225 -49.575 -1.875
-0.225 -49.575 0.825
-1.725 -53.475 0.075
-1.725 -53.475 0.375
4.575 -47.175 1.275
-1.725 -53.325 0.375
-0.375 -49.725 -1.275
-0.375 -49.725 0.675
0.825 -59.025 0.825
-1.425 -55.875 -0.075
-1.125 -50.925 -0.375
-0.975 -50.625 0.225
-0.975 -50.625 -0.375
-1.575 -52.125 0.075
0.975 -59.175 0.825
0.975 -59.175 0.975
-0.525 -57.675 -0.825
-0.525 -49.875 -0.825
-0.825 -50.325 -2.625
1.425 -59.475 -0.225
0.225 -48.975 -3.675
-1.725 -52.725 -0.825
0.075 -49.125 -0.375
3.825 -47.175 -4.425
0.375 -48.825 -0.525
-1.425 -56.025 0.075
-1.575 -55.575 0.075
-0.675 -57.525 1.725
1.125 -59.325 1.425
1.125 -59.325 0.825
0.525 -48.675 4.275
-0.225 -58.125 1.875
-1.725 -52.575 -0.225
1.875 -59.775 0.375
3.675 -47.175 -2.625
-0.975 -50.475 -0.525
-1.275 -51.075 0.225
-1.275 -51.075 -0.525
1.575 -47.925 1.875
1.575 -47.925 2.925
-1.275 -56.475 0.675
-0.375 -49.575 -0.825
-1.725 -52.425 -4.725
-1.575 -51.825 0.075
-1.575 -55.725 0.075
1.275 -48.075 2.475
2.475 -47.475 -0.075
-1.425 -56.175 0.225
-0.825 -57.375 1.725
-1.875 -53.775 -4.575
-1.875 -53.925 0.375
-1.875 -53.925 0.525
-1.875 -53.925 0.225
-1.875 -53.925 1.425
-1.875 -53.625 0.225
-1.875 -53.625 0.375
-1.875 -53.475 0.075
-1.875 -54.075 0.225
-1.875 -54.075 1.575
-1.875 -53.325 -0.075
-1.875 -54.225 -4.275
-1.125 -50.625 0.375
-1.125 -50.625 0.525
-1.125 -56.925 0.675
-1.875 -53.175 0.075
-1.275 -56.625 1.575
-1.275 -56.625 1.425
-0.675 -57.675 -0.825
-0.675 -49.875 -0.975
-1.575 -55.875 -0.225
2.775 -60.225 -0.675
-0.975 -50.325 -0.975
1.425 -47.925 0.675
1.425 -47.925 0.375
2.325 -47.475 0.675
2.325 -47.475 2.025
-1.425 -51.225 -0.675
-1.425 -51.225 -0.825
-1.425 -56.325 0.525
-1.425 -56.325 1.725
0.375 -48.675 -0.525
0.375 -48.675 0.075
0.375 -48.675 1.125
3.225 -47.175 1.875
-0.375 -49.425 -2.625
-0.825 -57.525 -0.075
1.125 -59.475 -0.075
1.125 -59.475 1.275
1.125 -59.475 0.675
5.925 -47.025 1.575
-0.525 -49.575 -1.425
-0.525 -49.575 1.125
-0.525 -57.975 -1.725
-1.275 -50.775 0.075
-1.275 -50.775 0.225
-1.275 -56.775 1.425
1.575 -47.775 2.775
-1.875 -52.575 -0.375
-0.975 -50.175 -0.975
-0.975 -50.175 -1.425
-0.975 -57.375 1.875
-0.675 -49.725 0.975
-0.675 -57.825 -0.225
-1.575 -56.175 0.225
-0.075 -58.575 1.125
-2.025 -53.775 0.525
-2.025 -53.775 0.225
-0.225 -49.125 2.475
-0.225 -49.125 2.175
-2.025 -53.625 -4.275
-2.025 -53.925 0.525
-2.025 -54.075 0.225
0.975 -59.475 0.075
0.975 -59.475 0.225
1.725 -47.625 0.825
1.725 -59.925 -0.225
-0.375 -49.275 2.175
0.375 -48.525 0.225
-1.425 -50.925 0.075
-1.425 -56.625 0.825
-1.125 -50.325 -0.075
-1.125 -50.325 -2.175
1.425 -59.775 0.075
-2.025 -53.175 -0.075
-2.025 -53.175 0.225
2.325 -47.325 1.725
-1.575 -51.225 -1.125
-1.575 -51.225 0.675
-0.975 -50.025 0.525
1.125 -59.625 1.275
2.625 -47.175 -0.825
1.875 -47.475 2.475
-1.425 -50.775 0.075
1.875 -60.075 0.375
1.575 -59.925 -0.075
3.075 -47.025 -2.775
2.175 -47.325 0.525
2.175 -47.325 -1.725
0.825 -59.475 0.375
0.825 -59.475 0.225
0.825 -59.475 -0.375
-0.825 -57.825 0.225
-0.825 -57.825 -0.225
1.275 -59.775 -0.075
-1.125 -50.175 0.825
-2.025 -52.575 -0.225
-0.375 -49.125 2.625
-0.375 -58.425 -1.125
0.225 -48.525 -0.375
2.475 -47.175 2.025
0.375 -48.375 -0.375
-0.975 -57.675 -0.075
-0.975 -57.675 1.725
0.975 -47.925 -0.825
0.975 -47.925 0.825
0.975 -59.625 0.975
0.975 -59.625 0.075
-1.425 -56.925 1.725
1.725 -60.075 -0.225
4.875 -46.725 2.325
2.025 -47.325 -1.425
5.025 -46.725 2.625
1.425 -47.625 2.175
1.425 -47.625 0.825
1.425 -47.625 -1.125
1.425 -59.925 0.375
1.425 -59.925 0.225
-2.175 -53.925 -0.825
-2.175 -53.925 -1.125
-2.175 -53.925 0.225
-2.175 -53.925 -0.375
-1.575 -50.925 0.075
5.175 -46.725 2.175
-2.175 -53.475 0.075
-2.175 -54.075 0.075
-2.175 -54.075 -0.975
-2.175 -54.075 0.225
-2.175 -53.325 0.075
-2.175 -54.225 -0.525
2.775 -47.025 -1.275
-1.725 -51.225 -0.675
-1.125 -50.025 0.375
-1.125 -50.025 -0.975
-1.125 -50.025 -0.675
1.125 -47.775 -2.625
-2.175 -53.175 0.075
2.325 -47.175 0.375
0.675 -48.075 -2.925
-0.825 -49.575 0.525
-0.825 -57.975 1.425
0.675 -59.475 0.225
-0.225 -48.825 0.975
-0.075 -58.875 -0.075
1.575 -60.075 0.525
1.875 -47.325 0.075
1.875 -47.325 -1.725
-1.575 -50.775 0.225
1.875 -60.225 0.375
-0.975 -49.725 0.525
-1.875 -51.525 0.225
2.625 -47.025 0.525
0.825 -47.925 -0.225
0.825 -59.625 -0.225
0.825 -59.625 1.275
0.825 -59.625 0.375
0.225 -48.375 0.675
1.275 -59.925 0.375
1.275 -59.925 0.975
-1.275 -50.175 0.975
-1.275 -50.175 -1.575
-1.275 -50.175 -1.725
2.175 -60.375 1.425
-2.025 -55.575 0.075
0.375 -48.225 -3.075
-0.675 -49.275 -1.725
-0.675 -58.275 1.725
-1.125 -49.875 1.125
0.975 -47.775 4.725
0.975 -59.775 0.825
-1.875 -51.375 -0.525
0.525 -48.075 -0.225
-0.825 -49.425 0.825
-0.825 -49.425 0.525
1.725 -47.325 1.125
1.725 -47.325 2.025
1.425 -47.475 2.175
1.425 -47.475 1.575
1.425 -60.075 -1.425
-1.725 -50.925 0.225
-1.725 -56.625 0.675
2.025 -47.175 0.525
2.025 -47.175 -0.075
2.025 -60.375 2.775
-0.975 -49.575 0.525
-0.975 -49.575 -0.675
-2.325 -53.925 -0.675
-2.325 -53.925 0.675
-2.325 -53.925 0.825
0.675 -47.925 -0.225
0.675 -59.625 1.875
-0.975 -57.975 -2.025
-2.325 -53.475 0.075
-2.325 -54.075 -0.675
-2.325 -54.075 -0.375
-2.325 -54.075 -0.075
3.375 -60.825 0.825
-2.325 -54.225 -0.975
-2.325 -54.225 -0.225
-0.375 -48.825 1.275
-0.375 -48.825 0.675
-0.375 -58.725 1.275
4.275 -46.575 2.325
-0.525 -48.975 0.675
-0.525 -48.975 5.775
0.075 -48.375 -0.375
0.075 -48.375 -2.475
4.125 -46.575 1.275
-1.125 -49.725 0.225
0.825 -59.775 1.125
3.225 -46.725 -1.425
0.225 -48.225 2.775
3.225 -60.825 1.425
1.575 -47.325 1.125
1.275 -47.475 -1.275
2.625 -46.875 -1.125
2.625 -46.875 3.525
-2.025 -56.025 -0.075
-0.825 -49.275 -1.125
2.175 -47.025 0.075
-1.875 -56.475 -4.125
3.825 -46.575 -4.725
-2.325 -54.825 1.275
0.975 -59.925 1.275
0.525 -47.925 -0.375
-0.975 -49.425 0.675
1.425 -47.325 2.025
1.425 -60.225 0.975
-0.375 -48.675 0.825
-0.375 -48.675 -0.075
-1.125 -49.575 0.075
0.675 -47.775 0.225
0.675 -47.775 0.075
2.025 -47.025 -0.975
2.025 -47.025 -0.225
0.075 -48.225 -0.675
5.025 -46.425 2.325
-2.475 -53.475 0.075
-1.275 -49.725 -0.675
0.825 -47.625 1.275
0.825 -59.925 1.125
-2.475 -53.325 0.075
-2.475 -53.175 0.075
-0.975 -49.275 0.525
-0.975 -49.275 0.075
0.375 -59.625 1.725
1.275 -47.325 2.175
1.275 -47.325 2.025
1.875 -60.525 2.175
4.125 -46.425 1.575
0.975 -47.475 -1.275
0.975 -47.475 -1.425
-1.425 -49.875 -1.125
-2.025 -51.075 -0.375
0.975 -60.075 0.675
0.975 -60.075 1.275
0.525 -47.775 -0.375
-1.125 -49.425 -0.675
-0.375 -48.525 0.075
-0.375 -48.525 -0.675
-0.375 -59.025 -1.125
-0.525 -48.675 0.975
-0.525 -48.675 -0.675
-0.525 -58.875 -1.125
-1.275 -49.575 2.175
-1.275 -49.575 0.075
-1.275 -49.575 0.375
0.675 -47.625 0.825
0.675 -47.625 0.375
0.675 -47.625 -0.225
1.425 -47.175 1.875
1.425 -47.175 -2.175
1.425 -47.175 0.075
1.425 -60.375 -4.425
1.425 -60.375 0.525
-0.825 -48.975 -0.675
-0.825 -48.975 0.675
-0.825 -48.975 -0.825
-0.825 -58.575 -0.075
-0.825 -58.575 0.975
1.125 -60.225 1.275
-2.025 -50.925 -0.075
-0.975 -58.425 -0.075
3.525 -46.425 0.075
0.825 -47.475 1.275
0.825 -47.475 1.725
0.825 -47.475 2.625
0.825 -47.475 -1.425
0.825 -60.075 0.525
-1.125 -49.275 0.525
-1.125 -49.275 0.375
0.375 -47.775 -0.375
5.025 -46.275 1.125
5.025 -46.275 1.275
4.725 -46.275 2.175
3.375 -46.425 -2.625
1.575 -47.025 2.325
1.575 -47.025 0.525
1.875 -46.875 -0.825
0.525 -47.625 -0.225
0.525 -47.625 0.225
-1.575 -49.875 0.225
-0.675 -48.675 1.875
-0.675 -58.875 -1.125
0.975 -60.225 0.525
-0.225 -59.325 2.325
2.625 -46.575 0.375
2.175 -46.725 2.025
-0.825 -58.725 1.125
-0.975 -48.975 -2.175
-0.975 -48.975 0.375
-0.975 -48.975 0.675
0.075 -59.625 0.075
3.075 -46.425 -1.725
-0.975 -58.575 0.375
-0.975 -58.575 -0.075
0.675 -47.475 4.725
-1.425 -49.575 -1.275
-1.425 -49.575 0.225
-1.425 -49.575 0.375
-1.425 -49.575 -1.125
0.675 -60.075 0.525
0.675 -60.075 0.975
3.825 -46.275 1.575
-1.125 -49.125 -0.075
-1.125 -49.125 0.075
-1.725 -57.525 0.225
1.125 -47.175 1.875
2.025 -46.725 -1.125
-2.475 -55.725 0.225
-2.175 -56.625 0.525
-2.175 -50.925 -0.375
2.025 -60.825 2.325
2.025 -60.825 2.625
0.825 -47.325 1.275
-1.575 -49.725 0.825
0.825 -60.225 0.375
0.825 -60.225 0.975
0.825 -60.225 1.275
0.825 -60.225 1.575
3.525 -46.275 0.675
-1.275 -49.275 -0.825
-1.275 -49.275 2.025
-0.525 -48.375 1.725
-0.525 -48.375 0.825
-0.525 -59.175 1.575
2.325 -46.575 -0.075
-0.675 -48.525 0.075
-2.475 -55.875 -0.075
-0.825 -48.675 0.375
-0.825 -48.675 0.075
-0.825 -58.875 0.825
-0.225 -59.475 -1.425
-2.025 -57.075 1.275
4.875 -46.125 1.125
5.025 -46.125 1.125
0.525 -47.475 1.425
-2.775 -53.475 -0.825
-1.425 -49.425 1.725
0.525 -60.075 0.525
1.875 -46.725 -0.675
-0.975 -48.825 0.525
-0.975 -48.825 0.375
-2.775 -53.325 -0.375
-2.775 -53.325 0.075
-2.775 -53.325 -0.225
0.975 -60.375 0.525
-2.775 -53.175 0.075
3.225 -46.275 -2.325
-2.625 -52.125 -0.225
0.075 -59.775 -0.975
-1.125 -58.575 -0.075
-2.475 -56.025 -0.075
-2.775 -53.025 0.075
-2.775 -54.525 -3.525
2.625 -46.425 0.825
2.625 -46.425 0.225
0.675 -47.325 1.575
-1.575 -49.575 0.225
0.675 -60.225 1.575
0.675 -60.225 0.375
-2.775 -54.675 -3.525
0.225 -47.625 0.675
0.225 -59.925 -0.075
-1.275 -58.425 -0.075
-1.275 -58.425 0.375
-1.275 -49.125 0.075
-1.275 -49.125 0.225
1.725 -46.725 2.325
-2.175 -56.925 0.375
1.125 -47.025 -0.225
2.475 -46.425 -0.375
2.475 -46.425 0.525
0.375 -47.475 -0.225
-1.425 -58.275 -0.375
-0.525 -48.225 2.025
-0.525 -48.225 0.225
-2.325 -56.625 -3.675
-2.325 -50.925 -0.225
0.825 -47.175 1.275
0.825 -60.375 0.675
-0.525 -59.325 0.975
-0.825 -48.525 0.375
-0.825 -59.025 1.875
-2.625 -55.725 0.675
-0.975 -48.675 0.525
-0.975 -48.675 0.825
0.525 -47.325 -1.425
-1.575 -49.425 -1.275
-1.575 -58.125 0.075
2.325 -46.425 0.525
2.325 -46.425 1.125
1.275 -60.675 1.875
1.275 -46.875 2.025
-2.175 -57.075 0.225
-2.175 -57.075 0.525
2.775 -46.275 0.825
-1.875 -57.675 0.375
4.875 -45.975 1.125
-2.925 -53.775 -0.375
4.725 -45.975 2.625
-1.275 -48.975 0.375
-1.275 -48.975 0.075
-1.275 -48.975 0.525
-1.275 -48.975 -0.075
0.075 -47.625 0.075
-2.925 -53.625 -0.525
-2.925 -53.625 0.075
-2.925 -53.625 -0.375
-1.275 -58.575 0.375
