# .PCD v0.7 - Point Cloud Data file format
VERSION 0.7
FIELDS x y z
SIZE 4 4 4
TYPE F F F
COUNT 1 1 1
WIDTH 2048
HEIGHT 1
VIEWPOINT 0 0 0 1 0 0 0
POINTS 2048
DATA ascii
0.075 25.575 0.225
0.075 25.575 2.475
0.075 25.725 0.225
0.075 25.725 3.075
0.225 25.725 2.475
0.525 25.425 1.275
0.225 24.975 2.175
-0.075 25.725 0.225
-0.075 25.725 -0.975
-0.225 25.575 2.175
-0.225 25.725 2.175
0.075 25.875 0.675
0.225 25.875 3.075
0.225 25.875 0.225
-0.375 25.425 2.025
-0.225 24.975 2.625
-0.075 25.875 2.025
-0.075 25.875 2.175
0.075 24.825 2.175
0.375 25.875 0.375
-0.375 24.975 -0.825
0.225 26.025 2.025
0.225 26.025 0.075
0.225 26.025 2.325
0.225 26.025 0.225
0.225 26.025 0.375
-0.225 24.825 2.325
0.825 25.275 0.975
0.825 25.275 1.875
-0.525 25.725 -1.425
-0.525 24.975 -0.825
0.075 26.175 1.875
0.375 26.175 2.325
-0.675 25.125 2.625
-0.675 25.125 -1.125
0.075 24.525 0.075
0.075 24.525 0.225
0.975 25.125 0.975
-0.075 24.525 -0.225
-0.075 24.525 0.675
-0.075 24.525 0.075
-0.225 24.525 0.525
0.825 26.025 2.625
-0.675 25.875 2.025
0.225 26.325 1.725
0.675 26.175 1.875
-0.825 25.275 -1.125
0.975 25.875 -0.975
0.375 26.325 2.325
-0.675 24.825 -2.025
-0.825 25.575 2.025
-0.825 25.125 -0.975
-0.225 26.325 0.375
-0.075 24.375 0.075
-0.825 25.725 1.875
-0.675 26.025 0.375
-0.825 24.975 -1.125
0.825 26.175 2.475
1.125 24.975 0.825
-0.525 24.525 4.275
0.675 26.325 1.875
-0.975 25.425 1.875
-0.975 25.425 -1.275
-0.975 25.275 -1.125
1.275 25.425 0.975
1.275 25.275 0.975
1.275 25.575 0.975
-0.525 26.325 -0.825
-0.225 26.475 0.525
-0.225 26.475 1.725
0.975 26.175 1.575
1.275 25.125 0.975
1.275 25.125 1.575
-0.075 24.225 0.075
-0.075 24.225 2.625
-0.075 24.225 1.425
0.825 26.325 0.675
-0.825 24.675 2.325
1.275 25.725 -1.575
1.275 25.725 0.975
0.675 26.475 0.075
0.675 26.475 2.625
0.225 26.625 -0.225
0.975 26.325 1.725
1.125 26.175 -1.125
0.375 26.625 2.175
-0.525 26.475 1.575
-0.525 26.475 0.375
1.425 25.275 1.425
-0.225 24.075 2.475
-0.225 24.075 0.075
-0.675 26.475 1.875
-0.675 26.475 0.525
-0.975 24.525 2.325
0.375 26.775 -0.675
0.375 26.775 -0.525
0.825 26.625 0.675
1.575 25.425 2.325
-1.275 25.725 0.675
-0.825 26.475 1.875
-0.825 26.475 0.225
-0.975 26.325 1.875
-0.675 26.625 0.375
1.575 24.975 0.975
-1.275 25.875 -3.075
0.675 26.775 1.575
1.575 24.825 0.975
1.425 24.525 1.875
1.425 24.525 1.725
0.825 26.775 0.675
-0.075 26.925 1.275
-1.425 25.275 -1.875
-1.425 25.575 0.075
-0.825 26.625 0.525
1.125 26.625 1.875
1.125 26.625 -0.225
1.125 26.625 5.025
1.575 24.675 1.125
1.725 25.575 1.575
-1.425 25.725 0.075
-1.125 24.375 2.175
-1.125 24.375 2.025
-0.825 24.075 2.175
1.725 25.725 1.575
0.975 26.775 2.025
0.975 26.775 5.175
-1.425 25.875 -0.675
0.525 23.775 2.475
-0.975 26.625 0.675
0.825 26.925 1.425
0.825 26.925 1.125
0.825 26.925 0.825
-0.825 26.775 0.525
-1.125 24.225 4.125
-1.125 24.225 2.325
1.125 26.775 1.875
-1.575 25.275 -3.225
0.375 27.075 2.325
1.725 24.675 1.875
1.725 24.675 1.125
1.875 25.425 1.725
1.575 24.375 2.175
1.875 25.125 2.175
0.375 23.625 2.175
-0.975 26.775 0.375
1.275 26.775 0.075
-1.275 24.225 2.325
-1.275 24.225 -2.175
1.875 24.825 0.825
-0.375 23.625 2.325
0.825 27.075 0.825
0.825 27.075 0.525
1.125 26.925 1.875
1.575 24.225 2.175
-1.575 24.675 2.325
0.075 27.225 2.475
1.875 26.025 1.575
0.375 27.225 2.325
0.825 23.625 2.475
-1.125 26.775 1.725
-0.225 27.225 1.725
-1.275 26.625 1.875
2.025 25.275 1.875
0.975 27.075 0.825
-1.575 24.525 2.325
1.875 26.175 1.575
1.275 26.925 1.725
1.875 24.525 1.575
1.425 23.925 1.875
1.725 24.225 2.325
1.125 27.075 1.875
1.125 27.075 -3.225
1.875 26.325 1.425
-1.725 24.675 0.825
-1.125 26.925 1.575
-1.425 26.625 1.875
1.575 26.775 1.725
-0.075 27.375 1.875
-1.725 26.175 -0.975
-1.875 25.125 -0.225
0.975 27.225 1.875
0.975 27.225 2.175
0.975 27.225 2.325
-0.225 27.375 1.875
2.175 25.275 2.175
2.175 25.275 1.575
1.275 27.075 1.875
1.875 26.475 2.475
-0.375 27.375 1.875
2.025 24.525 1.275
-1.875 24.825 1.125
0.525 23.325 1.875
2.175 24.825 2.025
-1.125 27.075 0.675
1.425 27.075 1.725
2.175 24.675 1.875
-0.975 27.225 0.675
-1.875 26.175 0.225
0.975 27.375 2.625
-0.225 27.525 1.575
-1.875 24.525 1.875
2.325 25.425 2.175
2.325 25.275 0.225
-2.025 24.975 0.375
2.325 25.125 1.425
2.175 24.525 0.675
-0.375 27.525 -1.125
-0.375 27.525 -1.275
0.975 23.325 2.475
2.325 25.725 1.875
1.575 27.075 2.025
-2.025 24.825 0.375
-1.875 24.375 2.925
-0.525 27.525 2.325
2.325 24.825 0.825
2.325 24.825 0.675
-2.025 24.675 0.825
2.325 26.025 1.575
2.325 24.675 0.825
-0.675 27.525 1.425
0.075 27.675 -1.275
0.225 27.675 2.025
-2.025 26.175 -0.975
-2.025 26.175 0.975
-2.025 26.175 0.375
-0.075 27.675 2.175
-2.175 25.275 -0.375
-2.175 25.575 1.125
-2.025 24.525 0.825
-2.025 24.525 3.075
-2.025 24.525 1.725
-1.275 27.225 0.675
-0.225 27.675 2.775
-0.225 27.675 2.925
1.875 26.925 2.325
2.475 25.425 0.975
2.475 25.425 1.875
2.475 25.425 1.725
2.475 25.425 0.375
-2.175 25.725 0.225
2.475 25.275 0.675
1.575 27.225 0.525
2.475 25.575 0.525
2.325 24.525 1.725
2.475 25.125 1.875
-0.375 27.675 1.725
-0.375 27.675 1.425
-0.075 23.025 -1.425
-0.075 23.025 1.125
-2.025 26.325 0.375
2.475 25.725 1.875
-1.125 27.375 0.675
-2.175 25.875 0.375
-1.275 23.475 2.475
-1.875 26.625 0.375
2.475 24.975 1.875
2.475 24.975 2.025
-2.175 24.825 2.925
-2.175 24.825 0.375
1.425 27.375 2.025
2.475 25.875 1.725
-0.525 27.675 1.425
2.475 24.825 1.875
2.475 24.825 0.675
-2.175 26.025 1.275
2.325 24.375 0.075
-2.175 24.675 -0.375
-2.175 24.675 0.825
-1.425 27.225 0.675
2.475 26.025 1.575
2.475 24.675 2.325
0.975 27.675 2.025
-1.275 27.375 0.675
0.075 27.825 2.025
0.075 27.825 1.425
-1.875 26.775 -0.525
-1.725 23.775 -0.525
1.575 27.375 0.675
-2.175 24.525 1.875
-2.175 24.525 -0.375
-2.325 25.575 1.125
-2.325 25.125 1.125
-0.675 23.025 2.625
2.625 25.275 0.075
2.625 25.275 1.575
2.625 25.275 1.875
-2.325 24.975 0.825
2.625 25.575 0.525
2.625 25.575 1.875
-2.175 26.325 -0.825
2.625 25.125 1.875
0.075 22.875 0.675
0.225 22.875 0.675
0.225 22.875 0.825
1.425 27.525 2.175
-0.075 22.875 0.975
2.625 25.725 0.675
2.325 26.625 -0.375
-2.325 24.825 0.825
2.625 25.875 0.675
2.625 25.875 2.025
1.875 27.225 1.425
-2.325 26.025 -0.975
-2.325 26.025 0.075
-2.325 26.025 -0.375
2.625 24.825 0.675
-0.975 27.675 -3.225
-2.325 24.675 -4.875
-2.175 26.475 0.375
1.275 27.675 1.425
-1.875 23.775 -0.525
-1.275 27.525 0.675
-1.425 23.325 2.475
-2.175 24.225 1.725
1.575 27.525 1.275
0.075 27.975 1.275
2.625 26.175 -0.375
-2.475 25.575 -0.225
-2.475 25.125 0.075
-0.825 27.825 0.375
-1.575 27.375 0.525
1.425 27.675 0.075
-2.475 24.975 1.725
-2.475 24.975 1.575
2.775 25.575 0.975
0.075 22.725 0.375
0.225 22.725 0.675
-1.425 27.525 -3.075
-0.075 22.725 -1.275
2.775 25.725 0.975
2.625 26.325 -0.075
2.775 25.875 2.625
2.775 25.875 0.975
2.775 25.875 2.475
-2.475 26.025 -0.525
-2.325 26.475 -0.525
1.275 27.825 1.125
1.275 27.825 0.525
1.575 27.675 2.325
1.575 27.675 1.425
1.575 27.675 2.025
-2.325 24.225 0.825
0.975 27.975 1.125
-1.725 27.375 0.375
-2.475 24.525 0.525
2.025 27.375 1.725
2.775 26.175 6.525
-2.625 25.425 -2.625
-2.625 25.275 2.475
-2.625 25.275 2.775
1.425 27.825 2.175
1.425 27.825 0.225
1.425 27.825 0.525
2.775 24.525 -0.825
-0.825 27.975 0.375
-2.625 25.125 0.075
-1.425 27.675 2.325
1.125 27.975 1.125
2.625 26.625 0.075
-2.625 25.725 3.825
2.925 25.425 0.975
-2.625 24.975 -4.575
1.725 27.675 2.175
0.075 22.575 0.675
2.775 26.325 0.825
-0.075 22.575 -0.975
-0.075 22.575 -0.825
2.925 25.725 0.375
-2.625 24.825 1.725
-1.275 27.825 0.375
-2.475 26.475 1.725
1.275 27.975 1.125
1.275 27.975 0.225
1.575 27.825 2.025
1.575 27.825 0.375
1.575 27.825 0.225
2.925 24.825 0.525
-1.725 27.525 0.525
-0.375 22.575 -0.975
2.625 26.775 0.075
2.025 27.525 1.725
-2.625 26.175 -0.525
-2.625 26.175 3.975
-2.625 26.175 -1.875
1.875 27.675 0.375
1.875 27.675 -0.825
-2.625 24.525 0.525
-2.625 24.525 0.375
0.075 28.275 1.275
0.225 28.275 0.525
-2.775 25.275 2.925
-2.775 25.275 1.275
-2.775 25.275 3.075
-2.775 25.275 1.125
-2.775 25.575 1.125
1.725 27.825 2.325
-2.775 25.125 0.225
-2.775 25.725 -0.225
-1.125 22.725 2.175
0.075 22.425 0.825
-2.775 25.875 -0.375
-2.175 27.225 -0.225
-0.975 28.125 2.175
-0.225 22.425 -0.525
-2.775 24.675 0.975
-0.525 22.425 -0.525
-0.525 22.425 -0.675
-0.525 22.425 -0.825
-2.775 24.525 0.825
-2.775 24.525 0.375
1.425 28.125 0.975
3.075 26.175 -0.975
-2.025 27.525 2.775
0.225 28.425 1.125
-2.625 24.075 0.075
0.375 28.425 1.125
-2.925 25.125 -0.225
-2.925 25.125 1.275
-2.925 25.125 0.225
-2.925 25.125 -0.975
0.525 28.425 2.775
0.525 28.425 1.125
0.525 28.425 2.925
1.425 22.575 1.875
-2.925 25.725 -0.375
3.075 26.325 0.375
-1.275 28.125 0.225
2.025 27.825 1.125
2.025 27.825 0.675
0.675 28.425 2.775
1.575 28.125 1.725
2.925 26.775 0.225
1.875 27.975 1.425
3.075 26.475 0.525
0.675 22.275 -2.625
-0.675 28.425 0.975
-1.125 28.275 0.975
-2.925 26.175 -0.075
-1.875 27.825 -0.075
1.425 28.275 2.175
1.425 28.275 0.675
1.725 28.125 1.875
-2.925 24.525 0.075
-2.925 24.525 0.825
3.225 26.175 -0.075
3.225 26.175 -1.875
-2.025 23.025 3.075
-0.825 28.425 0.675
0.075 28.575 2.325
0.225 28.575 0.375
0.225 28.575 2.325
0.375 28.575 2.325
2.025 27.975 1.125
-3.075 25.275 0.375
-3.075 25.125 1.425
1.575 28.275 2.175
3.375 25.275 2.175
0.675 28.575 2.625
-0.975 28.425 0.675
1.875 28.125 1.125
1.875 28.125 0.825
-0.075 22.125 -2.625
-0.525 28.575 -0.525
3.375 25.875 0.675
-0.975 22.275 -1.575
3.375 26.025 0.375
3.375 26.025 0.975
-3.075 26.175 -0.225
-1.725 28.125 0.075
-3.075 24.525 -0.075
2.025 28.125 0.375
0.375 28.725 0.825
-1.725 22.575 -1.125
-3.075 24.375 -0.225
-3.075 24.375 0.825
-0.225 28.725 -1.425
-3.225 25.125 1.425
3.375 26.325 0.225
2.025 22.575 2.025
1.875 28.275 1.125
0.675 28.725 2.925
2.325 27.975 -2.025
0.075 21.975 0.975
0.225 21.975 1.125
-3.225 24.825 0.675
-3.225 24.825 0.525
3.375 26.475 0.225
3.225 26.925 0.375
2.025 28.275 1.125
2.025 28.275 2.175
3.375 26.625 0.225
1.575 28.575 0.975
3.525 26.325 0.225
3.375 26.775 0.225
2.475 22.725 1.275
1.275 28.725 0.825
0.675 28.875 1.125
0.675 28.875 2.775
0.075 21.825 0.975
0.075 21.825 0.825
-3.375 24.825 0.675
-3.375 24.825 -0.075
-0.075 21.825 1.425
-3.375 24.675 0.525
-3.375 24.675 1.125
3.375 26.925 0.225
2.475 28.125 -2.175
-3.375 24.525 -0.525
-2.475 22.875 3.825
-2.475 22.875 -2.925
1.725 22.125 2.625
3.375 27.075 0.975
0.525 29.025 3.075
-2.625 27.825 -3.825
0.075 21.675 1.125
-3.525 24.825 0.675
-3.525 24.825 0.525
2.025 28.575 2.175
-2.625 22.875 3.375
-3.375 26.625 0.075
-1.425 21.975 -1.575
2.325 28.425 1.575
1.875 28.725 1.875
-3.375 26.775 0.675
1.575 28.875 1.725
3.225 23.175 0.225
0.075 29.175 2.625
0.375 29.175 1.575
2.925 27.975 2.325
0.525 29.175 1.275
2.625 28.275 -2.175
1.275 29.025 0.825
3.075 27.825 0.225
2.175 22.125 0.375
2.475 28.425 1.575
0.075 21.525 1.125
0.075 21.525 0.975
3.225 27.675 1.875
-3.525 26.625 2.325
0.975 29.175 3.975
1.125 29.175 1.875
-0.675 21.525 -0.675
-0.675 21.525 -0.825
2.625 28.425 0.825
2.625 28.425 0.225
3.825 26.925 0.225
3.375 23.025 -0.525
2.325 28.725 0.675
0.375 21.375 2.025
-3.675 26.625 2.625
-1.425 21.675 -1.425
2.775 28.425 -0.375
-1.875 28.875 -0.975
-3.075 27.825 0.975
1.875 29.025 2.625
2.175 28.875 2.025
-1.125 21.525 3.225
2.625 28.575 0.825
-1.275 29.175 0.975
3.825 27.075 0.225
-1.575 21.675 -1.425
-3.675 23.925 0.375
-3.675 23.925 0.075
2.475 28.725 1.275
2.475 28.725 0.975
1.275 29.325 0.975
1.275 29.325 2.025
-2.925 28.125 0.375
3.825 27.225 0.375
2.325 28.875 2.025
-3.675 23.775 0.375
3.225 28.125 2.625
-2.775 22.425 -1.275
-2.775 22.425 0.675
-3.975 24.825 -2.475
-2.625 22.275 -1.275
-2.625 22.275 2.475
1.425 29.325 -3.675
1.425 29.325 1.275
0.375 21.225 2.325
2.625 28.725 0.975
2.625 28.725 1.425
1.875 29.175 2.925
-3.225 22.875 1.575
3.975 27.075 -1.125
2.475 28.875 1.125
2.475 28.875 0.975
-3.825 23.925 0.075
2.175 21.675 1.275
2.925 28.575 -0.525
-2.925 22.425 1.575
-2.925 22.425 -1.275
-2.775 22.275 0.825
1.275 29.475 2.175
-3.825 23.775 0.375
3.375 22.575 1.875
2.025 21.525 1.275
2.625 28.875 0.975
-2.775 28.575 0.525
3.975 27.375 0.375
3.075 28.575 -0.075
1.575 29.475 2.175
-2.925 22.275 0.975
-2.925 22.275 1.425
-3.975 23.925 0.225
-3.225 22.575 1.875
-4.125 24.375 -2.775
2.325 29.175 0.375
3.975 27.525 -4.575
3.975 27.525 0.375
-3.375 22.725 1.575
1.275 29.625 1.125
-4.275 25.275 -3.825
-4.275 25.725 0.525
1.425 29.625 4.725
3.525 28.275 2.775
-3.075 22.275 1.125
-3.075 22.275 1.725
-3.075 22.275 1.275
-3.975 23.625 0.375
-3.225 22.425 -1.125
3.975 27.675 0.375
-2.625 21.825 1.125
-0.525 20.925 2.025
-4.125 23.925 0.825
2.025 29.475 0.825
2.025 29.475 3.375
-4.275 24.375 -2.025
-1.275 21.075 1.275
-3.975 23.475 2.775
3.825 22.725 2.025
-1.725 21.225 1.575
3.525 28.425 3.675
-4.275 24.225 3.225
-3.075 22.125 0.825
-3.075 22.125 0.525
-1.425 21.075 1.275
-1.425 21.075 -0.075
-1.425 21.075 1.425
-4.425 25.725 0.525
-2.625 29.025 0.525
-4.425 25.875 0.075
1.875 29.625 0.825
-3.975 23.325 0.375
2.775 29.175 -0.675
-1.575 21.075 1.125
1.575 29.775 3.375
3.975 27.975 0.225
-4.275 23.925 3.075
-1.275 20.925 2.625
3.675 28.425 3.525
-1.725 21.075 1.425
-4.275 23.775 3.375
-4.275 23.775 3.075
2.175 29.625 0.675
-4.125 23.325 0.825
0.675 30.075 0.975
4.275 27.675 -3.375
4.275 27.675 0.375
-3.975 23.025 0.375
-4.575 25.875 -0.075
-4.425 24.075 3.075
0.225 20.625 2.025
4.125 27.975 0.375
-1.575 20.925 1.425
-1.575 20.925 1.575
2.325 29.625 0.675
-0.525 20.625 1.875
3.075 29.175 3.675
4.275 27.825 0.375
-1.275 20.775 2.475
-1.275 20.775 -0.075
-1.275 20.775 2.625
-4.575 24.375 -2.475
-0.675 20.625 2.175
-0.675 20.625 2.025
2.175 29.775 0.525
0.075 30.225 1.125
2.475 29.625 0.225
2.475 29.625 0.525
0.225 30.225 0.975
-2.475 29.475 2.025
-4.125 23.025 0.225
4.575 27.375 -3.525
1.875 29.925 0.975
1.425 30.075 1.575
2.775 29.475 1.125
-4.575 24.075 2.925
0.225 20.475 2.025
-0.375 20.475 1.125
-0.375 20.475 2.925
-4.275 23.175 0.825
5.025 26.025 -2.925
-4.425 23.475 2.175
-0.525 20.475 0.975
-1.275 20.625 2.625
1.725 30.075 1.275
-0.675 20.475 0.675
4.275 28.125 -0.075
-3.975 22.575 0.975
2.475 29.775 -0.225
2.475 29.775 0.675
-0.825 20.475 2.325
2.775 29.625 0.675
0.375 30.375 0.825
-4.875 25.125 3.825
-4.575 23.625 2.025
3.075 29.475 1.725
2.325 29.925 0.525
-1.575 20.625 -0.075
0.225 20.325 1.875
2.625 29.775 0.675
-3.525 28.875 1.575
-3.525 28.875 1.125
-4.275 22.875 0.075
-4.575 23.475 0.825
-0.525 20.325 1.575
-0.525 20.325 0.375
-0.525 20.325 0.525
-0.525 20.325 0.975
2.475 29.925 0.525
2.475 29.925 0.075
2.475 29.925 -0.975
2.175 30.075 0.975
-3.825 22.125 0.075
1.275 30.375 1.575
2.775 29.775 0.525
3.225 29.475 2.025
4.275 28.425 0.225
-0.825 20.325 2.325
-4.275 22.725 0.975
-3.975 22.275 -0.225
0.225 30.525 0.825
1.875 30.225 1.125
3.075 29.625 0.975
-3.675 28.875 1.125
-4.125 22.425 0.825
2.625 29.925 -0.225
-1.575 20.475 2.475
-4.425 22.875 0.375
-4.425 22.875 0.075
1.575 30.375 0.225
0.375 20.175 2.475
0.375 20.175 1.575
-3.675 21.825 0.075
-3.825 21.975 -0.075
-4.125 28.425 1.125
-1.725 20.475 2.775
-0.525 20.175 0.975
-0.525 20.175 1.725
-1.275 20.325 -0.075
1.725 30.375 1.275
-5.025 26.325 0.975
-4.425 27.975 3.525
3.225 29.625 3.525
3.225 29.625 2.025
2.175 30.225 1.275
-0.675 20.175 0.375
-0.675 20.175 1.425
-4.575 23.025 0.975
-4.575 23.025 0.375
-4.425 22.725 -0.375
-4.725 23.325 2.175
-3.675 29.025 0.975
-3.675 29.025 1.275
-3.375 29.325 1.425
3.075 29.775 2.925
-3.975 28.725 0.975
4.275 28.725 -0.075
-1.575 20.325 2.625
-1.575 20.325 -0.075
4.875 27.825 0.525
-4.725 23.175 0.225
4.425 28.575 0.225
0.225 20.025 1.725
-0.075 20.025 1.725
0.375 20.025 2.025
0.375 20.025 1.575
-0.225 20.025 2.625
3.225 29.775 -0.075
3.225 29.775 3.525
-4.725 27.675 -3.375
-1.725 20.325 2.625
-1.725 20.325 -0.075
-3.825 29.025 0.975
1.725 30.525 0.375
-0.525 20.025 0.975
-5.175 26.325 0.825
4.875 27.975 0.375
4.125 29.025 -0.075
4.275 28.875 -0.075
-2.475 20.625 0.975
-4.125 28.725 1.125
3.525 29.625 0.075
3.525 29.625 0.375
1.875 30.525 1.275
4.425 28.725 0.225
-4.125 21.975 -0.075
2.325 30.375 1.425
-4.875 23.175 2.175
-4.875 23.175 0.075
4.875 28.125 2.925
4.875 28.125 0.675
2.025 30.525 1.125
2.025 30.525 2.625
-1.125 20.025 2.325
-1.125 20.025 0.675
3.225 29.925 0.075
-0.075 19.875 1.875
-4.125 28.875 0.975
-4.125 28.875 1.575
4.275 29.025 -0.075
-0.375 19.875 0.975
-1.275 20.025 2.625
-1.275 20.025 2.475
1.725 30.675 -0.375
2.175 30.525 1.275
-0.525 19.875 1.125
3.525 29.775 0.375
4.875 28.275 0.225
4.875 28.275 0.375
-0.675 19.875 1.725
-5.325 26.475 0.525
1.875 30.675 0.375
1.875 30.675 0.225
3.375 29.925 3.525
3.375 29.925 0.825
3.375 29.925 0.375
4.725 28.575 0.375
-3.675 29.475 -0.525
-3.975 29.175 1.125
-0.975 19.875 0.825
-4.125 29.025 0.975
4.125 29.325 2.475
0.525 30.975 0.525
0.525 30.975 0.675
0.525 30.975 1.425
-5.475 25.575 2.775
2.025 30.675 2.775
4.425 29.025 2.325
4.875 28.425 0.375
-5.475 26.025 0.675
4.575 28.875 0.225
3.075 30.225 -0.825
-5.025 23.025 0.225
3.525 29.925 0.375
3.525 29.925 0.975
2.175 30.675 1.275
-0.525 19.725 0.975
-4.425 21.975 -0.525
3.375 30.075 0.375
-1.875 20.025 -1.125
-1.425 19.875 -0.075
4.875 28.575 0.375
1.875 30.825 1.275
-0.825 19.725 0.825
-0.825 19.725 2.775
-5.175 23.175 0.225
3.225 30.225 -1.275
-2.325 20.175 0.975
-0.975 19.725 0.525
-0.975 19.725 0.675
-5.625 25.275 1.125
4.725 28.875 -0.525
4.725 28.875 -0.375
3.525 30.075 0.525
-3.975 29.475 1.275
-4.125 29.325 0.975
2.175 30.825 2.775
-2.475 20.175 0.975
-3.225 20.625 1.575
-3.225 20.625 -0.075
-3.675 29.775 0.675
5.025 28.575 0.375
-3.075 20.475 -0.525
-1.425 19.725 0.225
1.725 19.725 -1.125
-5.625 24.225 0.825
-0.825 19.575 0.825
-0.975 19.575 1.275
-0.975 19.575 1.125
-5.775 25.425 1.425
3.075 30.525 -0.375
-1.125 19.575 2.175
0.825 31.275 -3.525
4.575 29.325 -1.875
-1.725 19.725 2.925
-2.475 20.025 0.975
-2.175 19.875 1.125
5.175 28.575 0.225
-5.625 23.775 -0.075
-3.375 30.225 0.825
-1.425 19.575 -0.225
0.975 19.425 2.475
2.325 30.975 2.925
-4.125 29.625 1.275
-5.775 24.225 0.075
5.175 28.725 0.375
-3.675 30.075 0.975
-3.675 30.075 1.425
-0.975 19.425 0.675
-5.775 24.075 0.675
-5.775 24.075 3.075
0.525 31.425 0.675
2.475 30.975 1.275
2.475 30.975 -1.575
-5.925 25.725 1.725
0.675 31.425 0.375
-5.775 26.925 0.225
-4.425 29.475 0.675
-2.625 19.875 1.125
4.875 29.325 -0.225
-0.825 19.275 0.675
-1.575 19.425 -0.375
-1.575 19.425 -0.225
1.275 19.275 2.475
2.475 31.125 1.275
2.475 31.125 2.925
-6.075 25.125 0.825
-5.925 26.775 0.225
-2.475 19.725 1.275
-4.275 29.775 1.425
-1.725 19.425 1.575
-4.125 29.925 0.975
-5.775 23.325 -0.075
0.525 19.125 1.275
-3.375 20.175 0.075
4.575 29.925 3.075
-6.225 25.425 0.825
-6.075 26.775 0.525
-6.225 24.975 0.825
-1.125 19.125 -1.125
-1.725 19.275 -1.425
2.175 31.425 -1.275
-4.725 21.225 1.875
-6.225 24.525 0.975
2.325 31.425 2.775
1.875 31.575 -1.125
-5.925 23.175 0.075
-0.825 18.975 1.875
-2.775 19.575 0.825
-6.225 24.075 2.025
-6.225 24.075 0.975
-2.475 19.425 -0.075
0.375 31.875 1.575
-4.875 21.225 2.025
-1.125 18.975 2.775
-6.375 24.975 0.675
-6.225 23.925 0.375
-5.025 21.375 2.475
-2.925 19.575 0.825
-0.525 18.825 2.325
0.825 18.825 2.475
5.625 29.025 2.925
-5.025 29.475 1.275
2.775 31.425 2.475
4.275 30.525 0.225
-1.575 18.975 -0.075
-3.075 19.575 0.225
-2.475 19.275 2.625
-2.475 19.275 0.075
-2.175 19.125 2.625
-1.125 18.825 0.075
4.725 30.225 -0.675
-2.625 19.275 1.575
-2.625 19.275 1.425
0.075 18.675 -1.125
4.425 30.525 -0.225
5.775 29.025 2.475
4.275 30.675 -0.225
2.775 31.575 2.475
2.775 31.575 2.025
4.125 30.825 -0.075
4.125 30.825 -0.375
-2.775 19.275 0.375
5.625 29.325 0.675
-6.375 23.475 1.875
4.725 30.375 -0.825
4.725 30.375 2.775
-6.525 24.075 0.675
5.175 29.925 -0.525
2.925 31.575 2.775
-0.225 32.175 0.825
-2.925 19.275 1.125
-6.375 23.325 -0.075
4.275 30.825 -0.075
0.075 18.525 1.125
0.225 18.525 1.275
5.625 29.475 0.675
-0.225 18.525 0.975
2.775 31.725 2.775
-2.775 19.125 0.525
-2.025 18.825 -0.975
-4.875 20.625 3.525
5.925 29.175 -0.075
-1.725 18.675 2.025
-1.725 18.675 0.225
-2.925 19.125 0.975
-2.625 18.975 -2.925
-2.625 18.975 2.625
5.775 29.475 0.525
-1.875 18.675 -0.225
-1.875 18.675 0.075
3.075 31.725 0.975
3.075 31.725 2.775
4.875 30.525 2.775
1.575 18.525 2.025
0.225 18.375 1.425
0.225 18.375 1.125
0.225 18.375 0.975
5.325 30.075 0.075
5.325 30.075 -0.075
-0.075 18.375 -0.975
-0.075 18.375 1.875
-0.075 18.375 0.975
0.375 18.375 2.325
0.525 18.375 2.475
5.475 29.925 0.075
-3.075 19.125 1.425
-3.075 19.125 0.825
-2.775 18.975 2.475
0.825 18.375 0.675
5.775 29.625 0.375
-2.925 18.975 1.875
-1.725 18.525 0.075
5.475 30.075 0.225
3.675 31.575 0.525
-1.875 18.525 0.675
-1.875 18.525 0.375
-1.875 18.525 -1.875
0.075 18.225 -1.575
0.075 18.225 2.475
-0.075 18.225 -0.675
0.375 18.225 1.275
0.525 18.225 2.475
3.975 31.425 0.675
1.725 18.375 2.025
0.825 18.225 0.675
-2.025 18.525 -1.575
-2.025 18.525 -1.725
5.475 30.225 0.075
4.875 30.825 2.925
7.275 26.475 0.375
5.625 30.075 -0.675
5.625 30.075 0.075
5.625 30.075 0.225
-3.225 18.975 2.025
-1.725 18.375 0.075
5.775 29.925 -0.675
5.775 29.925 0.075
-0.375 32.625 1.125
2.325 32.325 -0.075
3.975 31.575 0.675
0.075 18.075 0.675
-0.225 18.075 -0.675
-2.025 18.375 0.375
-2.475 18.525 -1.275
3.225 32.025 0.675
4.875 30.975 -2.025
4.875 30.975 2.775
5.775 30.075 0.225
-0.675 18.075 0.675
7.425 26.325 0.375
-3.225 18.825 1.575
-0.825 18.075 -0.975
4.125 31.575 0.825
2.175 32.475 -0.375
-1.725 18.225 0.075
6.075 29.775 -0.225
3.375 32.025 0.675
3.375 32.025 1.125
3.075 32.175 0.675
3.975 31.725 1.125
5.625 30.375 -0.225
6.225 29.625 -0.675
-1.875 18.225 0.225
5.025 30.975 1.125
5.925 30.075 -0.075
3.525 32.025 1.125
3.225 32.175 0.825
0.675 17.925 -3.825
-2.025 18.225 -0.075
-2.025 18.225 0.225
-0.675 17.925 0.375
-0.675 17.925 0.675
-3.225 18.675 2.175
-2.925 18.525 -2.775
-2.925 18.525 -2.925
-3.525 18.825 0.075
-0.825 17.925 0.375
-2.175 18.225 0.225
7.425 27.225 1.575
5.625 30.525 -0.225
-0.975 17.925 0.225
-0.975 17.925 0.375
5.175 30.975 0.225
-1.125 17.925 1.275
-1.125 17.925 0.375
-1.875 18.075 0.225
6.075 30.075 -0.525
3.525 32.175 1.425
0.225 17.775 -2.025
3.225 32.325 0.975
-0.225 17.775 1.275
-0.225 17.775 2.925
-0.525 17.775 0.975
5.625 30.675 -0.075
5.625 30.675 0.675
5.325 30.975 -1.575
-2.925 18.375 -2.625
-0.675 17.775 0.375
-0.675 17.775 2.775
-2.175 18.075 0.525
-0.825 17.775 0.675
-0.825 17.775 0.225
6.075 30.225 0.675
3.375 32.325 0.975
-3.375 18.525 0.975
-0.525 33.075 1.125
3.525 32.325 0.975
5.325 31.125 0.075
-2.475 18.075 1.275
4.125 32.025 1.875
-0.225 17.625 2.925
-0.225 17.625 -0.525
-0.375 17.625 1.725
-0.375 17.625 1.275
-5.775 20.325 1.575
-0.525 17.625 0.975
-0.525 17.625 1.425
-0.525 17.625 2.025
-1.575 17.775 -1.725
-0.675 17.625 0.525
-0.675 17.625 3.225
-0.825 17.625 2.775
-0.825 17.625 1.425
-0.825 17.625 0.525
7.725 27.225 1.725
1.275 17.625 -1.425
-3.075 18.225 -2.475
-3.075 18.225 -2.625
5.625 30.975 2.925
6.525 29.925 0.825
5.475 31.125 2.775
-2.325 17.925 1.725
-1.125 17.625 0.375
-1.125 17.625 -0.675
5.325 31.275 2.775
-1.275 17.625 0.225
6.675 29.775 0.975
5.025 31.575 2.475
0.075 17.475 2.475
0.225 17.475 2.325
-0.225 17.475 1.275
-0.225 17.475 2.925
-0.225 17.475 1.425
-0.225 17.475 1.725
-0.525 17.475 1.725
-0.525 17.475 1.875
-0.525 17.475 0.975
6.525 30.075 0.675
3.675 32.475 2.775
-0.675 17.475 1.425
-2.175 17.775 1.725
0.975 17.475 2.925
5.625 31.125 2.775
5.925 30.825 0.375
-0.825 17.475 0.525
-0.825 17.475 -0.825
6.075 30.675 1.575
6.675 29.925 0.825
6.225 30.525 0.675
-3.075 18.075 -2.325
-0.975 17.475 -0.825
-0.975 17.475 0.525
-2.325 17.775 1.725
-2.325 17.775 -1.875
-2.325 17.775 -0.825
5.175 31.575 2.475
6.375 30.375 0.975
-1.125 17.475 -0.675
3.825 32.475 3.375
3.525 32.625 1.575
3.525 32.625 1.875
-6.075 20.325 1.425
-1.875 17.625 -0.975
6.525 30.225 0.525
-2.475 17.775 -0.825
-2.475 17.775 1.725
-4.725 18.975 1.875
6.675 30.075 0.825
5.925 30.975 -1.275
5.925 30.975 -0.975
6.075 30.825 -0.675
6.075 30.825 -1.425
-0.375 17.325 1.875
3.675 32.625 2.625
-0.525 17.325 3.525
-0.525 17.325 -0.825
-0.525 17.325 1.725
-0.525 17.325 -0.525
0.825 17.325 -1.875
5.325 31.575 -0.375
5.325 31.575 2.025
5.325 31.575 2.775
6.825 29.925 0.375
6.375 30.525 0.825
-0.675 17.325 1.575
-0.675 17.325 1.275
-0.825 17.325 1.275
-4.875 18.975 2.025
-2.325 17.625 1.875
6.675 30.225 0.975
6.675 30.225 0.675
-1.125 17.325 0.825
-1.875 17.475 -0.975
5.925 31.125 -0.825
5.775 31.275 3.075
6.075 30.975 -0.075
6.075 30.975 -0.975
6.075 30.975 -1.725
-3.525 18.075 3.375
-3.525 18.075 2.025
-1.275 17.325 0.675
-3.825 18.225 1.875
1.575 17.325 2.025
-2.475 17.625 1.875
5.475 31.575 -0.375
6.375 30.675 -1.725
5.325 31.725 2.475
0.075 17.175 -0.525
3.675 32.775 1.725
3.675 32.775 -1.125
3.975 32.625 0.975
6.525 30.525 -1.575
6.975 29.925 0.525
-0.525 17.175 1.725
-2.625 17.625 0.675
6.675 30.375 0.525
-3.675 18.075 3.675
-0.675 17.175 3.675
5.025 32.025 0.825
1.125 17.175 2.625
3.825 32.775 2.625
5.775 31.425 0.075
6.225 30.975 -1.275
6.225 30.975 0.075
-2.325 17.475 2.025
-2.325 17.475 -1.875
3.525 32.925 2.625
-2.775 17.625 0.525
5.625 31.575 2.775
7.575 29.025 -2.925
5.475 31.725 2.775
-1.125 17.175 0.675
-1.875 17.325 -1.275
-1.875 17.325 -0.525
6.525 30.675 -1.875
6.525 30.675 0.525
6.525 30.675 -0.075
6.525 30.675 0.225
-3.525 17.925 2.475
-3.825 18.075 1.425
5.325 31.875 2.625
-2.475 17.475 2.025
-2.475 17.475 0.525
-1.275 17.175 0.225
3.975 32.775 2.175
3.675 32.925 0.225
6.825 30.375 0.225
-0.225 17.025 -0.075
0.525 17.025 1.425
-0.375 17.025 -0.075
-2.625 17.475 -0.825
-2.625 17.475 -1.125
-2.625 17.475 -0.975
-2.625 17.475 0.225
-2.625 17.475 -0.375
-2.625 17.475 0.525
6.225 31.125 -1.125
6.225 31.125 0.075
-2.175 17.325 0.075
-1.575 17.175 0.375
-1.575 17.175 -0.075
0.825 17.025 5.025
-3.975 18.075 1.275
-3.975 18.075 0.225
-3.075 17.625 -0.975
-0.675 17.025 1.425
-0.675 17.025 3.675
-0.675 17.025 2.775
5.625 31.725 2.775
6.525 30.825 0.825
-0.825 17.025 -0.225
-0.825 17.025 0.375
4.125 32.775 0.975
-1.725 17.175 0.375
3.525 33.075 -0.975
-2.325 17.325 0.525
2.775 33.375 -3.375
-3.825 17.925 2.625
-3.825 17.925 1.725
-3.825 17.925 2.475
-1.875 17.175 0.375
-4.125 18.075 2.175
-4.125 18.075 0.375
-2.475 17.325 -1.425
-2.475 17.325 -1.275
-2.475 17.325 0.525
-1.275 17.025 1.125
-1.275 17.025 0.225
-1.275 17.025 2.325
-1.275 17.025 -1.275
3.975 32.925 2.475
1.575 17.025 1.275
6.075 31.425 3.075
-2.025 17.175 0.825
-2.025 17.175 -0.225
-4.425 18.225 -2.775
5.925 31.575 -0.375
6.525 30.975 -2.025
6.525 30.975 0.675
1.725 17.025 3.675
0.075 16.875 3.075
0.225 16.875 -0.225
-3.675 17.775 2.625
0.375 16.875 1.125
-0.225 16.875 -0.075
-2.625 17.325 1.275
6.675 30.825 0.225
-2.175 17.175 0.525
-1.575 17.025 0.525
-4.275 18.075 0.375
4.875 32.475 -2.475
3.825 33.075 0.375
-0.675 16.875 2.925
-0.825 16.875 3.675
-0.825 16.875 -1.275
-2.775 17.325 0.825
7.575 29.625 0.675
3.075 17.325 -0.225
-3.825 17.775 1.725
-0.975 16.875 2.025
-0.975 16.875 -1.125
-0.975 16.875 1.725
1.275 16.875 -5.625
-4.125 17.925 1.275
6.075 31.575 1.575
-3.225 17.475 -1.875
-1.875 17.025 0.525
5.925 31.725 -0.675
5.925 31.725 2.475
-1.125 16.875 1.275
-1.125 16.875 1.875
1.425 16.875 1.875
5.775 31.875 2.925
-1.275 16.875 0.225
-1.275 16.875 -0.825
-1.275 16.875 0.675
-2.025 17.025 -0.075
-2.025 17.025 0.525
6.825 30.825 -3.825
-3.975 17.775 1.725
5.475 32.175 -0.525
-3.375 17.475 -0.375
0.075 16.725 3.075
1.125 33.975 0.375
-4.275 17.925 0.375
0.525 16.725 0.525
4.875 32.625 3.375
-2.175 17.025 0.675
2.625 33.675 1.125
-1.575 16.875 0.525
-0.675 16.725 2.925
6.225 31.575 0.225
6.375 31.425 1.575
6.075 31.725 -0.525
6.075 31.725 0.225
6.075 31.725 1.875
-1.725 16.875 0.525
-0.825 16.725 1.725
-0.825 16.725 3.675
5.925 31.875 -0.825
5.925 31.875 0.825
5.925 31.875 2.775
5.925 31.875 0.675
-2.325 17.025 0.375
6.675 31.125 -1.125
5.775 32.025 -0.675
5.775 32.025 2.775
-0.975 16.725 -1.125
-1.875 16.875 0.525
3.975 33.225 0.825
-1.125 16.725 1.275
-1.125 16.725 1.875
5.025 32.625 3.675
-1.275 16.725 -0.825
-1.275 16.725 0.675
-2.025 16.875 0.675
-2.025 16.875 -0.675
-2.025 16.875 0.825
4.875 32.775 0.075
6.375 31.575 -0.525
0.075 16.575 2.925
0.225 16.575 0.075
6.075 31.875 0.225
4.125 33.225 2.325
1.125 34.125 1.125
0.525 16.575 1.875
-2.175 16.875 0.675
4.425 33.075 2.325
5.925 32.025 2.925
5.925 32.025 0.225
5.925 32.025 -0.075
-1.575 16.725 0.075
8.025 29.325 2.775
5.775 32.175 -0.675
5.775 32.175 2.625
-1.725 16.725 1.575
-2.325 16.875 1.725
-2.325 16.875 0.075
-2.325 16.875 0.675
5.025 32.775 -2.475
-0.975 16.575 1.725
1.275 16.575 1.725
4.275 33.225 2.325
-1.125 16.575 -1.125
-1.125 16.575 1.275
-2.925 17.025 -1.725
6.375 31.725 -0.525
-3.975 17.475 2.775
-1.275 16.575 1.875
-1.275 16.575 -0.225
6.075 32.025 0.375
-2.025 16.725 0.825
-4.275 17.625 0.225
-2.625 16.875 -0.975
-3.075 17.025 4.125
5.775 32.325 0.675
5.775 32.325 -0.075
0.225 16.425 2.325
-0.225 16.425 -1.125
-0.225 16.425 -1.275
-0.375 16.425 -0.975
-1.575 16.575 -0.825
0.825 16.425 2.475
-4.125 17.475 0.525
-0.675 16.425 1.725
0.975 16.425 -1.425
-2.325 16.725 0.825
-2.325 16.725 0.975
5.025 32.925 3.375
2.025 16.575 3.375
5.475 32.625 2.475
5.475 32.625 2.625
4.275 33.375 -0.075
6.225 32.025 2.775
-0.975 16.425 1.125
-1.875 16.575 -0.675
8.025 29.775 3.075
-2.925 16.875 -1.725
-2.475 16.725 0.975
-2.475 16.725 0.825
5.325 32.775 -2.325
-1.125 16.425 -0.675
-3.975 17.325 0.225
4.875 33.075 -3.525
-3.675 17.175 -0.975
-4.275 17.475 0.525
-3.375 17.025 0.675
-2.025 16.575 -0.675
-2.025 16.575 0.225
-2.025 16.575 0.525
4.125 33.525 -0.225
5.175 32.925 3.825
-3.075 16.875 -0.975
-2.175 16.575 0.525
0.225 16.275 3.225
-4.875 17.775 -0.825
-3.825 17.175 0.375
0.525 16.275 0.975
-4.125 17.325 0.675
-4.425 17.475 0.375
6.225 32.175 2.925
-2.325 16.575 0.975
-3.225 16.875 0.525
-0.825 16.275 0.375
2.325 34.275 1.425
-3.975 17.175 0.375
-3.975 17.175 0.225
-1.875 16.425 0.075
-2.925 16.725 0.525
-2.475 16.575 -1.275
-2.475 16.575 0.975
-4.275 17.325 0.525
-3.375 16.875 2.625
-3.375 16.875 0.525
-4.575 17.475 0.375
2.475 34.275 1.125
2.475 34.275 0.975
-2.025 16.425 0.225
4.425 33.525 0.075
1.575 16.275 0.225
1.575 16.275 1.275
7.575 30.825 2.025
6.525 32.025 0.525
6.825 31.725 3.975
-2.625 16.575 -1.275
-2.625 16.575 -1.425
-2.625 16.575 0.825
-3.075 16.725 0.525
6.375 32.175 2.775
6.975 31.575 2.025
6.225 32.325 2.325
-4.125 17.175 0.675
7.125 31.425 -3.375
-2.175 16.425 0.675
-2.175 16.425 -0.225
0.225 16.125 2.025
-4.425 17.325 2.325
-4.425 17.325 0.375
-3.525 16.875 0.525
6.075 32.475 1.275
-1.575 16.275 -0.675
5.925 32.625 1.575
-0.675 16.125 0.525
-1.725 16.275 0.975
-0.825 16.125 0.375
-3.975 17.025 1.725
-2.925 16.575 -1.875
-2.925 16.575 -0.825
8.775 28.875 0.375
6.525 32.175 0.525
5.625 32.925 2.475
-1.125 16.125 2.175
-3.375 16.725 0.225
-3.375 16.725 1.125
-3.375 16.725 0.975
6.375 32.325 2.325
6.375 32.325 2.625
6.225 32.475 0.975
6.225 32.475 2.175
-5.325 17.775 1.725
-5.325 17.775 2.175
-2.625 16.425 -0.375
8.775 29.025 0.375
-1.425 16.125 -0.675
-1.425 16.125 1.875
0.975 34.725 1.425
-2.175 16.275 0.675
0.225 15.975 2.475
7.575 31.125 0.825
1.125 34.725 1.425
0.525 15.975 0.825
4.575 33.675 1.275
5.775 32.925 -1.725
6.675 32.175 3.075
6.975 31.875 -0.975
-1.725 16.125 -1.125
0.975 15.975 1.275
6.525 32.325 -0.225
6.525 32.325 0.525
6.375 32.475 0.525
6.375 32.475 0.225
6.375 32.475 2.025
7.275 31.575 1.725
-4.575 17.175 0.525
8.925 28.875 0.525
-0.975 15.975 2.175
1.275 15.975 0.825
1.275 15.975 1.275
7.425 31.425 1.725
4.425 33.825 1.425
4.725 33.675 1.125
9.075 28.575 0.525
-1.425 15.975 2.625
5.325 33.375 0.825
5.325 33.375 0.525
6.825 32.175 1.725
6.525 32.475 3.075
6.525 32.475 0.675
6.525 32.475 2.775
0.375 15.825 1.725
-2.775 16.275 -1.125
-0.225 15.825 2.775
-3.225 16.425 -0.525
6.375 32.625 1.875
6.375 32.625 0.525
0.675 15.825 1.125
0.675 15.825 1.275
-0.525 15.825 2.325
-1.725 15.975 0.825
-1.725 15.975 1.575
-4.575 17.025 0.525
-0.825 15.825 2.025
6.075 32.925 -2.025
-2.475 16.125 -1.125
7.725 31.275 0.675
-3.375 16.425 -0.525
-0.975 15.825 0.825
4.725 33.825 1.125
1.275 15.825 0.675
5.475 33.375 0.975
5.025 33.675 -0.225
-1.125 15.825 0.825
6.975 32.175 3.375
-2.025 15.975 -1.125
-4.425 16.875 2.925
-3.075 16.275 2.325
-1.275 15.825 -4.125
9.075 29.025 1.125
-4.725 17.025 0.375
8.025 30.975 -3.675
4.275 34.125 2.925
1.725 15.825 3.525
4.875 33.825 1.125
-3.225 16.275 2.175
5.175 33.675 -0.225
-0.375 15.675 2.475
-0.375 15.675 -0.225
-2.325 15.975 1.275
-0.525 15.675 2.175
-0.675 15.675 2.025
9.225 28.875 0.075
5.475 33.525 0.825
5.475 33.525 0.225
-3.375 16.275 -0.525
-2.475 15.975 -1.725
-1.875 15.825 0.075
5.025 33.825 1.125
7.425 31.875 2.925
6.525 32.775 3.075
-4.425 16.725 3.075
5.325 33.675 -0.225
9.225 29.025 0.975
-1.275 15.675 1.125
9.375 28.725 1.125
7.125 32.325 2.625
7.125 32.325 2.475
0.525 15.525 -1.575
7.275 32.175 -1.125
5.475 33.675 -0.525
0.825 15.525 2.775
6.675 32.775 2.775
8.175 31.125 2.325
-0.675 15.525 1.275
-0.825 15.525 0.525
-1.875 15.675 0.075
5.775 33.525 -0.525
-4.425 16.575 3.075
-0.975 15.525 4.125
-4.725 16.725 2.325
-1.125 15.525 2.325
8.025 31.425 2.625
5.625 33.675 -0.525
-1.275 15.525 0.675
-5.925 17.475 1.425
5.175 33.975 1.275
9.225 29.475 -0.525
-2.775 15.825 -0.525
-3.975 16.275 0.225
-1.575 15.525 0.675
-0.075 15.375 1.725
0.375 15.375 -1.425
-0.225 15.375 1.575
-0.375 15.375 0.825
-0.675 15.375 0.825
-1.875 15.525 0.075
9.675 28.575 1.425
-0.975 15.375 1.425
-0.975 15.375 2.325
9.525 29.025 1.875
4.575 34.425 0.675
4.875 34.275 1.275
6.675 33.075 0.375
-4.275 16.275 1.875
-1.425 15.375 0.825
-3.975 16.125 0.825
-2.775 15.675 -0.075
9.525 29.175 0.975
-3.675 15.975 1.875
0.075 15.225 0.975
4.425 34.575 2.925
-0.075 15.225 0.825
5.025 34.275 -0.075
-0.225 15.225 0.825
9.675 28.875 1.725
8.625 30.975 0.675
-2.925 15.675 3.375
-1.725 15.375 0.375
8.925 30.525 -0.075
6.825 33.075 0.225
6.825 33.075 3.225
6.825 33.075 -0.825
-1.875 15.375 1.275
-3.825 15.975 2.175
-3.825 15.975 1.575
-0.975 15.225 1.425
4.875 34.425 0.075
5.175 34.275 -0.225
9.375 29.775 -0.075
5.925 33.825 -2.025
4.725 34.575 1.725
-3.675 15.825 -0.225
4.425 34.725 3.075
0.075 15.075 1.875
7.875 32.175 1.125
5.325 34.275 0.825
-0.225 15.075 1.125
-0.375 15.075 0.975
1.275 35.625 2.475
0.675 15.075 0.975
-3.375 15.675 0.525
-4.125 15.975 0.825
0.825 15.075 0.825
0.975 15.075 1.425
-3.825 15.825 0.825
-3.825 15.825 1.875
4.575 34.725 1.875
5.175 34.425 0.225
-3.075 15.525 -1.425
-3.525 15.675 0.525
-1.125 15.075 -0.075
-4.575 16.125 2.475
-4.575 16.125 2.775
-4.575 16.125 2.175
9.675 29.475 0.375
-5.625 16.725 1.125
-3.975 15.825 0.825
-3.975 15.825 0.375
6.975 33.225 0.975
6.225 33.825 0.525
-2.775 15.375 3.375
5.025 34.575 0.975
6.825 33.375 -0.375
5.325 34.425 0.675
8.175 32.025 1.875
6.675 33.525 3.075
-0.225 14.925 0.975
5.625 34.275 0.675
0.525 14.925 0.825
-4.125 15.825 0.525
-4.125 15.825 1.275
8.775 31.275 0.525
0.675 14.925 2.925
-1.725 15.075 1.575
0.825 14.925 0.525
0.825 14.925 2.925
0.825 14.925 0.975
-3.825 15.675 0.825
-0.675 14.925 0.375
4.875 34.725 2.325
4.875 34.725 1.125
5.175 34.575 2.025
5.175 34.575 1.875
5.175 34.575 0.975
5.925 34.125 -0.825
1.125 14.925 2.175
7.875 32.475 2.325
7.875 32.475 -0.075
6.375 33.825 0.525
9.675 29.775 -0.525
5.475 34.425 0.675
5.475 34.425 0.975
-3.525 15.525 -0.225
-4.875 16.125 1.875
6.975 33.375 0.825
-1.125 14.925 1.275
1.425 14.925 2.025
-5.175 16.275 -0.675
6.825 33.525 -0.225
-1.275 14.925 0.975
9.075 30.975 0.225
8.325 32.025 1.575
-3.225 15.375 -0.075
5.325 34.575 0.825
9.825 29.625 1.875
9.825 29.625 2.025
10.125 28.875 1.725
5.625 34.425 0.975
-3.375 15.375 -0.225
0.525 14.775 1.875
-3.825 15.525 0.075
0.825 14.775 2.325
0.825 14.775 2.025
9.075 31.125 1.725
9.075 31.125 0.375
6.975 33.525 0.825
6.975 33.525 0.525
6.975 33.525 0.975
1.125 14.775 1.575
6.825 33.675 1.425
-2.625 15.075 -0.075
-5.175 16.125 0.525
5.025 34.875 0.075
-3.225 15.225 -0.075
5.325 34.725 0.825
-3.675 15.375 0.075
-5.025 15.975 0.525
-5.025 15.975 1.875
-5.325 16.125 1.425
-5.325 16.125 2.025
-5.325 16.125 -0.525
6.975 33.675 1.275
-3.825 15.375 2.175
-3.825 15.375 0.075
0.675 14.625 1.125
-2.475 14.925 0.975
0.825 14.625 0.975
0.975 14.625 1.125
0.975 14.625 1.275
-4.275 15.525 2.325
9.075 31.425 0.525
-3.975 15.375 1.725
-3.975 15.375 2.175
6.075 34.425 -0.375
8.175 32.625 0.375
-3.225 15.075 -0.225
-2.775 14.925 -0.525
7.125 33.675 0.825
7.125 33.675 0.975
-4.425 15.525 0.975
6.375 34.275 -3.075
-5.325 15.975 0.675
-3.375 15.075 -0.825
-2.925 14.925 0.225
-3.825 15.225 2.025
0.075 14.475 1.575
-0.075 14.475 0.075
0.675 14.475 1.875
9.225 31.425 1.125
7.725 33.225 -0.375
-4.575 15.525 0.825
8.175 32.775 0.975
-5.175 15.825 1.875
-5.175 15.825 1.725
-5.925 16.275 2.325
5.025 35.175 -0.075
-1.125 14.475 2.325
-3.225 14.925 -0.975
-3.225 14.925 -0.225
6.975 33.975 -0.375
-1.275 14.475 0.825
-4.425 15.375 0.825
-4.425 15.375 1.275
10.275 29.625 0.375
8.775 32.175 -3.225
-2.175 14.625 -0.675
-5.325 15.825 1.875
8.025 33.075 -0.825
-5.625 15.975 -0.225
8.175 32.925 0.225
-2.325 14.625 -0.975
-2.925 14.775 0.375
3.375 35.925 -0.375
8.325 32.775 0.675
1.875 14.475 1.425
-4.575 15.375 0.675
-4.575 15.375 0.825
-5.925 16.125 2.025
0.675 14.325 2.475
-4.275 15.225 0.825
-3.075 14.775 -0.075
-3.075 14.775 0.075
-5.475 15.825 0.675
-5.475 15.825 1.425
5.025 35.325 -0.225
9.525 31.275 1.125
9.525 31.275 1.425
5.325 35.175 -0.225
-3.975 15.075 1.875
-2.625 14.625 -0.375
-2.625 14.625 0.375
9.825 30.825 -0.375
-3.225 14.775 -0.825
-1.125 14.325 1.875
-5.325 15.675 1.275
-5.325 15.675 1.875
-2.775 14.625 0.375
5.475 35.175 1.125
6.675 34.425 -1.125
9.525 31.425 1.125
-2.925 14.625 -1.125
-4.875 15.375 0.075
2.175 36.375 0.675
9.825 30.975 0.825
0.075 14.175 1.425
0.225 14.175 1.425
0.375 14.175 1.275
0.525 14.175 1.275
0.825 14.175 2.625
5.325 35.325 0.975
6.975 34.275 0.075
-3.975 14.925 1.575
5.625 35.175 0.975
8.325 33.075 0.225
8.475 32.925 0.975
9.525 31.575 -0.075
-0.975 14.175 1.575
-5.325 15.525 3.075
-5.325 15.525 0.525
-5.325 15.525 -0.525
-6.075 15.975 1.275
-5.625 15.675 3.075
5.475 35.325 0.975
1.575 14.175 1.875
1.725 14.175 1.725
-4.875 15.225 0.075
-4.875 15.225 0.225
-4.575 15.075 -0.375
-1.575 14.175 2.025
1.875 14.175 2.175
1.875 14.175 1.875
-4.275 14.925 1.425
8.475 33.075 0.825
8.475 33.075 0.675
0.075 14.025 0.375
-6.225 15.975 1.575
0.525 14.025 1.275
7.725 33.825 -0.675
-5.775 15.675 3.525
10.425 30.225 0.825
9.675 31.575 0.825
9.675 31.575 0.675
10.125 30.825 -0.075
0.975 14.025 2.475
9.975 31.125 0.225
9.975 31.125 0.975
-0.975 14.025 2.175
-0.975 14.025 -1.725
-1.125 14.025 2.175
3.225 36.375 1.125
-6.975 16.425 0.225
-5.925 15.675 -0.375
1.575 14.025 1.125
1.575 14.025 0.975
1.575 14.025 2.775
1.575 14.025 2.625
8.325 33.375 -0.825
8.325 33.375 -1.575
8.475 33.225 0.525
7.875 33.825 -0.825
-4.575 14.925 -0.375
-5.475 15.375 0.375
1.875 14.025 1.425
7.575 34.125 0.525
-5.775 15.525 0.225
0.075 13.875 0.525
10.275 30.825 0.675
-1.875 14.025 1.875
-1.875 14.025 1.575
-2.625 14.175 1.425
-2.025 14.025 1.575
8.475 33.375 0.525
7.725 34.125 -0.975
-2.175 14.025 4.725
-1.275 13.875 0.225
-5.475 15.225 0.225
-1.425 13.875 0.375
-2.325 14.025 1.875
10.725 30.225 0.075
-1.725 13.875 1.425
0.525 13.725 1.875
8.625 33.375 0.675
-5.625 15.225 2.025
-5.625 15.225 2.175
-5.625 15.225 0.375
8.775 33.225 0.525
1.125 13.725 2.175
-5.925 15.375 0.375
-5.925 15.375 0.975
7.725 34.275 0.675
7.725 34.275 -0.975
-2.025 13.875 1.875
9.975 31.725 3.225
7.575 34.425 0.975
-2.175 13.875 1.875
-6.675 15.825 0.375
-1.275 13.725 2.025
-4.575 14.625 0.375
-5.775 15.225 0.675
-1.425 13.725 2.025
-1.425 13.725 0.225
-1.575 13.725 1.875
0.525 13.575 1.875
7.725 34.425 0.375
7.725 34.425 0.525
10.725 30.675 1.425
-4.875 14.625 -0.225
-4.875 14.625 -0.075
-5.475 14.925 2.325
1.425 13.575 2.325
6.375 35.475 0.525
8.625 33.675 0.375
9.975 32.025 1.425
-4.575 14.475 0.525
8.775 33.525 0.675
8.775 33.525 0.825
-5.775 15.075 0.975
-1.275 13.575 2.325
-1.275 13.575 1.425
3.825 36.675 -0.675
7.875 34.425 0.675
7.875 34.425 -1.875
10.575 31.125 2.325
-1.575 13.575 -0.825
-5.025 14.625 -0.375
-5.025 14.625 2.025
3.975 36.675 -0.375
-4.725 14.475 1.575
6.525 35.475 0.675
6.525 35.475 0.525
8.775 33.675 0.525
4.125 36.675 1.125
4.125 36.675 1.425
10.575 31.275 1.875
-5.175 14.625 2.175
-4.875 14.475 1.725
6.375 35.625 0.525
-0.975 13.425 1.125
-4.575 14.325 1.875
-4.575 14.325 0.525
-6.525 15.375 0.075
-1.125 13.425 1.425
6.675 35.475 0.675
6.675 35.475 0.525
4.275 36.675 1.125
2.775 37.125 0.975
9.975 32.325 -0.075
10.125 32.175 0.075
9.075 33.525 0.675
9.075 33.525 0.525
9.825 32.625 0.525
9.825 32.625 0.675
11.025 30.675 2.775
6.825 35.475 0.375
10.275 32.025 1.425
10.275 32.025 2.475
2.475 37.275 1.275
9.975 32.475 0.675
-4.875 14.325 1.875
-0.825 13.275 1.575
10.575 31.575 3.075
-4.575 14.175 0.375
6.675 35.625 0.525
7.125 35.325 -1.875
-1.125 13.275 1.425
10.125 32.325 0.075
