# .PCD v0.7 - Point Cloud Data file format
VERSION 0.7
FIELDS x y z
SIZE 4 4 4
TYPE F F F
COUNT 1 1 1
WIDTH 2048
HEIGHT 1
VIEWPOINT 0 0 0 1 0 0 0
POINTS 2048
DATA ascii
3.675 40.875 2.775
3.825 40.875 1.275
3.525 40.875 2.025
3.525 40.725 -0.225
3.525 41.025 2.625
3.525 41.025 0.075
3.525 40.575 0.075
3.525 40.575 2.175
3.975 40.875 1.725
3.975 40.875 2.025
3.375 40.725 0.525
3.375 40.725 0.075
3.975 41.025 -1.875
3.375 41.025 0.225
3.375 41.025 0.675
3.675 40.425 -0.525
3.375 40.575 0.075
3.825 41.175 2.775
3.525 41.175 -0.225
3.825 40.425 -2.175
3.525 40.425 1.425
3.525 40.425 -1.125
4.125 40.875 1.725
3.225 40.725 0.075
3.225 40.725 0.675
3.375 41.175 0.225
3.375 41.175 0.525
3.375 41.175 0.075
4.125 41.025 2.175
4.125 41.025 1.875
4.125 40.575 2.175
4.125 40.575 1.125
3.675 40.275 -0.375
3.525 41.325 0.075
3.825 40.275 -2.625
3.525 40.275 2.475
4.125 41.175 1.425
4.125 40.425 -2.625
3.225 41.175 0.075
4.275 40.875 1.575
4.275 40.875 1.275
3.225 40.425 1.575
3.225 40.425 1.725
3.375 41.325 0.075
3.075 40.875 0.075
4.275 41.025 2.625
4.275 40.575 1.275
4.275 40.575 0.525
3.075 41.025 1.875
3.525 41.475 1.725
3.525 41.475 -0.225
4.125 40.275 -2.025
3.225 41.325 0.075
3.825 40.125 -0.675
4.275 41.175 1.575
3.525 40.125 0.675
3.525 40.125 -0.225
4.275 40.425 0.975
4.275 40.425 1.425
4.275 40.425 -0.975
3.225 40.275 0.075
3.075 40.425 2.325
3.975 41.475 2.325
3.375 41.475 0.525
3.375 41.475 1.875
3.375 41.475 0.675
4.425 40.875 1.875
4.425 40.725 1.125
4.425 40.725 1.725
3.375 40.125 2.175
3.375 40.125 0.075
3.375 40.125 0.525
3.375 40.125 1.275
3.375 40.125 0.675
4.275 40.275 1.275
3.075 41.325 0.075
3.075 41.325 1.725
3.075 41.325 -1.125
3.075 40.275 0.075
3.225 41.475 0.075
3.225 41.475 1.875
3.225 40.125 0.075
4.425 41.175 1.425
4.425 41.175 1.125
4.425 41.175 1.725
4.425 40.425 0.525
4.425 40.425 0.225
4.425 40.425 3.075
3.525 41.625 0.075
3.525 41.625 1.575
3.525 41.625 -1.575
3.525 41.625 -1.425
3.825 39.975 -1.125
2.925 41.175 2.025
3.525 39.975 0.075
3.975 41.625 2.025
3.975 41.625 1.725
3.375 41.625 0.225
3.375 41.625 -0.975
3.975 39.975 -1.275
3.975 39.975 0.225
3.375 39.975 0.075
4.575 40.875 1.125
4.425 40.275 0.975
2.775 40.725 1.575
4.575 40.575 0.675
2.925 40.275 1.875
4.125 39.975 1.725
3.675 41.775 1.275
3.675 41.775 -1.125
3.675 41.775 -1.425
3.825 41.775 2.175
3.525 41.775 1.425
3.525 41.775 1.575
3.525 39.825 1.875
4.425 41.475 1.275
4.425 41.475 1.575
4.425 40.125 1.875
4.425 40.125 1.275
4.425 40.125 0.675
4.425 40.125 0.825
4.425 40.125 2.025
3.375 41.775 0.525
3.375 41.775 0.075
3.375 41.775 -0.225
3.375 41.775 -0.975
4.275 39.975 1.725
4.275 39.975 0.975
3.075 41.625 0.075
3.375 39.825 0.525
3.375 39.825 1.575
4.575 40.275 1.875
4.575 40.275 -0.525
4.725 40.725 1.575
4.725 41.025 1.425
4.725 41.025 1.275
2.625 40.725 1.575
4.125 41.775 1.875
3.225 41.775 0.075
3.225 41.775 0.675
3.225 39.825 1.575
4.425 41.625 2.475
4.725 40.425 0.675
4.425 39.975 0.675
3.825 41.925 -0.975
3.525 41.925 -0.975
4.275 39.825 1.275
3.075 39.825 0.075
3.375 41.925 2.625
3.375 41.925 1.275
4.725 40.275 0.525
4.725 40.275 0.825
3.225 41.925 1.875
3.225 41.925 -0.825
3.225 41.925 0.075
4.875 41.025 1.125
4.875 41.025 0.975
4.575 39.975 1.425
4.575 39.975 0.675
4.575 39.975 0.225
4.425 41.775 0.975
3.225 39.675 1.575
2.775 41.625 2.175
2.775 41.625 -1.125
4.425 39.825 0.225
2.775 39.975 -0.525
2.775 39.975 0.975
2.925 39.825 2.475
4.725 40.125 0.675
4.725 40.125 0.375
3.675 42.075 -0.975
3.075 41.925 0.075
3.075 41.925 1.275
4.275 39.675 1.275
3.825 42.075 -0.975
3.075 39.675 0.075
3.825 39.525 -0.375
4.875 40.275 0.675
4.875 40.275 0.975
3.975 39.525 -0.525
2.475 41.325 1.275
3.375 39.525 -0.075
3.375 39.525 0.075
4.725 41.625 1.725
4.575 39.825 0.825
4.575 39.825 0.525
4.575 39.825 0.675
4.725 39.975 0.675
2.775 39.825 3.375
2.625 39.975 -0.075
3.225 42.075 0.075
2.925 41.925 1.425
3.225 39.525 2.175
3.225 39.525 0.075
3.225 39.525 0.525
3.225 39.525 0.675
2.925 39.675 2.775
4.875 40.125 0.675
2.325 41.025 1.425
5.025 41.175 1.425
3.075 39.525 1.875
3.675 42.225 -1.125
3.825 42.225 -1.125
4.725 39.825 0.525
3.675 39.375 -0.825
4.575 39.675 0.375
4.575 39.675 0.525
3.525 39.375 -0.975
4.875 39.975 -0.375
3.375 42.225 -0.225
3.375 42.225 0.075
2.475 41.625 -0.825
3.375 39.375 -1.275
3.375 39.375 -1.125
3.225 42.225 0.675
3.225 42.225 2.325
3.225 42.225 0.525
3.225 42.225 2.175
3.225 42.225 1.875
3.225 42.225 -0.825
3.225 42.225 0.075
3.225 39.375 0.225
2.175 40.575 0.075
2.175 40.575 0.225
2.175 40.575 0.375
4.725 41.925 -3.225
2.625 41.925 3.375
2.625 41.925 0.675
3.075 42.225 1.575
4.275 39.375 0.975
2.175 41.175 2.025
2.475 39.825 2.325
4.575 39.525 0.675
4.575 39.525 0.375
5.025 41.625 0.975
3.675 39.225 1.425
3.525 39.225 0.375
3.375 42.375 -0.225
3.375 42.375 -0.825
3.375 42.375 2.025
3.375 42.375 0.075
2.175 40.275 0.675
2.175 40.275 0.375
5.175 41.475 0.375
4.875 41.925 2.175
4.875 41.925 1.725
3.225 42.375 0.525
3.225 42.375 0.675
3.225 42.375 -0.825
3.225 42.375 0.075
4.725 42.075 1.425
4.725 42.075 2.325
4.125 39.225 -0.675
3.225 39.225 -1.275
4.725 39.525 0.675
4.725 39.525 0.525
2.625 42.075 0.525
5.025 41.775 1.575
5.025 39.825 0.675
5.025 39.825 -0.525
2.325 41.775 -3.525
4.575 42.225 1.425
2.025 40.575 0.375
2.025 40.575 0.225
3.075 42.375 0.075
4.575 39.375 0.825
4.575 39.375 4.725
4.275 39.225 1.125
4.275 39.225 -0.825
3.075 39.225 0.825
3.075 39.225 1.875
3.675 42.525 1.725
3.675 42.525 1.575
3.825 42.525 2.175
3.525 42.525 1.275
3.525 42.525 1.425
3.675 39.075 2.175
4.425 42.375 1.575
3.825 39.075 -1.725
2.025 40.275 0.375
2.925 42.375 0.075
3.375 42.525 1.725
4.875 39.525 1.425
5.025 39.675 0.675
3.975 39.075 1.125
3.375 39.075 -1.425
4.725 42.225 0.675
4.725 39.375 0.675
4.125 42.525 1.425
4.125 42.525 1.725
3.225 42.525 -0.825
2.625 39.375 -0.075
3.225 39.075 1.575
1.875 40.725 0.375
4.575 39.225 0.675
4.275 42.525 1.425
2.775 39.225 0.075
3.075 42.525 0.075
1.875 40.575 0.375
4.275 39.075 0.675
5.325 41.625 0.825
1.875 40.425 0.225
1.875 40.425 0.075
1.875 40.425 0.375
2.025 41.625 1.725
4.875 42.225 1.275
2.325 42.075 2.625
2.325 42.075 0.675
4.875 39.375 -0.075
2.475 42.225 2.475
3.675 42.675 1.875
4.425 42.525 2.475
4.425 42.525 2.325
4.425 42.525 1.875
4.425 42.525 1.425
2.925 42.525 0.075
3.675 38.925 -0.825
3.675 38.925 0.375
4.425 39.075 1.125
4.725 42.375 2.175
4.725 42.375 1.875
4.725 42.375 0.675
3.825 38.925 1.425
3.825 38.925 -1.125
2.175 39.675 1.725
2.925 39.075 0.075
2.925 39.075 2.775
4.725 39.225 0.825
4.725 39.225 0.075
3.375 42.675 0.075
3.375 42.675 0.525
4.125 42.675 -1.125
3.225 42.675 0.075
2.025 39.825 1.575
4.575 42.525 1.875
3.225 38.925 2.625
3.225 38.925 1.725
3.225 38.925 0.825
4.575 39.075 0.825
4.575 39.075 1.275
5.025 39.375 0.375
1.725 40.725 0.375
2.325 42.225 1.725
2.325 42.225 0.075
2.325 42.225 0.675
4.275 38.925 1.425
4.275 38.925 1.125
2.175 42.075 0.975
1.725 40.575 4.275
1.725 40.575 0.225
3.075 38.925 0.975
3.075 38.925 0.075
5.325 41.925 0.525
2.475 39.225 -0.825
1.875 39.975 1.275
1.725 40.425 1.425
4.725 42.525 1.425
4.725 39.075 0.225
4.725 39.075 0.675
4.425 38.925 0.675
3.525 42.825 -0.375
2.925 38.925 -1.125
2.925 38.925 0.075
3.825 38.775 -0.825
3.375 42.825 -0.225
3.375 42.825 0.075
3.375 42.825 0.525
3.975 38.775 -0.975
3.975 38.775 1.125
3.975 38.775 1.275
3.375 38.775 -0.075
3.375 38.775 1.875
5.175 42.225 1.125
3.225 42.825 0.075
2.175 42.225 0.825
2.175 42.225 0.225
2.175 42.225 0.675
2.175 42.225 0.525
2.175 42.225 0.075
5.325 42.075 0.525
2.325 42.375 0.075
2.325 42.375 0.375
4.125 38.775 1.575
4.125 38.775 -0.525
2.775 42.675 -0.675
2.775 42.675 -0.975
2.775 42.675 -0.075
4.575 38.925 0.825
4.575 38.925 1.275
3.225 38.775 0.225
3.225 38.775 0.675
3.225 38.775 0.525
3.225 38.775 0.075
2.325 39.225 2.925
2.025 42.075 0.375
4.875 42.525 -0.225
2.025 39.525 1.575
4.875 39.075 0.675
2.475 42.525 -0.075
2.475 42.525 -0.225
1.575 40.725 0.375
1.575 40.725 -0.375
1.575 40.725 0.825
4.275 38.775 1.275
4.275 38.775 0.675
3.075 38.775 0.375
1.575 40.575 0.825
1.575 40.575 0.675
1.725 39.975 0.825
4.725 42.675 0.675
4.725 42.675 -0.075
4.725 42.675 0.975
1.575 40.425 0.825
1.575 40.425 -0.075
1.575 40.425 -0.975
4.725 38.925 0.525
4.725 38.925 -1.875
4.725 38.925 0.975
4.425 42.825 1.125
2.625 38.925 0.075
5.175 42.375 0.525
5.325 42.225 0.525
3.825 42.975 -0.375
1.575 40.275 1.125
2.175 42.375 0.075
2.175 42.375 -0.075
2.175 42.375 0.225
5.025 42.525 1.425
5.025 42.525 0.525
2.025 42.225 0.075
2.025 42.225 0.375
3.825 38.625 1.125
3.525 38.625 1.125
5.025 39.075 0.525
3.375 42.975 0.075
1.725 39.825 1.425
2.325 42.525 0.075
2.325 42.525 0.675
3.975 38.625 0.375
3.375 38.625 0.225
4.875 42.675 1.575
1.575 40.125 5.925
1.575 40.125 0.375
3.225 42.975 0.525
3.225 42.975 0.225
4.125 38.625 1.275
4.125 38.625 1.425
4.875 38.925 0.375
3.225 38.625 0.225
3.075 42.975 0.075
3.075 42.975 -0.075
4.275 38.625 1.725
4.275 38.625 1.125
3.075 38.625 0.225
1.575 39.975 0.375
1.575 39.975 3.075
1.575 39.975 1.425
1.575 39.975 1.275
1.575 39.975 1.125
4.725 42.825 0.225
4.725 42.825 0.975
1.425 40.575 0.525
1.425 40.575 0.075
5.175 42.525 0.825
5.175 42.525 0.675
5.175 42.525 1.425
5.175 42.525 1.575
2.625 42.825 1.425
4.725 38.775 1.125
2.025 42.375 0.525
2.025 42.375 0.825
2.025 42.375 0.375
2.175 42.525 0.075
2.175 42.525 0.525
2.175 42.525 2.325
2.175 42.525 0.825
1.425 40.425 1.275
5.025 42.675 0.975
1.875 42.225 -0.225
4.425 38.625 0.825
2.925 38.625 0.075
2.325 42.675 0.075
2.325 42.675 0.375
2.325 42.675 1.425
2.325 42.675 0.225
1.425 40.275 1.125
3.825 43.125 0.975
1.575 39.825 0.225
1.575 39.825 0.975
3.675 38.475 1.275
1.725 42.075 -0.975
3.375 43.125 -0.225
3.375 43.125 0.075
1.725 39.525 1.425
3.975 38.475 0.825
2.775 42.975 1.875
2.775 42.975 0.825
4.875 38.775 1.125
4.575 38.625 0.675
4.575 38.625 0.975
1.425 40.125 0.675
1.425 40.125 0.975
1.425 40.125 1.275
4.125 43.125 1.275
3.225 43.125 0.075
3.225 43.125 0.675
3.225 43.125 0.525
2.025 42.525 0.525
2.025 42.525 0.375
2.025 42.525 -0.675
2.025 42.525 0.825
2.025 42.525 4.575
2.025 42.525 1.725
2.025 42.525 0.075
1.875 42.375 0.225
1.875 42.375 0.525
1.875 42.375 0.675
1.875 42.375 0.975
5.175 38.925 0.375
2.175 42.675 0.225
2.175 42.675 -1.275
2.175 42.675 0.075
2.175 42.675 0.525
2.175 42.675 1.875
4.725 42.975 0.375
4.725 42.975 0.525
1.425 39.975 1.275
3.075 38.475 0.075
3.075 38.475 -0.825
1.275 40.725 1.425
1.275 40.725 0.225
1.275 41.025 -0.225
2.625 38.625 0.975
2.625 38.625 0.675
1.725 39.375 1.125
4.425 43.125 1.275
4.425 43.125 0.525
2.325 42.825 -0.075
2.325 42.825 0.375
2.325 42.825 0.225
1.275 40.425 0.975
1.275 40.425 1.275
1.275 40.425 0.675
4.425 38.475 0.825
1.575 42.075 1.425
1.575 42.075 0.525
1.425 39.825 1.575
1.425 39.825 0.825
1.275 40.275 1.125
1.275 40.275 0.675
1.275 40.275 2.325
1.275 40.275 0.975
1.575 39.525 0.675
3.675 43.275 3.075
3.825 43.275 -0.825
3.825 43.275 -0.975
3.825 43.275 2.775
3.825 43.275 1.125
3.525 43.275 1.425
2.475 42.975 1.425
2.475 42.975 1.725
3.525 38.325 1.875
1.875 42.525 2.025
1.875 42.525 0.525
1.875 42.525 0.375
1.875 42.525 0.825
1.875 42.525 0.675
2.025 42.675 1.275
3.375 38.325 -0.075
2.775 38.475 0.825
1.275 40.125 1.125
1.875 39.075 1.425
5.175 42.825 -0.675
1.725 42.375 0.525
3.225 43.275 0.075
2.175 42.825 0.075
2.175 42.825 0.375
2.175 42.825 0.225
3.225 38.325 0.525
3.225 38.325 0.675
3.225 38.325 0.075
1.425 39.675 1.575
1.425 39.675 0.525
4.725 43.125 0.525
1.575 42.225 -1.725
1.575 42.225 1.275
3.075 43.275 0.075
4.275 38.325 1.575
2.325 42.975 -1.425
2.925 43.275 0.075
1.125 40.425 1.125
1.125 40.425 -2.625
1.125 40.425 1.425
1.125 40.425 1.275
4.425 38.325 0.675
4.425 38.325 3.975
1.425 39.525 -0.075
1.425 39.525 1.575
1.425 39.525 0.525
1.875 42.675 0.825
1.275 39.825 0.225
1.725 42.525 0.525
1.725 42.525 0.825
1.725 42.525 0.375
1.875 38.925 0.825
2.025 42.825 0.525
2.025 42.825 1.125
2.025 42.825 0.075
2.025 42.825 0.375
1.125 40.275 1.125
1.125 40.275 1.575
2.475 43.125 1.125
2.025 38.775 0.825
2.025 38.775 1.425
3.525 43.425 3.075
4.575 43.275 0.675
3.675 38.175 1.275
3.675 38.175 0.975
4.575 38.325 0.975
3.525 38.175 1.425
3.525 38.175 -1.575
1.575 39.225 1.125
3.375 43.425 0.075
3.375 43.425 1.425
2.175 42.975 0.225
2.175 42.975 0.375
3.975 38.175 1.725
3.375 38.175 0.075
3.375 38.175 1.275
3.375 38.175 0.225
4.125 43.425 0.525
3.225 43.425 0.075
4.125 38.175 0.525
4.125 38.175 0.675
1.425 42.225 0.225
3.225 38.175 0.225
1.425 39.375 0.675
1.425 39.375 1.275
4.725 38.325 3.525
4.725 38.325 3.075
4.275 38.175 1.425
4.275 38.175 1.875
4.275 38.175 1.125
2.625 38.325 -0.525
1.725 42.675 0.825
1.725 42.675 1.125
1.725 42.675 0.975
0.975 40.725 0.225
1.875 42.825 0.675
1.725 38.925 2.175
0.975 40.575 0.825
0.975 40.575 0.675
1.875 38.775 0.825
1.575 42.525 1.575
1.575 42.525 0.825
1.575 42.525 0.525
1.575 42.525 0.075
4.425 43.425 0.975
1.275 42.075 4.575
1.275 39.525 0.675
2.025 42.975 0.375
2.025 42.975 0.225
2.025 42.975 0.675
2.025 42.975 0.525
4.425 38.175 0.225
4.425 38.175 0.375
0.975 40.425 0.975
0.975 40.425 1.275
0.975 40.275 0.675
4.575 43.425 1.125
2.175 43.125 0.375
3.825 43.575 1.125
2.775 43.425 -1.275
4.575 38.175 0.975
3.675 38.025 1.275
3.675 38.025 1.425
3.675 38.025 -0.675
3.825 38.025 1.725
3.525 38.025 -0.675
3.525 38.025 -0.825
3.375 43.575 -0.225
1.125 41.925 -3.675
1.275 42.225 1.425
3.375 38.025 1.875
4.125 43.575 2.025
3.225 43.575 0.675
3.225 43.575 0.525
3.225 43.575 -0.975
1.725 42.825 0.825
1.725 42.825 -0.075
1.725 42.825 0.075
1.575 42.675 0.975
1.575 42.675 0.525
1.575 42.675 0.375
1.725 38.775 0.525
1.725 38.775 1.125
1.875 42.975 0.225
1.875 42.975 0.075
1.875 42.975 0.675
1.575 38.925 0.525
1.575 38.925 1.125
2.325 38.325 -0.075
2.325 38.325 1.575
1.875 38.625 0.525
1.875 38.625 0.675
3.075 43.575 -1.275
3.075 43.575 -1.125
3.075 43.575 0.075
1.425 42.525 -0.825
1.425 42.525 0.525
4.275 38.025 0.825
4.275 38.025 0.375
1.425 39.075 0.825
1.125 39.525 2.625
0.825 40.575 0.375
0.825 40.575 0.825
2.925 43.575 0.075
1.275 42.375 0.525
4.425 38.025 1.125
4.425 38.025 0.975
1.275 39.225 0.225
2.925 38.025 -3.675
0.825 40.425 1.275
0.825 40.275 0.375
4.575 38.025 0.975
1.575 42.825 0.675
1.575 42.825 0.225
1.575 42.825 0.825
1.575 42.825 0.525
1.725 42.975 0.825
1.725 42.975 -1.425
1.725 42.975 0.675
1.725 38.625 0.675
1.725 38.625 1.125
1.725 38.625 0.525
1.425 42.675 -0.225
3.525 37.875 1.275
3.375 43.725 0.825
0.825 40.125 1.425
1.875 43.125 0.375
3.375 37.875 0.975
1.875 38.475 0.975
1.875 38.475 0.375
2.625 43.575 1.575
3.225 37.875 1.275
3.225 37.875 1.875
2.025 43.275 0.375
4.275 37.875 0.825
3.075 37.875 0.975
3.075 37.875 1.275
1.125 42.375 1.875
1.125 39.225 2.625
1.125 39.225 0.075
0.675 40.725 0.225
0.675 40.725 0.075
0.675 40.725 0.375
0.675 40.725 0.975
4.425 37.875 4.875
1.575 42.975 0.525
1.575 42.975 0.825
1.575 42.975 0.975
1.575 42.975 0.675
2.925 37.875 0.075
1.425 42.825 0.525
1.425 42.825 1.125
2.475 38.025 0.375
0.675 40.425 1.125
0.675 40.425 0.075
1.725 43.125 0.225
1.725 38.475 0.525
1.725 38.475 0.675
1.725 38.475 0.375
1.275 42.675 0.075
1.275 42.675 1.425
1.275 42.675 1.275
1.275 42.675 1.875
0.675 41.325 0.375
0.675 41.325 0.825
0.675 40.275 0.375
1.875 43.275 0.075
1.875 43.275 1.125
1.875 43.275 1.275
0.975 39.375 3.075
2.775 37.875 0.075
1.875 38.325 0.525
1.875 38.325 0.375
0.825 39.675 -0.375
1.125 42.525 0.975
3.375 43.875 -0.375
3.525 37.725 1.425
3.525 37.725 -0.675
0.675 40.125 -0.225
0.675 40.125 1.125
3.975 37.725 1.275
3.975 37.725 -0.075
2.325 38.025 1.425
3.375 37.725 0.975
4.125 43.875 1.275
4.125 37.725 1.575
4.125 37.725 1.125
3.225 37.725 0.975
3.225 37.725 1.425
3.225 37.725 -0.075
3.225 37.725 0.675
2.625 37.875 0.075
1.425 42.975 0.675
1.575 43.125 0.825
1.575 43.125 0.075
1.575 43.125 0.525
4.275 37.725 0.825
1.425 38.625 0.825
1.425 38.625 1.425
1.425 38.625 2.025
3.075 37.725 0.675
3.075 37.725 0.225
3.075 37.725 2.475
1.575 38.475 1.125
1.575 38.475 0.375
2.175 43.575 -0.075
2.175 43.575 0.225
2.175 43.575 0.375
0.525 40.875 0.375
0.525 40.875 0.225
0.525 40.725 0.525
0.525 40.725 0.075
4.875 37.875 2.925
0.525 40.575 0.825
1.125 42.675 0.675
2.925 37.725 2.025
1.125 38.925 0.975
0.525 40.425 0.375
1.875 43.425 0.675
0.825 42.225 1.875
4.575 43.875 0.825
0.525 41.325 0.525
0.975 42.525 4.275
2.775 37.725 -0.825
2.775 37.725 -0.675
2.775 37.725 0.975
2.775 37.725 -1.275
2.775 37.725 -0.525
2.775 37.725 0.225
2.025 43.575 0.225
2.025 43.575 0.075
2.025 43.575 0.375
3.675 37.575 -0.825
3.675 37.575 1.425
2.325 37.875 0.225
3.975 44.025 2.025
3.825 37.575 0.975
3.825 37.575 1.275
3.525 37.575 0.975
1.425 43.125 0.825
1.425 43.125 0.375
1.275 42.975 1.125
1.275 42.975 0.525
1.275 42.975 0.975
3.975 37.575 1.125
4.125 44.025 1.575
4.125 44.025 1.275
2.625 37.725 0.075
1.125 42.825 1.125
1.125 42.825 1.575
0.825 42.375 2.025
3.225 37.575 1.575
3.225 37.575 1.125
3.225 37.575 0.225
0.825 39.225 0.225
1.725 43.425 0.825
4.275 44.025 1.875
2.175 43.725 -1.275
2.175 43.725 0.375
2.175 43.725 0.225
3.075 37.575 0.225
3.075 37.575 0.825
4.875 43.875 0.375
2.175 37.875 0.375
2.475 43.875 -0.975
1.875 43.575 -0.375
1.875 43.575 0.225
0.375 41.025 -0.225
0.375 41.025 0.375
1.875 38.025 1.125
2.925 37.575 -0.375
2.925 37.575 0.675
2.925 37.575 1.875
2.925 37.575 0.975
2.925 37.575 1.425
0.375 41.175 0.375
0.675 39.375 2.025
0.675 39.375 -1.875
0.825 42.525 1.875
4.575 44.025 0.975
0.825 39.075 0.675
1.275 43.125 1.125
1.275 43.125 1.575
1.275 43.125 1.275
5.025 43.875 0.375
4.575 37.575 1.125
4.575 37.575 0.975
1.275 38.475 2.025
1.125 42.975 1.275
1.125 42.975 0.675
1.425 38.325 1.725
2.775 37.575 1.425
2.775 37.575 0.225
2.325 43.875 1.125
2.325 43.875 0.675
2.025 43.725 0.225
2.025 43.725 0.375
2.025 43.725 0.525
1.575 43.425 0.825
1.575 43.425 1.275
2.325 37.725 1.725
2.025 37.875 2.025
3.675 37.425 -0.975
3.675 37.425 1.275
3.375 44.175 0.075
3.825 37.425 0.975
3.525 37.425 1.275
3.525 37.425 0.825
3.525 37.425 -0.675
3.525 37.425 -0.375
1.725 43.575 0.675
1.725 43.575 0.225
1.725 43.575 0.375
3.975 37.425 1.275
3.975 37.425 0.675
2.625 37.575 1.725
3.225 44.175 0.075
3.225 44.175 2.775
1.725 38.025 2.175
4.275 44.175 1.575
2.175 43.875 0.975
2.175 43.875 0.375
2.175 37.725 0.675
4.275 37.425 0.825
1.875 43.725 0.225
1.875 43.725 0.375
1.875 43.725 0.825
3.075 37.425 0.825
4.425 44.175 1.275
1.275 43.275 0.975
2.925 44.175 2.475
1.125 43.125 1.875
1.275 38.325 0.825
1.275 38.325 2.025
0.225 40.725 -0.075
4.425 37.425 0.825
2.925 37.425 0.225
2.925 37.425 1.575
1.425 38.175 0.675
1.425 38.175 0.075
1.575 43.575 0.975
1.575 43.575 0.675
2.025 43.875 0.525
2.025 43.875 0.375
2.025 43.875 0.675
2.775 44.175 0.975
0.375 39.675 -0.975
2.775 37.425 -1.425
2.325 37.575 2.025
1.725 43.725 0.225
1.725 43.725 0.525
1.725 43.725 0.975
1.725 43.725 0.825
4.725 44.175 1.425
3.675 37.275 1.275
3.975 44.325 1.725
3.375 44.325 -0.225
0.525 39.225 2.175
3.825 37.275 0.675
3.825 37.275 0.525
3.825 37.275 0.975
3.825 37.275 1.425
3.825 37.275 1.575
3.525 37.275 0.975
3.525 37.275 -0.825
3.525 37.275 0.825
3.975 37.275 1.125
0.675 42.675 0.975
2.625 37.425 1.425
3.375 37.275 6.075
5.175 44.025 2.175
3.225 44.325 0.075
3.225 44.325 0.525
2.175 44.025 -0.375
4.125 37.275 1.425
5.925 43.575 -2.625
1.875 43.875 0.525
1.875 43.875 0.375
1.875 43.875 0.225
1.875 43.875 0.675
3.075 44.325 -0.075
3.075 44.325 0.075
4.275 37.275 0.525
4.275 37.275 0.825
3.075 37.275 0.225
3.075 37.275 -0.075
3.075 37.275 0.675
1.425 38.025 0.825
2.475 37.425 2.025
2.475 37.425 0.225
2.475 37.425 1.575
4.425 44.325 2.625
1.575 43.725 1.125
1.575 43.725 0.675
1.575 43.725 1.275
0.075 40.875 0.525
0.075 40.725 -0.675
2.925 37.275 1.875
2.925 37.275 -0.525
5.325 44.025 2.025
0.075 41.025 0.825
2.025 44.025 2.925
2.025 44.025 0.075
2.025 44.025 0.975
0.675 42.825 0.825
5.025 44.175 1.125
4.575 44.325 0.375
0.225 41.925 1.425
4.575 37.275 1.725
4.575 37.275 4.275
1.725 43.875 0.375
1.725 43.875 0.675
1.725 43.875 1.125
2.775 37.275 1.575
0.075 41.325 0.375
0.075 41.325 -0.075
1.725 37.725 2.775
0.975 43.275 0.675
3.525 44.475 0.075
0.525 38.925 1.125
1.275 38.025 1.575
3.825 37.125 0.525
3.825 37.125 1.425
3.525 37.125 -0.225
2.625 37.275 -0.375
1.425 43.725 1.275
3.975 37.125 0.675
1.875 44.025 0.375
1.875 44.025 0.825
1.875 44.025 0.525
1.425 37.875 0.975
1.875 37.575 2.325
4.125 37.125 0.075
3.225 37.125 1.875
1.575 43.875 0.225
1.575 43.875 0.075
1.575 43.875 1.125
1.575 43.875 0.975
4.275 37.125 1.125
3.075 37.125 0.225
2.475 37.275 0.225
2.475 37.275 2.025
2.925 44.475 -0.075
4.425 37.125 0.675
2.925 37.125 0.375
-0.075 40.875 0.975
-0.075 40.725 1.125
-0.075 41.025 0.075
-0.075 41.025 0.525
1.725 44.025 0.975
1.725 44.025 0.825
1.725 44.025 0.075
1.725 44.025 0.225
4.575 44.475 1.425
-0.075 41.175 2.025
0.825 43.275 -1.125
0.075 41.925 0.075
2.775 37.125 0.825
1.275 37.875 1.425
-0.075 41.325 0.225
0.675 43.125 1.725
0.375 42.675 1.275
1.425 43.875 1.125
1.425 43.875 0.525
-0.075 41.475 0.525
1.875 44.175 0.825
1.875 44.175 0.075
1.875 44.175 0.375
1.875 44.175 0.525
3.975 44.625 -1.425
2.625 37.125 0.225
3.975 36.975 1.725
3.375 36.975 1.275
3.225 44.625 0.075
-0.075 41.625 0.375
1.575 44.025 1.725
1.575 44.025 0.975
1.575 44.025 0.825
1.575 44.025 1.575
4.125 36.975 1.575
3.225 36.975 -3.375
1.575 37.575 2.775
2.475 37.125 -0.225
0.075 42.225 -0.075
3.075 36.975 2.925
3.075 36.975 1.575
-0.075 41.775 2.025
-0.075 41.775 0.975
0.975 38.025 0.825
2.025 44.325 0.525
1.725 44.175 1.425
1.725 44.175 0.525
1.725 44.175 -1.725
1.725 44.175 0.825
4.425 36.975 1.125
1.725 37.425 3.075
1.725 37.425 -1.275
1.275 37.725 0.675
1.275 37.725 1.425
2.325 44.475 2.925
-0.225 41.025 0.975
-0.225 41.025 0.375
-0.225 41.025 0.525
0.525 43.125 1.275
0.525 43.125 1.425
-0.225 41.175 0.375
-0.225 40.425 0.675
1.425 44.025 1.575
1.425 44.025 2.025
1.425 44.025 0.225
1.425 44.025 0.975
1.425 44.025 1.125
2.775 36.975 0.975
2.775 36.975 -0.375
0.225 38.925 0.375
-0.225 41.325 0.525
1.875 44.325 0.675
1.875 44.325 0.525
1.875 44.325 0.825
4.725 44.625 0.225
2.625 44.625 -3.075
1.875 37.275 -1.725
-0.075 42.075 0.525
3.825 44.775 -1.125
2.625 36.975 0.225
1.575 44.175 0.675
1.575 44.175 0.375
3.675 36.825 0.975
3.375 44.775 0.075
3.825 36.825 0.975
3.825 36.825 1.125
0.675 43.425 3.675
3.975 36.825 0.975
3.975 36.825 0.825
3.375 36.825 1.425
3.375 36.825 0.525
-0.225 41.625 0.825
3.225 44.775 0.525
3.225 44.775 0.075
1.125 43.875 1.425
3.075 44.775 0.075
1.275 44.025 1.125
1.275 44.025 0.525
4.275 36.825 0.675
1.725 44.325 -0.075
1.725 44.325 0.825
1.725 44.325 0.675
1.725 44.325 0.225
-0.225 41.775 1.125
1.275 37.575 0.525
1.275 37.575 0.825
4.425 44.775 1.725
1.725 37.275 2.475
2.925 36.825 -0.675
1.425 44.175 0.525
1.425 44.175 0.825
1.425 44.175 1.575
1.425 44.175 0.375
1.425 44.175 0.675
-0.375 40.875 0.975
-0.375 40.875 0.375
0.075 42.675 0.075
-0.375 41.025 1.425
1.425 37.425 0.825
-0.225 41.925 0.825
-0.075 42.375 0.675
-0.375 41.175 0.675
2.775 36.825 0.225
2.775 36.825 0.675
2.775 36.825 0.825
2.775 36.825 -0.675
2.775 36.825 -0.225
-0.375 41.325 0.825
0.825 37.875 0.825
5.175 44.625 0.975
4.725 44.775 1.425
0.975 37.725 1.575
1.575 44.325 0.975
1.575 44.325 0.375
1.575 44.325 1.275
1.575 37.275 3.075
3.825 44.925 -0.975
3.825 44.925 2.025
3.825 44.925 2.325
1.125 37.575 1.275
1.125 37.575 1.725
3.825 36.675 1.125
3.525 36.675 1.125
3.975 36.675 0.525
3.975 36.675 0.675
3.375 36.675 0.825
3.225 44.925 -0.225
3.225 44.925 0.675
1.275 37.425 1.125
4.125 36.675 0.825
4.125 36.675 1.725
4.125 36.675 1.275
3.225 36.675 0.975
-0.225 42.225 1.575
1.725 44.475 0.675
1.725 44.475 0.375
1.725 44.475 0.225
4.275 44.925 1.725
3.075 44.925 0.825
3.075 44.925 0.075
4.275 36.675 1.725
-0.375 41.775 0.975
2.025 36.975 0.825
3.075 36.675 1.275
1.425 44.325 0.825
1.425 44.325 1.125
1.425 44.325 -0.225
2.925 44.925 -0.075
5.025 44.775 1.425
1.425 37.275 0.825
2.925 36.675 0.075
2.925 36.675 0.225
0.675 37.875 1.275
0.825 37.725 1.725
0.825 37.725 0.975
-0.525 40.725 0.525
-0.525 41.025 0.825
-0.525 41.025 1.125
0.975 37.575 1.425
0.975 37.575 0.675
-0.525 41.175 0.525
2.775 36.675 2.325
2.775 36.675 0.375
2.775 36.675 0.225
1.125 44.175 1.575
1.575 44.475 1.125
1.575 44.475 0.375
1.575 44.475 0.075
1.575 44.475 0.675
1.575 44.475 -1.125
1.575 44.475 0.825
1.575 44.475 -1.275
1.575 44.475 0.525
1.125 37.425 0.525
1.125 37.425 0.975
1.575 37.125 0.825
2.175 44.775 0.375
4.725 44.925 1.725
-0.375 42.075 -0.375
-0.375 42.075 0.825
2.175 36.825 -0.825
-0.525 41.475 -0.675
2.625 36.675 1.875
3.675 45.075 2.325
-0.225 42.525 0.675
-0.225 42.525 0.375
3.525 45.075 0.825
1.275 37.275 0.975
3.675 36.525 0.675
3.825 36.525 0.825
3.525 36.525 0.525
3.525 36.525 0.825
1.725 44.625 0.225
3.225 45.075 0.525
3.225 45.075 0.075
0.075 38.475 3.525
0.675 43.875 0.375
-0.375 42.225 0.975
-0.375 42.225 0.825
-0.375 42.225 1.275
2.025 44.775 0.225
4.125 36.525 -0.075
3.225 36.525 1.125
3.225 36.525 0.375
0.675 37.725 0.975
0.675 37.725 -0.225
0.675 37.725 1.275
0.675 37.725 1.125
1.425 44.475 1.425
1.425 44.475 -0.225
0.525 37.875 0.375
3.075 45.075 0.075
3.075 45.075 0.525
2.025 36.825 -1.125
0.825 37.575 1.425
0.825 37.575 1.125
1.425 37.125 1.875
1.425 37.125 3.525
-0.525 41.775 0.375
-0.525 41.775 0.675
-0.525 41.775 0.825
4.275 36.525 0.225
3.075 36.525 1.275
3.075 36.525 2.175
0.975 37.425 1.425
0.975 37.425 0.675
0.975 37.425 0.825
0.975 37.425 0.375
0.975 37.425 0.225
-0.225 42.675 0.975
2.325 44.925 -2.025
-0.075 42.975 1.575
2.925 36.525 2.325
2.925 36.525 -0.825
2.925 36.525 2.025
1.125 44.325 -1.575
-0.375 42.375 0.825
-0.375 42.375 0.225
-0.375 42.375 0.525
-0.525 41.925 0.975
-0.525 41.925 1.575
-0.675 40.875 1.425
1.125 37.275 0.075
1.875 44.775 -0.525
1.875 44.775 -0.075
1.575 44.625 0.225
2.775 45.075 0.075
-0.675 41.025 -0.675
-0.675 41.175 0.975
-0.675 41.175 -0.375
-0.675 41.175 0.375
2.775 36.525 1.725
2.175 44.925 0.225
2.175 44.925 0.075
1.275 44.475 0.375
2.625 45.075 -0.075
1.275 37.125 1.125
-0.225 42.825 0.675
0.525 43.875 0.675
0.675 44.025 0.375
0.675 44.025 0.525
-0.375 42.525 1.425
-0.375 42.525 0.675
-0.375 42.525 3.375
-0.675 41.475 0.525
0.525 37.725 1.425
0.675 37.575 1.725
-0.075 43.125 0.675
5.625 44.775 -2.475
0.825 44.175 0.075
0.825 44.175 0.675
0.375 37.875 1.875
1.725 44.775 0.075
1.725 44.775 -0.075
0.825 37.425 0.075
0.825 37.425 0.525
0.825 37.425 0.675
0.825 37.425 0.975
3.975 45.225 1.575
3.675 36.375 0.975
0.225 43.575 0.525
0.225 43.575 1.425
3.525 36.375 1.725
-0.675 41.625 -0.075
-0.675 41.625 0.375
2.475 45.075 0.075
1.425 44.625 0.225
3.975 36.375 0.975
3.975 36.375 0.825
2.025 44.925 0.075
2.025 44.925 -0.225
3.375 36.375 1.575
3.375 36.375 2.175
-0.525 42.225 0.675
3.225 45.225 -1.575
3.225 45.225 -0.225
0.975 37.275 1.125
0.975 37.275 0.075
0.975 37.275 0.825
2.025 36.675 0.675
2.025 36.675 -1.275
3.225 36.375 1.575
3.225 36.375 1.425
3.225 36.375 -0.825
3.225 36.375 1.275
3.075 45.225 0.525
3.075 45.225 1.575
-0.675 41.775 -0.225
0.075 38.175 1.725
-0.375 42.675 0.825
-0.225 42.975 0.675
3.075 36.375 1.275
3.075 36.375 2.025
3.075 36.375 0.375
2.325 45.075 -0.075
2.325 45.075 0.075
2.925 45.225 0.825
2.925 45.225 -0.075
2.325 36.525 0.075
2.325 36.525 -0.675
2.325 36.525 -0.375
-0.525 42.375 0.825
1.575 44.775 0.075
1.575 44.775 -0.525
1.575 44.775 0.675
1.575 44.775 0.525
1.875 44.925 -0.075
1.875 44.925 0.075
-0.675 41.925 0.075
6.675 44.175 0.225
-0.825 40.875 0.375
-0.825 40.725 2.025
0.525 44.025 0.225
2.775 45.225 0.075
2.775 45.225 2.325
1.275 44.625 1.275
0.675 44.175 0.375
0.525 37.575 -0.375
0.525 37.575 1.125
0.375 37.725 1.725
0.375 37.725 1.875
-0.825 41.175 -0.075
0.675 37.425 0.225
0.675 37.425 1.125
0.225 43.725 0.975
0.225 43.725 0.525
2.175 45.075 -0.075
2.175 45.075 0.075
2.175 45.075 0.225
-0.375 42.825 2.775
0.825 44.325 0.375
-0.675 42.075 0.375
0.825 37.275 1.125
-0.225 43.125 0.675
-0.525 42.525 0.525
-0.525 42.525 1.425
0.075 43.575 1.425
2.625 36.375 2.025
-0.825 41.475 1.125
-0.825 40.125 1.425
1.725 44.925 0.225
1.725 44.925 0.075
1.425 44.775 -0.075
1.425 44.775 0.825
1.425 36.825 0.825
3.975 45.375 1.275
3.975 45.375 1.575
2.025 45.075 0.225
2.025 45.075 -0.075
2.025 45.075 -0.225
2.025 45.075 0.375
3.675 36.225 0.825
3.675 36.225 1.125
2.475 45.225 2.175
-0.075 43.425 0.375
3.825 36.225 0.825
3.825 36.225 0.975
3.825 36.225 0.375
3.825 36.225 1.275
3.525 36.225 1.125
3.525 36.225 0.975
3.525 36.225 1.725
3.525 36.225 0.225
-0.825 41.625 -0.075
-0.825 41.625 0.525
-0.825 41.625 -0.375
-0.675 42.225 0.225
-0.675 42.225 2.775
4.875 36.375 0.825
4.875 36.375 -2.925
-0.075 38.175 -0.975
3.975 36.225 0.825
3.975 36.225 0.675
3.375 36.225 1.875
1.125 44.625 0.675
1.125 44.625 0.075
4.125 36.225 0.675
-0.375 42.975 0.675
3.225 36.225 0.825
3.225 36.225 2.325
-0.525 42.675 0.675
-0.525 42.675 0.075
-0.525 42.675 0.525
4.275 45.375 1.125
4.275 45.375 1.575
1.125 36.975 0.075
1.125 36.975 1.275
1.125 36.975 0.675
3.075 36.225 1.425
3.075 36.225 1.275
-0.225 43.275 0.675
-0.225 43.275 1.275
0.225 43.875 0.375
0.375 37.575 0.675
1.575 44.925 0.075
4.425 45.375 -5.775
4.425 45.375 0.975
0.675 44.325 0.075
0.225 37.725 1.125
-0.675 42.375 0.675
2.325 36.375 -0.675
2.325 36.375 0.225
1.875 45.075 -0.225
1.875 45.075 0.075
1.875 45.075 1.575
0.675 37.275 1.275
0.075 43.725 1.125
0.075 43.725 -0.375
1.275 44.775 0.975
2.925 36.225 1.425
-0.825 39.675 1.125
0.825 44.475 -0.075
4.575 45.375 1.125
4.575 45.375 0.075
4.575 45.375 0.675
2.775 45.375 -1.275
0.825 37.125 0.525
2.175 45.225 -0.525
2.175 45.225 0.075
2.775 36.225 2.025
2.775 36.225 1.425
-0.375 43.125 1.725
2.175 36.375 -0.375
0.975 44.625 0.075
-0.675 42.525 1.275
-0.675 42.525 0.825
-0.825 39.525 1.125
-0.975 41.325 0.375
0.975 36.975 0.075
1.725 45.075 0.225
1.725 45.075 1.575
1.725 45.075 0.075
1.425 44.925 0.075
1.425 44.925 0.675
1.425 44.925 0.975
1.425 44.925 0.525
2.625 36.225 -0.075
2.625 36.225 0.825
2.625 36.225 1.275
2.625 36.225 1.875
-0.225 43.425 0.675
-0.975 41.475 0.975
-0.975 41.475 0.825
1.725 36.525 1.575
1.425 36.675 0.525
7.125 44.025 -3.525
-0.225 38.175 1.875
2.025 45.225 0.075
2.025 45.225 -1.275
2.025 45.225 0.225
0.375 44.175 0.225
1.125 44.775 0.375
1.125 44.775 0.075
0.225 44.025 0.675
2.475 45.375 0.375
3.675 36.075 -0.675
3.675 36.075 0.375
3.675 36.075 0.825
0.375 37.425 1.125
0.375 37.425 1.575
1.125 36.825 1.725
3.825 36.075 1.275
3.825 36.075 1.425
3.525 36.075 3.375
3.525 36.075 0.525
3.525 36.075 1.125
0.225 37.575 1.875
0.225 37.575 1.275
-0.525 42.975 2.625
2.475 36.225 0.675
2.475 36.225 0.225
0.075 43.875 0.375
0.075 43.875 0.525
4.125 45.525 1.875
3.375 36.075 0.525
3.375 36.075 1.125
3.225 45.525 1.575
3.225 45.525 0.675
-0.675 42.675 4.425
-0.675 42.675 0.375
-0.675 42.675 0.825
-0.675 42.675 0.675
0.675 44.475 2.475
4.125 36.075 0.975
4.125 36.075 0.375
-0.375 43.275 1.425
3.225 36.075 1.275
3.225 36.075 1.875
3.225 36.075 2.025
0.675 37.125 1.725
0.675 37.125 1.125
0.675 37.125 0.525
0.675 37.125 1.275
4.275 45.525 1.575
3.075 45.525 0.075
1.575 45.075 -0.075
-0.075 37.875 1.275
4.275 36.075 0.975
4.275 36.075 0.525
3.075 36.075 2.025
0.825 44.625 0.975
1.275 44.925 0.825
1.275 44.925 0.675
1.875 45.225 0.075
1.875 45.225 0.225
1.875 45.225 -0.075
4.425 45.525 0.525
2.325 36.225 1.875
2.325 36.225 2.175
2.325 36.225 -0.825
2.325 36.225 1.125
0.825 36.975 1.425
0.825 36.975 0.375
1.275 36.675 0.525
1.875 36.375 2.325
4.575 45.525 1.275
4.575 45.525 0.825
4.575 45.525 0.225
-0.675 42.825 0.975
-0.675 42.825 0.525
-0.525 43.125 1.275
-0.525 43.125 1.875
2.175 45.375 -0.075
-1.125 41.025 0.375
0.975 36.825 0.075
2.775 36.075 1.725
-1.125 40.425 -0.975
-0.825 42.525 0.975
-0.825 42.525 1.575
1.425 45.075 1.125
1.425 45.075 0.225
0.375 44.325 0.675
1.725 45.225 0.225
0.075 44.025 1.425
0.225 37.425 -2.175
0.225 37.425 3.075
0.225 37.425 1.725
-1.125 41.325 1.275
0.375 37.275 0.975
0.375 37.275 0.675
2.625 36.075 1.425
2.625 36.075 2.175
2.625 36.075 0.225
1.125 44.925 0.225
1.125 44.925 0.825
0.525 37.125 1.275
0.525 37.125 0.975
-1.125 41.475 1.425
1.125 36.675 0.525
2.025 45.375 -0.075
2.025 45.375 0.075
3.825 45.675 2.325
-0.975 42.225 1.425
0.675 36.975 1.425
2.025 36.225 -0.075
3.675 35.925 1.125
3.675 35.925 1.575
-0.825 42.675 1.275
3.825 35.925 0.975
3.825 35.925 0.825
2.475 36.075 0.225
-0.225 37.875 1.275
3.975 35.925 0.975
3.975 35.925 1.425
3.975 35.925 0.375
3.375 35.925 1.425
3.225 45.675 0.075
3.225 45.675 -0.225
3.225 45.675 0.525
1.575 45.225 0.225
1.575 45.225 0.975
1.575 45.225 0.075
4.125 35.925 0.975
0.825 36.825 0.075
1.275 45.075 -0.075
3.075 45.675 0.075
1.275 36.525 0.075
1.275 36.525 -0.525
-0.375 43.575 0.975
1.875 45.375 0.075
1.875 45.375 -0.075
1.875 45.375 0.375
-0.975 42.375 -0.525
2.325 36.075 2.625
4.425 45.675 1.125
1.875 36.225 0.075
0.975 44.925 1.275
0.975 44.925 1.425
0.975 44.925 1.725
0.075 44.175 1.275
0.975 36.675 2.025
-0.825 42.825 0.525
0.375 44.475 0.525
0.225 37.275 1.275
0.225 37.275 0.825
0.225 37.275 1.425
0.225 37.275 1.575
0.225 37.275 2.175
6.825 44.625 0.075
4.575 45.675 0.375
4.575 45.675 1.125
0.375 37.125 0.375
0.375 37.125 0.825
0.525 44.625 0.525
0.525 44.625 2.325
-0.525 43.425 0.075
-0.525 43.425 0.225
4.575 35.925 2.625
1.425 45.225 -0.075
1.425 45.225 0.525
0.525 36.975 0.075
0.525 36.975 0.975
0.525 36.975 1.125
0.525 36.975 1.275
2.175 36.075 0.975
-0.975 39.075 -0.375
1.725 45.375 0.225
1.725 45.375 -0.075
1.725 45.375 0.375
-1.275 41.175 0.375
1.125 45.075 0.825
0.675 44.775 1.575
0.675 36.825 0.225
-0.375 43.725 1.425
-1.275 41.475 0.525
-0.675 43.275 1.425
2.025 36.075 1.575
2.025 36.075 0.075
0.825 44.925 1.875
-0.675 38.325 0.375
7.275 44.325 1.275
3.975 45.825 1.575
3.675 35.775 0.825
3.675 35.775 1.125
1.575 45.375 0.675
1.575 45.375 0.825
1.575 45.375 0.075
1.575 45.375 -0.375
1.575 45.375 -0.075
3.825 35.775 -0.375
1.275 45.225 0.525
4.125 45.825 1.275
3.975 35.775 0.675
3.225 45.825 0.075
3.225 45.825 -3.975
3.225 45.825 -1.125
0.075 44.325 1.725
0.225 44.475 0.225
0.225 44.475 0.675
0.225 44.475 1.425
-0.075 44.175 1.725
0.075 37.275 1.575
4.125 35.775 0.225
3.225 35.775 1.875
3.225 35.775 1.425
4.275 45.825 1.275
3.075 45.825 0.075
-0.075 37.425 1.425
0.975 45.075 0.825
6.825 44.775 0.375
0.375 36.975 1.275
-0.225 44.025 1.275
-0.225 44.025 -0.225
0.975 36.525 0.525
2.325 35.925 1.725
2.325 35.925 1.575
0.525 44.775 0.375
0.525 44.775 0.525
4.425 45.825 0.825
2.925 45.825 0.075
-0.975 42.825 0.825
-1.275 41.925 2.025
-1.275 41.925 1.725
-0.675 43.425 0.225
-0.675 43.425 0.675
-0.375 43.875 0.375
-0.375 43.875 2.025
4.575 45.825 0.825
1.425 45.375 0.375
-1.125 42.525 1.275
2.175 35.925 -0.375
2.175 35.925 -0.825
1.725 45.525 0.075
1.725 45.525 -0.225
1.725 45.525 -0.675
0.675 36.675 1.125
2.775 35.775 1.425
-1.425 41.025 -0.225
-1.425 41.025 0.075
1.125 36.375 0.825
-1.275 42.075 1.875
-0.525 43.725 0.075
4.725 45.825 2.475
7.275 44.475 0.825
0.825 45.075 1.725
0.825 45.075 1.425
2.625 35.775 1.275
-0.825 43.275 1.575
-0.825 43.275 0.525
0.075 44.475 1.425
0.825 36.525 1.425
0.825 36.525 0.525
-0.075 44.325 0.975
0.225 44.625 0.375
-1.425 41.475 0.825
2.025 35.925 0.075
0.075 37.125 2.625
0.075 37.125 3.225
-1.125 42.675 1.275
0.225 36.975 1.725
2.475 45.825 -1.275
-0.675 43.575 1.275
0.375 44.775 0.825
-0.225 37.425 2.925
1.575 45.525 0.975
3.825 45.975 1.425
5.775 36.075 2.025
-1.425 41.625 1.125
1.275 36.225 0.675
1.275 36.225 1.275
1.575 36.075 0.075
3.675 35.625 -0.675
0.975 45.225 -0.225
0.975 45.225 1.725
3.225 45.975 0.075
3.225 45.975 -0.225
3.225 45.975 0.525
3.225 45.975 -1.125
3.375 35.625 1.275
0.975 36.375 1.725
0.975 36.375 1.425
1.875 45.675 0.075
1.875 45.675 0.675
4.125 35.625 0.825
2.325 45.825 -1.125
2.325 45.825 -0.975
0.525 36.675 1.125
0.525 36.675 0.075
4.275 45.975 0.375
4.275 45.975 1.275
3.075 45.975 -0.675
3.075 45.975 0.525
3.075 45.975 0.075
1.875 35.925 -0.375
3.075 35.625 1.725
2.925 45.975 -0.075
1.425 45.525 0.675
1.425 45.525 0.225
0.675 36.525 0.225
0.675 36.525 0.825
1.425 36.075 -0.675
1.125 36.225 1.425
1.725 45.675 0.075
1.725 45.675 -0.075
2.175 35.775 -0.075
2.175 35.775 0.075
2.175 35.775 -0.225
2.175 35.775 0.825
-0.075 44.475 1.725
0.075 44.625 1.725
0.075 44.625 1.425
2.775 35.625 1.275
2.775 35.625 1.425
2.775 35.625 1.125
0.825 45.225 -0.075
0.225 44.775 0.525
-0.225 37.275 0.675
-0.225 37.275 -0.375
-0.975 43.275 1.125
-0.975 43.275 0.525
0.825 36.375 0.825
0.225 36.825 3.825
0.225 36.825 1.725
0.225 36.825 0.825
-0.375 44.175 2.025
-0.375 44.175 1.875
-0.375 44.175 -0.075
-0.375 44.175 0.825
-1.125 42.975 0.975
-0.975 38.325 1.575
-0.975 38.325 1.275
2.025 45.825 0.525
2.625 35.625 1.275
2.625 35.625 -1.125
2.625 35.625 -1.425
-0.825 43.575 1.125
2.025 35.775 -1.275
1.275 45.525 0.375
-0.525 44.025 3.525
1.575 45.675 0.225
2.475 35.625 1.725
2.475 35.625 -0.675
0.525 36.525 0.375
0.525 36.525 1.575
0.525 36.525 2.025
3.675 35.475 1.125
3.675 35.475 0.225
3.825 35.475 0.225
3.525 35.475 0.975
3.525 35.475 1.125
1.875 45.825 0.525
3.975 35.475 0.225
3.975 35.475 0.825
1.875 35.775 -0.225
1.875 35.775 1.725
4.125 35.475 0.225
3.225 35.475 0.975
3.225 35.475 2.025
4.275 46.125 -2.925
3.075 46.125 0.075
2.325 35.625 -0.075
2.325 35.625 0.525
2.325 35.625 0.075
-0.075 44.625 0.675
0.075 44.775 1.575
3.075 35.475 1.275
-0.075 36.975 2.925
1.425 45.675 0.675
-0.825 43.725 1.875
2.925 46.125 -0.075
0.075 36.825 -0.525
2.925 35.475 1.125
2.925 35.475 1.575
1.725 45.825 -0.075
1.725 45.825 0.675
0.825 45.375 1.275
4.575 46.125 0.525
2.775 46.125 -0.075
2.175 35.625 0.075
2.175 35.625 0.675
1.725 35.775 -0.675
0.825 36.225 1.575
-1.125 43.275 0.675
2.775 35.475 1.125
2.775 35.475 1.275
-0.675 44.025 1.125
-0.675 44.025 1.875
2.025 45.975 -0.075
2.025 45.975 0.075
2.025 35.625 -0.225
0.525 36.375 1.275
1.575 45.825 -0.075
1.575 45.825 0.375
0.975 36.075 0.825
1.575 35.775 -0.975
-0.225 44.625 1.425
2.475 35.475 -0.225
2.475 35.475 -0.525
3.525 46.275 0.075
-0.375 44.475 2.025
-1.725 39.975 0.525
-1.275 43.125 0.525
-1.125 43.425 0.525
-1.125 43.425 0.975
1.875 45.975 -0.075
1.875 45.975 0.225
3.375 46.275 -0.975
-0.375 37.125 0.225
0.675 36.225 1.425
0.675 36.225 0.075
3.525 35.325 1.275
0.075 36.675 0.975
3.225 46.275 -0.225
3.225 46.275 0.075
3.975 35.325 0.675
3.975 35.325 4.725
3.375 35.325 1.725
2.325 46.125 -0.075
0.225 45.075 1.875
3.225 35.325 1.425
4.275 46.275 3.675
2.325 35.475 0.225
2.325 35.475 1.575
2.325 35.475 -0.375
3.075 46.275 0.675
3.075 46.275 -0.075
0.225 36.525 -0.375
1.425 45.825 1.275
-0.675 44.175 2.625
1.125 35.925 3.225
1.125 35.925 1.725
3.075 35.325 2.025
3.075 35.325 1.575
3.075 35.325 1.125
0.825 45.525 0.975
2.925 46.275 -0.075
1.725 45.975 0.675
1.725 45.975 0.525
1.725 45.975 0.225
1.725 45.975 0.825
0.375 36.375 1.575
0.375 36.375 1.275
2.925 35.325 1.725
2.925 35.325 -0.825
2.925 35.325 1.125
1.725 35.625 -0.375
1.725 35.625 0.075
2.175 35.475 0.225
-1.125 43.575 1.725
2.775 35.325 0.975
0.525 36.225 1.275
4.725 46.275 0.525
2.025 46.125 0.075
-0.075 44.925 1.275
-0.075 44.925 1.875
-0.075 44.925 -0.675
-0.075 44.925 1.575
2.625 35.325 1.275
0.975 35.925 0.825
1.575 45.975 0.675
1.575 45.975 0.225
1.575 45.975 0.075
-0.975 37.725 -0.675
-1.725 42.225 2.175
1.575 35.625 0.375
0.075 36.525 -0.225
2.475 46.275 -1.275
0.675 36.075 1.425
-1.275 43.425 1.275
0.225 45.225 0.525
2.475 35.325 -0.675
1.875 46.125 0.075
0.225 36.375 0.675
-1.125 43.725 2.025
-1.125 43.725 1.125
-1.125 43.725 -0.075
-1.125 43.725 2.175
-1.125 43.725 1.725
3.375 46.425 4.725
-0.825 44.175 0.375
3.675 35.175 1.725
3.825 35.175 -0.525
3.525 35.175 0.975
3.525 35.175 1.125
1.125 45.825 0.975
3.225 46.425 1.725
3.375 35.175 0.675
1.425 45.975 0.975
1.425 45.975 0.075
1.425 45.975 0.825
0.375 36.225 0.375
3.075 46.425 0.375
0.825 35.925 0.825
1.725 46.125 0.225
1.725 46.125 -0.225
1.725 46.125 -0.075
2.925 46.425 -0.075
1.725 35.475 0.075
2.925 35.175 1.425
2.925 35.175 1.275
