# .PCD v0.7 - Point Cloud Data file format
VERSION 0.7
FIELDS x y z
SIZE 4 4 4
TYPE F F F
COUNT 1 1 1
WIDTH 2048
HEIGHT 1
VIEWPOINT 0 0 0 1 0 0 0
POINTS 2048
DATA ascii
-16.425 15.075 2.175
-16.425 15.375 0.975
-16.425 15.075 0.375
-16.275 15.225 0.225
-16.275 15.375 1.875
-16.275 15.075 2.175
-16.425 14.925 -3.825
-16.425 14.925 -3.675
-16.125 15.225 1.875
-16.425 15.525 0.225
-16.425 15.525 -4.125
-16.425 15.525 -3.075
-16.575 14.925 0.375
-16.575 14.925 -3.225
-16.575 14.925 -3.375
-16.275 14.925 0.525
-16.575 15.525 0.075
-16.125 15.375 0.225
-16.275 15.525 0.975
-16.275 15.525 3.525
-16.725 14.925 0.525
-16.125 14.925 0.525
-16.125 15.525 0.975
-16.425 15.675 2.775
-16.575 15.675 -3.825
-16.575 15.675 1.875
-16.575 15.675 2.175
-16.575 15.675 0.375
-15.975 15.375 0.225
-16.275 15.675 -3.825
-16.125 14.775 1.425
-15.975 15.525 0.975
-15.975 15.525 2.775
-16.425 15.825 2.925
-16.425 15.825 0.825
-16.575 14.625 2.175
-16.575 15.825 0.825
-16.575 15.825 2.325
-16.275 15.825 0.825
-16.275 15.825 2.175
-15.825 15.075 0.975
-15.825 15.075 2.475
-15.975 14.775 1.575
-16.875 15.675 2.175
-16.875 15.675 0.975
-16.725 15.825 0.825
-16.725 15.825 1.725
-16.725 15.825 2.025
-16.125 15.825 0.825
-16.125 15.825 -2.775
-15.825 14.925 0.825
-15.825 14.925 0.675
-15.825 15.525 0.975
-15.825 15.525 -2.925
-16.875 15.825 -3.225
-16.425 15.975 -0.225
-16.425 15.975 0.375
-16.425 15.975 -1.275
-15.675 15.225 1.275
-16.425 15.975 0.825
-15.975 14.625 1.875
-15.975 14.625 1.575
-15.825 14.775 1.875
-15.825 15.675 0.825
-15.825 15.675 1.275
-15.825 15.675 0.675
-15.825 15.675 1.425
-16.575 15.975 2.475
-15.675 15.075 -0.675
-16.275 15.975 2.775
-16.275 15.975 -2.625
-16.275 15.975 2.025
-16.275 15.975 0.525
-16.275 15.975 1.275
-16.725 15.975 2.475
-16.125 15.975 0.825
-16.725 15.975 0.525
-16.125 15.975 2.925
-16.725 15.975 0.675
-16.725 15.975 2.175
-15.825 15.825 2.625
-15.825 14.625 1.875
-15.825 15.825 2.325
-16.875 15.975 1.725
-16.875 15.975 2.325
-16.875 15.975 1.575
-16.875 15.975 0.675
-16.875 15.975 2.775
-15.975 14.475 2.475
-15.975 15.975 2.025
-15.975 14.475 1.725
-15.975 14.475 1.575
-17.325 15.225 2.625
-15.525 15.225 0.225
-15.525 15.225 1.725
-16.425 16.125 2.325
-16.425 16.125 2.025
-16.425 16.125 0.675
-17.325 15.075 2.925
-16.575 16.125 0.525
-16.575 16.125 0.675
-16.575 16.125 1.125
-16.575 14.325 -0.975
-16.575 16.125 1.275
-16.575 16.125 0.375
-16.575 16.125 2.175
-15.525 15.375 3.375
-15.525 14.925 0.825
-15.525 15.525 -0.075
-16.725 16.125 0.675
-16.725 16.125 1.425
-16.125 16.125 0.375
-16.725 16.125 2.025
-17.025 15.975 0.675
-17.175 15.825 2.325
-15.825 14.475 2.475
-16.875 16.125 0.675
-15.525 14.775 0.975
-16.875 16.125 2.025
-16.875 16.125 2.175
-15.975 14.325 2.325
-15.525 15.675 -3.075
-15.975 14.325 1.275
-16.425 16.275 0.825
-16.425 16.275 0.975
-16.425 16.275 1.875
-17.475 15.225 3.075
-15.375 15.225 0.225
-16.575 16.275 -2.175
-16.575 16.275 0.975
-16.275 16.275 1.575
-16.275 16.275 2.025
-16.275 16.275 0.225
-16.275 16.275 1.425
-17.175 15.975 0.675
-15.675 15.975 2.025
-15.675 14.475 2.475
-15.375 15.075 0.825
-17.025 16.125 0.675
-15.525 15.825 -2.775
-15.825 14.325 2.625
-15.825 14.325 1.875
-15.825 16.125 1.725
-15.825 16.125 1.575
-16.725 16.275 0.675
-16.725 16.275 0.375
-16.725 16.275 0.525
-16.725 16.275 1.425
-17.475 15.525 2.775
-16.875 16.275 2.175
-16.875 14.175 -3.825
-16.875 16.275 1.125
-15.975 16.275 1.725
-15.975 14.175 2.175
-15.375 14.775 -5.325
-17.325 15.975 2.625
-17.325 14.475 2.475
-17.325 15.975 1.875
-17.325 15.975 2.025
-15.675 14.325 2.625
-15.525 14.475 1.425
-17.175 16.125 0.675
-15.675 16.125 1.725
-15.525 14.475 1.275
-15.675 14.325 2.325
-15.675 14.325 1.275
-15.675 14.325 0.525
-15.675 16.125 1.875
-15.225 15.225 1.425
-16.425 16.425 0.975
-15.225 15.225 0.075
-16.425 16.425 2.025
-17.025 16.275 0.675
-17.025 16.275 2.175
-17.025 16.275 3.225
-17.025 14.175 3.075
-15.825 14.175 2.325
-15.825 16.275 2.325
-17.475 15.825 2.025
-16.575 16.425 2.025
-15.225 15.075 0.825
-17.625 14.925 3.375
-16.725 14.025 2.175
-15.225 14.925 0.375
-15.225 15.525 -0.375
-16.725 16.425 0.375
-16.725 16.425 1.725
-17.325 14.325 2.325
-15.525 14.325 1.875
-17.625 14.775 2.625
-16.875 16.425 2.475
-16.875 16.425 0.675
-15.975 16.425 2.025
-15.675 14.175 1.875
-17.175 16.275 2.475
-15.675 14.175 2.625
-17.175 16.275 0.675
-15.675 16.275 1.875
-15.675 14.175 1.575
-15.375 15.975 2.025
-17.475 14.475 2.475
-17.475 14.475 2.325
-15.825 14.025 2.025
-17.025 16.425 1.125
-15.825 14.025 2.475
-17.025 16.425 0.975
-15.825 14.025 1.125
-17.025 16.425 0.675
-17.025 16.425 0.375
-15.225 15.825 -0.225
-15.225 14.625 1.875
-16.425 16.575 1.125
-16.425 16.575 2.175
-16.425 16.575 1.725
-15.075 15.225 1.275
-15.075 15.225 1.425
-15.075 15.225 2.775
-15.075 15.225 0.825
-15.075 15.225 0.525
-17.775 15.375 -0.975
-16.575 16.575 0.675
-16.575 16.575 2.025
-16.575 16.575 2.325
-16.275 13.875 0.225
-15.075 15.075 0.825
-15.075 15.075 0.375
-17.775 15.525 1.875
-17.325 16.275 0.675
-17.325 14.175 2.625
-17.325 14.175 2.475
-17.325 16.275 0.525
-15.525 16.275 1.575
-15.525 14.175 1.575
-15.525 16.275 1.875
-16.725 16.575 2.175
-16.725 16.575 1.875
-16.125 16.575 -0.225
-16.725 13.875 2.175
-15.375 14.325 0.525
-15.375 14.325 1.425
-15.375 14.325 1.575
-15.375 16.125 2.175
-15.375 14.325 1.725
-17.475 16.125 1.575
-15.075 14.925 2.775
-17.625 14.475 1.875
-17.175 14.025 2.025
-17.625 14.475 2.325
-17.625 15.975 2.025
-17.625 15.975 2.175
-17.175 16.425 2.025
-17.175 16.425 0.525
-15.675 16.425 1.425
-17.175 16.425 0.675
-15.225 15.975 1.725
-16.875 13.875 2.475
-16.875 16.575 -0.075
-15.975 16.575 1.425
-15.075 14.775 5.625
-15.075 14.775 2.175
-15.075 14.775 2.475
-15.075 14.775 2.325
-15.075 15.675 2.175
-17.775 14.625 2.925
-17.025 13.875 2.025
-17.025 13.875 1.725
-17.025 13.875 2.175
-17.025 16.575 2.175
-15.825 13.875 0.975
-15.825 16.575 1.725
-15.825 13.875 1.275
-15.075 14.625 1.875
-15.075 15.825 1.725
-15.075 14.625 1.725
-15.075 14.625 2.025
-15.375 16.275 2.025
-15.375 16.275 1.725
-15.375 16.275 1.575
-17.475 16.275 0.675
-17.475 16.275 2.175
-15.375 16.275 1.125
-17.475 16.275 2.775
-17.325 14.025 2.025
-17.625 16.125 1.575
-14.925 15.225 0.825
-17.325 16.425 2.175
-17.325 16.425 0.525
-17.325 16.425 0.675
-17.325 16.425 0.825
-14.925 15.225 1.575
-14.925 15.225 3.675
-14.925 15.225 2.475
-15.525 16.425 1.725
-15.225 16.125 2.175
-15.225 16.125 1.875
-15.525 16.425 1.575
-15.525 16.425 1.875
-16.425 16.725 2.325
-16.425 16.725 1.575
-16.425 16.725 0.225
-16.425 16.725 1.875
-17.925 15.075 1.875
-14.925 15.075 0.525
-14.925 15.075 0.825
-16.575 16.725 1.725
-16.275 16.725 2.325
-16.275 16.725 1.275
-16.275 16.725 3.075
-16.275 16.725 2.625
-16.275 16.725 1.575
-14.925 14.925 2.625
-16.725 13.725 2.775
-14.925 15.525 -3.825
-16.725 16.725 1.575
-16.725 16.725 2.175
-16.125 16.725 1.725
-16.125 16.725 1.275
-17.775 15.975 3.225
-17.175 13.875 3.075
-15.675 13.875 1.125
-15.675 13.875 2.175
-17.175 16.575 0.225
-15.675 13.875 1.425
-17.175 13.875 1.725
-17.175 16.575 -0.075
-15.675 13.875 1.275
-17.175 16.575 -2.475
-15.675 16.575 1.275
-17.175 16.575 0.375
-17.175 16.575 0.525
-15.075 14.475 2.625
-15.075 14.475 -0.375
-16.875 13.725 2.025
-14.925 14.775 1.875
-17.925 14.775 2.475
-14.925 14.775 2.625
-16.875 16.725 1.275
-16.875 16.725 2.025
-16.875 16.725 1.875
-16.875 16.725 1.575
-15.975 16.725 1.575
-17.625 16.275 2.025
-17.625 16.275 0.975
-17.625 16.275 2.925
-17.475 14.025 1.875
-17.475 14.025 1.725
-15.225 16.275 1.725
-15.225 16.275 2.175
-15.225 16.275 1.875
-15.225 16.275 1.575
-15.225 16.275 1.125
-15.225 16.275 2.025
-15.375 16.425 2.175
-17.475 16.425 2.775
-17.475 16.425 0.975
-15.375 16.425 1.725
-17.475 16.425 0.525
-15.375 16.425 2.025
-15.375 16.425 1.875
-17.475 16.425 -0.075
-17.475 16.425 -0.225
-17.475 16.425 2.475
-14.925 14.625 2.475
-14.925 14.625 2.625
-14.925 14.625 2.325
-14.925 14.625 2.025
-17.025 16.725 -0.675
-17.775 16.125 1.575
-17.775 14.325 1.725
-17.775 16.125 2.325
-17.325 16.575 1.125
-17.325 16.575 3.075
-17.325 16.575 0.975
-17.325 13.875 1.875
-17.325 16.575 -2.025
-17.325 16.575 0.225
-17.325 16.575 0.525
-17.325 13.875 1.575
-15.075 14.325 2.025
-15.075 16.125 1.125
-15.075 16.125 1.575
-15.075 16.125 2.325
-15.075 16.125 2.775
-15.075 16.125 1.875
-18.075 15.375 2.925
-18.075 15.075 1.875
-16.575 16.875 2.325
-16.575 16.875 1.125
-16.575 16.875 2.175
-16.275 16.875 1.125
-16.275 16.875 1.575
-16.275 16.875 1.425
-18.075 15.525 3.825
-17.925 15.975 1.575
-14.925 15.975 1.875
-14.925 15.975 2.175
-14.925 15.975 2.325
-15.675 13.725 1.875
-17.925 14.475 2.025
-14.925 14.475 -0.225
-14.925 14.475 2.475
-14.925 15.975 -0.225
-16.725 16.875 1.725
-16.125 16.875 1.725
-16.125 13.575 0.825
-16.725 16.875 1.425
-15.675 16.725 1.425
-15.675 16.725 1.575
-15.675 16.725 1.725
-17.175 16.725 2.175
-17.625 16.425 -0.375
-17.625 16.425 0.525
-17.625 16.425 1.875
-15.225 16.425 2.175
-15.225 16.425 1.575
-15.225 16.425 1.125
-17.775 16.275 1.425
-17.775 14.175 1.875
-17.775 16.275 2.025
-18.075 15.675 2.025
-16.875 13.575 1.425
-16.875 16.875 1.425
-17.475 16.575 0.525
-15.375 16.575 1.125
-17.475 16.575 2.775
-17.475 16.575 0.825
-15.375 13.875 2.025
-17.475 16.575 2.925
-17.475 16.575 1.125
-15.375 13.875 2.175
-17.475 13.875 3.675
-15.075 16.275 1.725
-15.075 16.275 1.575
-15.075 16.275 1.125
-15.975 16.875 1.575
-17.925 16.125 1.725
-14.925 16.125 2.325
-14.925 16.125 1.875
-14.925 16.125 1.725
-15.525 13.725 2.025
-15.525 13.725 2.325
-14.925 14.325 1.575
-15.525 16.725 1.575
-17.025 16.875 1.725
-17.025 16.875 0.975
-17.025 13.575 1.875
-17.025 13.575 1.425
-14.775 14.625 2.625
-14.775 14.625 2.325
-15.825 16.875 2.025
-15.825 13.575 1.725
-15.825 16.875 1.725
-16.425 17.025 2.475
-16.425 17.025 1.425
-16.425 13.425 0.525
-18.225 15.225 2.025
-16.575 17.025 1.425
-17.775 16.425 2.025
-17.775 16.425 0.525
-16.275 17.025 1.575
-16.275 17.025 1.725
-16.275 17.025 1.875
-16.275 13.425 0.975
-17.625 16.575 -0.825
-17.625 16.575 0.525
-15.075 14.025 1.875
-15.075 14.025 2.025
-15.225 16.575 0.975
-15.225 13.875 2.175
-15.225 16.575 -0.225
-15.225 16.575 1.875
-14.625 15.075 -0.075
-14.625 15.075 2.625
-14.625 15.375 -0.375
-15.075 16.425 1.275
-15.075 16.425 1.125
-15.075 16.425 0.975
-17.175 16.875 2.475
-17.175 16.875 2.325
-17.175 16.875 2.025
-17.175 16.875 1.875
-15.675 13.575 1.425
-14.775 14.475 2.475
-17.175 13.575 2.025
-14.775 15.975 1.275
-14.775 14.475 2.625
-14.775 14.475 -0.825
-14.775 14.475 2.175
-14.775 14.475 2.325
-14.775 14.475 0.225
-14.775 15.975 2.025
-14.775 15.975 1.875
-14.775 15.975 1.725
-15.675 13.575 1.725
-16.125 17.025 1.575
-16.125 17.025 1.725
-16.725 17.025 1.725
-16.725 17.025 1.275
-16.725 17.025 2.325
-16.725 17.025 1.875
-14.625 14.925 -0.525
-14.625 15.525 -1.125
-17.925 14.175 2.775
-14.925 14.175 1.575
-14.925 16.275 1.875
-14.925 14.175 1.875
-14.925 16.275 0.375
-14.925 16.275 1.275
-17.925 16.275 3.075
-15.375 13.725 2.175
-15.375 13.725 1.425
-15.375 13.725 2.025
-15.375 13.725 1.875
-17.475 13.725 1.425
-17.475 16.725 0.975
-17.475 16.725 0.225
-15.975 17.025 1.875
-15.975 17.025 2.025
-15.975 17.025 0.525
-15.975 17.025 1.575
-18.225 15.675 2.325
-14.625 15.675 0.075
-18.075 16.125 1.725
-18.075 16.125 1.875
-18.075 14.325 2.175
-17.325 16.875 2.025
-17.325 16.875 2.625
-17.325 16.875 -1.275
-14.775 16.125 2.325
-14.775 16.125 2.175
-14.775 16.125 1.275
-14.775 16.125 1.725
-14.775 16.125 0.825
-14.775 16.125 1.575
-14.775 14.325 2.025
-14.775 14.325 2.475
-14.775 14.325 0.225
-14.775 16.125 1.875
-14.775 14.325 2.325
-15.525 13.575 2.025
-15.525 13.575 1.725
-17.025 17.025 2.775
-17.025 13.425 0.975
-17.025 17.025 1.425
-17.025 17.025 1.575
-17.025 13.425 0.525
-17.025 13.425 0.825
-15.825 17.025 1.425
-14.625 15.825 -0.525
-18.225 15.825 1.725
-14.625 14.625 0.675
-14.625 14.625 0.825
-14.625 14.625 2.625
-14.625 14.625 0.225
-17.775 16.575 0.525
-15.075 13.875 1.875
-15.075 16.575 1.275
-15.075 16.575 0.975
-15.075 16.575 1.875
-15.075 13.875 2.325
-15.075 13.875 1.725
-15.075 13.875 1.275
-15.075 13.875 2.025
-17.925 14.025 2.175
-17.625 13.725 1.425
-14.925 14.025 2.775
-17.925 14.025 2.025
-14.925 14.025 1.575
-15.225 13.725 2.025
-14.925 16.425 1.125
-14.925 16.425 0.975
-14.925 16.425 0.675
-15.225 13.725 1.875
-17.625 16.725 0.225
-17.625 16.725 1.125
-15.225 16.725 0.675
-15.225 16.725 0.975
-15.225 16.725 0.825
-15.225 16.725 1.725
-15.675 17.025 1.425
-17.175 13.425 0.375
-17.175 13.425 2.325
-17.175 13.425 1.875
-17.175 13.425 0.075
-17.175 13.425 0.975
-17.175 13.425 1.125
-17.175 17.025 -0.225
-17.175 17.025 -1.125
-17.175 17.025 1.875
-16.425 13.275 0.225
-16.425 13.275 0.075
-14.625 14.475 0.075
-14.475 15.225 -0.525
-14.475 15.225 0.075
-16.425 17.175 0.825
-16.425 17.175 1.575
-16.425 17.175 1.425
-18.075 14.175 1.275
-18.075 16.275 1.875
-18.075 16.275 -1.575
-18.075 16.275 2.925
-18.075 16.275 -1.875
-18.375 15.075 1.725
-14.775 14.175 1.575
-14.775 14.175 1.875
-14.775 16.275 1.275
-14.775 16.275 0.975
-14.775 16.275 1.875
-14.775 16.275 1.725
-14.775 16.275 1.125
-14.775 16.275 0.825
-17.475 13.575 0.525
-17.475 16.875 0.075
-15.375 13.575 2.475
-15.375 13.575 1.575
-18.375 14.925 1.725
-18.375 15.525 2.475
-16.125 13.275 1.125
-16.725 13.275 0.675
-14.475 15.525 0.075
-16.125 17.175 0.825
-16.725 17.175 1.125
-16.725 17.175 1.425
-16.875 13.275 0.825
-15.975 13.275 0.525
-16.875 17.175 1.575
-16.875 17.175 2.475
-14.475 14.775 0.675
-16.875 17.175 1.425
-14.475 15.675 -0.225
-15.975 17.175 1.725
-17.325 17.025 2.925
-17.325 17.025 -0.075
-17.325 17.025 1.875
-17.325 13.425 0.975
-17.325 13.425 1.275
-15.525 17.025 1.425
-15.525 17.025 2.025
-14.625 16.125 1.725
-14.625 16.125 1.125
-18.225 16.125 2.775
-14.625 16.125 1.275
-14.625 16.125 0.075
-14.625 16.125 1.875
-14.625 16.125 0.975
-14.625 16.125 2.925
-17.775 13.725 2.175
-14.925 16.575 2.025
-14.925 16.575 1.725
-14.925 16.575 1.275
-14.925 16.575 0.825
-17.925 16.575 2.025
-17.925 16.575 1.425
-17.925 16.575 1.875
-14.925 13.875 1.275
-14.925 13.875 2.475
-17.925 16.575 0.525
-14.925 16.575 0.975
-17.775 16.725 1.875
-17.775 16.725 -0.075
-17.775 16.725 0.075
-17.775 16.725 0.675
-15.075 13.725 2.325
-15.075 16.725 0.825
-15.075 16.725 0.975
-17.025 13.275 1.275
-17.025 13.275 1.425
-17.025 13.275 0.975
-18.375 14.625 1.725
-18.075 16.425 1.875
-17.625 16.875 1.425
-17.625 16.875 1.875
-17.625 16.875 0.525
-14.775 14.025 1.575
-17.025 17.175 1.725
-17.025 17.175 3.075
-15.225 16.875 0.825
-15.225 16.875 1.575
-15.225 16.875 1.125
-14.775 16.425 0.825
-14.775 16.425 0.225
-14.775 16.425 0.975
-14.775 16.425 0.675
-14.775 16.425 2.175
-14.775 16.425 2.025
-15.225 13.575 2.475
-15.225 13.575 2.025
-15.225 13.575 2.175
-14.475 14.625 0.075
-14.475 14.625 3.225
-14.475 14.625 -0.375
-15.825 17.175 1.425
-17.475 17.025 2.175
-17.475 17.025 0.075
-17.475 17.025 1.725
-17.475 17.025 2.325
-17.475 13.425 1.275
-17.475 13.425 0.675
-15.375 13.425 2.025
-15.375 13.425 1.725
-15.375 13.425 1.875
-14.625 16.275 1.875
-14.625 16.275 0.975
-14.625 16.275 2.025
-14.625 16.275 1.425
-14.625 14.175 1.425
-14.625 14.175 2.775
-14.625 14.175 0.825
-18.225 16.275 2.625
-17.175 13.275 0.975
-18.375 14.475 2.475
-17.175 13.275 1.725
-15.675 13.275 1.275
-17.175 13.275 1.575
-14.475 14.475 -0.225
-14.475 15.975 1.425
-14.475 15.975 1.125
-14.475 15.975 2.175
-14.475 15.975 0.825
-16.425 17.325 1.275
-16.425 17.325 1.425
-14.325 15.225 0.225
-16.575 17.325 1.725
-16.575 17.325 2.325
-16.575 17.325 2.025
-16.575 17.325 1.125
-16.275 17.325 -1.725
-16.275 17.325 2.475
-16.725 17.325 2.325
-16.125 17.325 1.575
-16.725 17.325 2.175
-16.725 17.325 1.275
-16.725 17.325 0.825
-16.725 17.325 0.525
-16.725 17.325 1.575
-16.725 17.325 1.425
-17.925 13.725 1.575
-14.925 13.725 1.425
-14.925 16.725 0.675
-14.925 16.725 2.625
-17.925 16.725 2.925
-14.925 16.725 1.725
-17.925 16.725 0.525
-14.325 14.925 1.425
-14.325 14.925 0.675
-14.325 14.925 1.575
-18.075 13.875 1.575
-18.075 13.875 1.125
-18.075 13.875 2.025
-18.075 16.575 0.375
-18.075 16.575 1.875
-17.775 13.575 -0.075
-17.775 16.875 0.975
-17.775 16.875 2.175
-17.775 16.875 0.225
-17.775 16.875 1.125
-17.775 16.875 0.525
-17.775 16.875 1.875
-14.775 13.875 0.825
-14.775 16.575 0.975
-15.075 16.875 1.125
-18.525 14.775 1.725
-17.325 13.275 0.825
-17.325 13.275 1.725
-17.325 13.275 1.125
-17.325 13.275 0.675
-17.325 13.275 1.275
-16.875 17.325 -1.275
-16.875 17.325 1.275
-16.875 17.325 1.425
-18.375 16.125 1.575
-16.875 13.125 1.125
-15.975 17.325 1.275
-15.975 17.325 1.575
-15.975 13.125 0.225
-15.975 13.125 0.525
-17.325 17.175 -0.075
-17.325 17.175 -0.225
-14.475 16.125 1.425
-14.475 16.125 0.975
-14.475 16.125 0.825
-14.475 14.325 -1.275
-14.475 16.125 1.275
-14.475 14.325 0.675
-14.325 14.775 -0.075
-14.325 14.775 0.675
-17.625 13.425 0.975
-17.625 17.025 0.225
-17.625 17.025 0.375
-15.225 17.025 0.675
-15.225 13.425 2.175
-18.225 14.025 0.225
-14.625 16.425 1.425
-14.625 16.425 0.225
-14.625 16.425 0.675
-14.625 16.425 0.975
-17.025 17.325 2.775
-17.025 17.325 2.625
-17.025 17.325 1.275
-17.025 17.325 1.425
-17.025 13.125 0.525
-15.825 17.325 1.575
-15.825 17.325 1.275
-15.825 13.125 0.225
-15.825 17.325 1.425
-14.325 14.625 -0.375
-14.325 14.625 -0.225
-14.325 14.625 0.375
-14.325 15.825 2.025
-18.375 16.275 2.025
-17.475 13.275 1.125
-17.475 13.275 0.525
-15.375 13.275 0.825
-14.475 16.275 1.875
-14.475 16.275 0.525
-14.475 16.275 0.825
-14.475 16.275 0.975
-14.475 16.275 1.425
-14.475 14.175 1.575
-14.475 16.275 0.675
-17.475 17.175 -0.375
-17.475 17.175 -0.075
-15.375 17.175 1.425
-17.475 17.175 -0.225
-15.375 17.175 2.025
-18.525 14.475 1.725
-18.075 13.725 -0.225
-15.675 17.325 1.425
-17.175 13.125 1.575
-17.175 17.325 1.125
-17.175 17.325 1.275
-18.075 16.725 2.475
-18.075 16.725 0.525
-17.925 16.875 0.675
-17.925 16.875 1.125
-14.925 16.875 0.675
-14.775 13.725 1.725
-14.925 13.575 -0.975
-14.925 13.575 2.475
-14.325 15.975 0.825
-14.325 14.475 2.925
-14.325 15.975 1.275
-14.325 15.975 0.975
-14.325 15.975 -0.225
-14.325 14.475 -0.675
-14.325 15.975 1.425
-17.775 17.025 0.525
-15.075 17.025 0.525
-14.175 15.225 -0.975
-14.625 16.575 0.975
-18.225 16.575 -2.475
-14.625 13.875 1.275
-14.625 16.575 0.675
-16.425 17.475 1.275
-16.425 17.475 1.425
-14.175 15.075 0.825
-14.175 15.075 0.375
-14.175 15.075 1.125
-18.675 15.375 3.075
-18.675 15.375 1.875
-16.275 12.975 0.525
-16.575 17.475 1.575
-16.575 17.475 3.225
-14.175 14.925 -1.275
-14.175 14.925 1.575
-14.175 14.925 0.675
-16.125 12.975 0.525
-16.725 12.975 0.975
-16.125 17.475 1.425
-16.725 17.475 1.125
-17.325 17.325 1.125
-17.325 17.325 1.275
-15.525 17.325 1.125
-14.325 16.125 0.975
-14.325 14.325 -0.075
-14.325 14.325 -0.525
-14.325 14.325 0.075
-14.325 14.325 1.725
-14.325 16.125 0.675
-14.325 16.125 1.275
-14.325 16.125 2.175
-14.325 16.125 0.825
-18.375 16.425 2.625
-15.225 13.275 1.275
-14.475 14.025 2.625
-17.625 17.175 0.075
-15.225 17.175 1.725
-15.225 17.175 2.325
-14.475 16.425 0.975
-14.475 16.425 1.125
-14.475 16.425 0.675
-14.175 15.675 2.175
-16.875 17.475 0.975
-16.875 17.475 2.625
-16.875 17.475 1.125
-16.875 17.475 1.425
-15.975 17.475 1.275
-17.025 12.975 1.875
-14.175 14.625 0.525
-18.675 14.625 -0.225
-14.175 14.625 2.775
-14.175 15.825 3.675
-15.825 12.975 0.975
-17.025 17.475 0.225
-17.025 17.475 1.275
-17.025 17.475 1.425
-15.825 17.475 1.275
-15.825 17.475 1.125
-18.075 16.875 0.525
-17.925 17.025 0.225
-14.925 17.025 2.475
-17.925 17.025 0.525
-14.925 13.425 1.425
-14.925 13.425 1.275
-14.625 13.725 2.325
-18.225 16.725 2.475
-18.225 16.725 0.525
-18.225 16.725 1.425
-18.525 16.275 2.625
-18.525 14.175 -0.225
-17.475 17.325 1.275
-17.475 17.325 0.825
-17.475 17.325 -0.225
-15.375 17.325 2.175
-17.475 17.325 -0.375
-14.325 16.275 2.025
-14.325 16.275 0.975
-14.325 16.275 0.825
-14.325 16.275 2.325
-14.325 16.275 1.425
-17.775 13.275 1.275
-18.375 13.875 0.525
-18.375 16.575 2.775
-18.375 16.575 2.175
-17.775 17.175 0.975
-17.775 17.175 1.725
-14.175 14.475 -0.675
-14.175 15.975 2.175
-15.075 13.275 1.875
-15.075 13.275 1.275
-15.075 13.275 2.025
-15.075 13.275 1.425
-14.475 13.875 0.225
-15.075 17.175 0.375
-17.175 17.475 1.575
-15.675 17.475 0.825
-17.175 17.475 1.275
-18.825 15.225 2.925
-14.025 15.225 -0.825
-16.425 12.825 0.675
-16.425 17.625 0.675
-16.425 17.625 2.625
-16.425 17.625 1.425
-16.425 17.625 0.975
-18.825 15.075 2.475
-18.825 15.075 2.025
-14.025 15.375 -0.825
-14.025 15.075 0.975
-14.025 15.075 0.675
-14.025 15.375 1.875
-14.025 15.375 -1.125
-16.575 17.625 1.275
-16.575 17.625 0.975
-16.275 17.625 1.725
-16.275 17.625 0.375
-16.275 17.625 0.825
-16.275 17.625 1.125
-18.525 14.025 0.675
-18.525 16.425 2.025
-17.625 13.125 2.475
-17.625 13.125 2.175
-17.625 17.325 0.675
-14.025 14.925 0.675
-15.225 17.325 2.025
-14.025 15.525 2.025
-14.025 15.525 -1.425
-16.125 17.625 1.275
-16.725 17.625 1.575
-14.325 16.425 2.175
-14.325 16.425 5.175
-14.175 16.125 0.975
-14.175 16.125 0.675
-14.175 16.125 1.275
-18.675 16.125 -3.225
-17.325 17.475 1.275
-17.325 17.475 2.625
-17.325 17.475 1.425
-15.525 17.475 0.975
-18.075 17.025 1.125
-18.075 17.025 -1.275
-18.075 17.025 0.975
-18.075 17.025 1.725
-14.775 13.425 -0.975
-14.025 14.775 0.525
-16.875 17.625 -0.075
-16.875 17.625 1.425
-16.875 17.625 -1.575
-18.225 13.575 1.875
-18.225 16.875 0.525
-14.925 13.275 1.425
-18.375 16.725 0.525
-18.375 16.725 1.575
-17.925 17.175 -0.525
-14.475 13.725 2.475
-18.825 14.625 1.125
-17.025 17.625 1.275
-17.025 17.625 0.975
-17.025 17.625 2.925
-14.025 15.825 1.725
-15.825 17.625 1.425
-14.175 16.275 0.825
-14.175 16.275 0.975
-17.475 12.975 2.175
-17.475 12.975 2.025
-17.475 17.475 1.425
-17.475 17.475 2.925
-17.475 17.475 -1.725
-17.775 17.325 1.725
-17.775 17.325 0.375
-17.775 13.125 0.675
-15.075 17.325 1.875
-14.325 16.575 1.275
-18.825 15.975 -1.875
-14.025 14.475 -0.975
-14.025 14.475 -0.525
-14.025 15.975 0.375
-14.025 15.975 1.125
-17.175 17.625 0.975
-17.175 17.625 1.425
-17.175 17.625 1.575
-14.625 17.025 2.325
-18.225 17.025 1.275
-18.225 17.025 0.675
-18.225 17.025 1.425
-14.625 13.425 0.825
-16.425 17.775 0.975
-16.425 17.775 0.825
-16.425 17.775 0.675
-14.175 14.025 -0.225
-14.175 16.425 1.125
-18.675 16.425 2.625
-18.675 16.425 2.025
-18.975 15.225 2.775
-18.975 15.225 1.125
-13.875 15.225 -0.675
-13.875 15.225 -0.525
-17.625 17.475 1.875
-16.575 17.775 0.675
-16.575 17.775 1.125
-16.575 17.775 0.975
-16.575 17.775 0.825
-16.575 17.775 1.425
-16.275 17.775 0.225
-14.775 13.275 2.625
-18.375 16.875 0.525
-18.075 17.175 2.625
-18.075 17.175 1.875
-18.075 17.175 2.175
-18.075 17.175 0.525
-18.975 15.375 2.625
-13.875 15.375 1.875
-13.875 15.375 1.125
-14.475 13.575 -2.475
-14.475 13.575 1.125
-18.825 14.325 2.175
-18.825 14.325 0.825
-17.325 17.625 1.425
-17.325 17.625 1.275
-14.025 14.325 -0.825
-14.025 16.125 -0.225
-14.025 16.125 0.225
-14.025 16.125 1.425
-14.025 16.125 1.275
-16.125 17.775 1.275
-16.725 17.775 0.825
-16.725 17.775 0.975
-18.975 14.925 1.125
-13.875 15.525 2.025
-18.525 16.725 2.475
-17.925 17.325 0.375
-17.925 17.325 0.075
-14.925 17.325 1.725
-14.925 13.125 2.325
-14.325 13.725 1.725
-14.325 16.725 1.725
-16.875 17.775 0.975
-16.875 17.775 2.025
-16.875 17.775 2.325
-15.975 17.775 -0.225
-13.875 14.775 -3.825
-13.875 14.775 -0.825
-13.875 14.775 0.525
-13.875 14.775 4.275
-18.975 14.775 2.025
-18.825 16.275 1.875
-18.825 16.275 1.425
-18.825 14.175 0.825
-17.025 17.775 0.975
-17.025 17.775 1.425
-17.025 17.775 1.125
-14.025 16.275 2.175
-13.875 14.625 0.375
-15.375 17.625 0.975
-13.875 15.825 -0.525
-13.875 15.825 0.975
-18.975 14.625 1.425
-17.475 17.625 1.275
-17.475 17.625 1.125
-17.475 17.625 0.675
-17.475 17.625 1.575
-18.675 16.575 2.025
-14.175 13.875 0.675
-17.775 17.475 1.875
-18.375 17.025 1.425
-18.375 17.025 1.875
-18.225 17.175 0.975
-18.225 17.175 1.125
-18.225 17.175 0.525
-17.175 17.775 1.425
-17.175 17.775 3.075
-17.175 17.775 1.125
-17.175 17.775 1.275
-17.175 17.775 -1.275
-13.875 15.975 2.475
-13.875 15.975 -0.375
-13.875 15.975 1.275
-13.875 15.975 1.125
-18.525 16.875 0.525
-18.525 16.875 2.325
-18.525 16.875 0.375
-14.775 17.325 -2.775
-14.775 17.325 0.975
-14.775 17.325 1.425
-14.325 16.875 3.225
-14.325 13.575 1.575
-14.325 13.575 1.125
-18.825 14.025 1.425
-14.025 14.025 0.375
-17.625 17.625 -0.375
-17.625 17.625 1.425
-17.625 17.625 1.575
-17.625 17.625 1.275
-19.125 15.225 1.425
-13.725 15.225 1.125
-16.425 17.925 2.775
-17.325 17.775 1.275
-17.325 17.775 1.425
-15.525 12.675 -0.675
-19.125 15.075 1.575
-19.125 15.075 1.125
-17.925 12.975 0.975
-13.875 16.125 1.725
-13.875 16.125 1.575
-13.875 14.325 -0.375
-18.675 16.725 -0.675
-13.725 15.375 2.325
-16.575 17.925 1.725
-16.575 17.925 0.825
-13.725 15.075 -3.075
-16.575 17.925 0.975
-16.275 17.925 0.675
-17.925 17.475 1.725
-17.925 17.475 2.025
-19.125 14.925 1.275
-19.125 14.925 2.025
-19.125 15.525 2.625
-13.725 14.925 1.275
-13.725 14.925 0.375
-13.725 14.925 0.975
-13.725 14.925 0.225
-13.725 14.925 0.825
-16.125 17.925 -2.775
-16.725 17.925 2.175
-16.725 17.925 0.975
-16.725 17.925 1.125
-16.725 17.925 0.675
-19.125 14.775 1.425
-19.125 14.775 1.125
-16.875 17.925 0.825
-16.875 17.925 0.225
-16.875 17.925 1.125
-13.725 14.775 0.375
-13.725 14.775 -2.625
-13.725 15.675 2.775
-13.725 15.675 1.125
-13.725 15.675 1.275
-18.825 16.575 2.475
-18.825 16.575 2.175
-18.825 16.575 2.025
-18.825 16.575 2.325
-17.775 17.625 1.425
-17.775 17.625 1.125
-17.775 17.625 1.725
-14.025 13.875 -0.675
-15.075 17.625 0.975
-17.475 17.775 2.775
-17.475 17.775 1.425
-17.475 17.775 1.275
-18.375 17.175 0.525
-18.375 17.175 0.675
-18.375 17.175 1.425
-18.975 16.275 1.425
-13.875 16.275 2.175
-13.875 16.275 0.525
-13.875 16.275 2.325
-13.875 14.175 1.125
-14.475 17.175 2.175
-14.475 17.175 0.975
-18.525 17.025 -0.825
-19.125 14.625 1.425
-15.825 12.525 1.275
-14.625 17.325 0.975
-14.625 17.325 1.125
-14.625 17.325 1.575
-18.225 17.325 0.225
-17.025 17.925 3.075
-17.025 17.925 0.975
-17.025 17.925 -0.825
-18.075 12.975 0.225
-14.175 13.575 0.825
-18.675 16.875 2.925
-18.675 16.875 2.475
-18.675 16.875 -1.125
-18.075 17.475 -0.075
-18.075 17.475 -0.525
-13.725 15.975 1.575
-13.725 15.975 0.975
-13.725 15.975 1.275
-13.725 15.975 1.425
-13.725 15.975 1.125
-13.725 15.975 0.375
-17.175 17.925 1.425
-17.175 17.925 0.375
-17.175 17.925 0.825
-13.725 14.475 -0.525
-13.725 14.475 1.725
-17.625 17.775 0.975
-17.625 17.775 1.125
-13.875 14.025 1.425
-13.875 14.025 0.675
-17.925 17.625 -0.975
-17.925 17.625 4.125
-17.925 17.625 1.425
-14.025 13.725 -0.525
-14.025 16.725 -0.975
-19.125 16.125 2.775
-17.325 17.925 1.275
-17.325 17.925 1.125
-13.725 16.125 0.525
-13.725 16.125 2.175
-13.725 14.325 -0.975
-19.275 15.225 1.275
-13.575 15.225 1.575
-13.575 15.225 2.475
-19.275 15.075 0.975
-13.575 15.375 2.175
-13.575 15.375 1.875
-13.575 15.375 2.475
-13.575 15.075 0.525
-13.575 15.075 0.375
-13.575 15.075 0.075
-13.575 15.075 0.975
-13.575 15.075 1.575
-19.275 14.925 1.125
-19.275 14.925 1.575
-18.375 17.325 0.525
-18.375 17.325 0.225
-18.375 17.325 1.575
-18.525 17.175 0.525
-16.725 18.075 2.325
-14.475 17.325 2.175
-14.475 17.325 3.225
-14.475 17.325 3.075
-14.325 13.275 0.675
-13.575 14.925 0.075
-13.575 14.925 1.275
-13.575 14.925 -0.225
-13.575 14.925 0.525
-13.575 14.925 0.375
-13.575 15.525 2.925
-14.175 13.425 0.375
-14.175 17.025 3.225
-14.625 17.475 1.575
-18.225 17.475 1.425
-17.775 17.775 -0.525
-17.775 17.775 1.425
-17.775 17.775 1.125
-16.875 18.075 0.675
-15.075 17.775 2.175
-18.975 13.875 1.575
-13.875 13.875 0.675
-13.875 13.875 0.825
-13.875 13.875 1.125
-13.875 13.875 1.275
-13.875 16.575 2.325
-13.575 14.775 0.975
-13.575 14.775 0.375
-13.575 15.675 1.575
-19.125 14.175 0.375
-19.125 14.175 0.225
-13.725 16.275 1.725
-13.725 16.275 0.825
-13.725 14.175 1.125
-13.725 14.175 0.225
-13.725 14.175 -0.225
-13.725 14.175 0.525
-17.475 17.925 1.275
-15.375 17.925 2.325
-18.825 16.875 -0.975
-18.825 16.875 0.225
-17.025 18.075 0.975
-18.075 17.625 -1.275
-18.075 17.625 -0.225
-18.075 17.625 1.575
-14.775 17.625 1.725
-13.575 15.825 1.275
-13.575 15.825 0.825
-13.575 15.825 3.525
-13.575 15.825 0.975
-13.575 14.625 1.875
-17.175 18.075 -0.375
-17.175 18.075 0.525
-17.175 18.075 1.425
-15.675 18.075 -3.075
-13.575 15.975 0.975
-13.575 15.975 1.575
-13.575 14.475 -1.125
-13.575 14.475 1.875
-13.575 14.475 1.725
-13.725 14.025 0.525
-13.725 14.025 0.975
-13.725 14.025 1.425
-13.725 14.025 1.275
-13.725 14.025 0.375
-13.725 14.025 1.575
-15.225 17.925 2.175
-17.925 17.775 -1.575
-17.925 17.775 0.375
-17.925 17.775 2.625
-17.925 17.775 1.275
-14.925 12.675 1.875
-13.875 13.725 -0.825
-13.875 13.725 0.675
-13.875 13.725 0.525
-13.875 13.725 1.125
-13.875 13.725 -0.675
-18.975 16.725 2.175
-18.975 16.725 -0.525
-18.525 17.325 0.975
-18.525 17.325 1.575
-18.525 17.325 1.725
-18.525 17.325 1.125
-18.525 17.325 0.525
-14.325 17.325 -0.825
-18.675 17.175 0.525
-18.375 17.475 1.575
-19.275 16.125 2.625
-17.325 18.075 1.575
-17.325 18.075 1.125
-17.325 18.075 0.525
-17.325 18.075 0.675
-17.325 18.075 0.825
-13.575 16.125 1.125
-13.575 16.125 0.975
-13.575 14.325 -0.675
-18.825 17.025 1.725
-14.025 13.425 -1.125
-13.425 15.225 2.475
-13.425 15.225 -4.125
-13.425 15.225 1.725
-13.425 15.225 2.325
-19.425 15.225 1.125
-18.225 17.625 0.075
-18.225 17.625 0.225
-18.225 17.625 1.125
-18.225 17.625 1.725
-18.225 17.625 1.425
-16.425 18.225 -5.175
-13.425 15.075 1.725
-13.425 15.375 1.725
-13.425 15.375 -1.425
-13.425 15.375 1.425
-13.425 15.375 0.675
-13.425 15.075 0.675
-13.425 15.075 0.375
-13.425 15.075 1.875
-19.425 15.375 2.625
-16.575 18.225 -1.425
-13.425 15.525 0.975
-13.425 14.925 1.725
-13.425 14.925 0.825
-13.425 15.525 1.275
-13.425 15.525 1.125
-13.425 15.525 3.075
-13.425 14.925 0.375
-19.125 16.575 -4.425
-17.775 17.925 -0.525
-17.775 17.925 1.425
-17.775 17.925 1.275
-13.725 13.875 -1.275
-13.725 13.875 0.525
-13.725 13.875 -1.425
-13.725 13.875 1.125
-13.725 13.875 0.825
-13.725 13.875 0.975
-13.725 13.875 1.275
-13.725 13.875 1.575
-13.425 14.775 0.975
-13.425 14.775 1.275
-13.425 14.775 1.725
-13.425 14.775 0.375
-13.425 14.775 2.175
-19.425 14.775 2.175
-13.425 15.675 1.125
-13.425 15.675 1.575
-13.425 15.675 0.975
-13.425 15.675 1.275
-13.425 15.675 -0.975
-13.425 15.675 0.825
-19.275 14.175 0.075
-18.075 12.675 0.375
-18.075 17.775 1.275
-14.775 17.775 1.575
-17.475 12.375 2.325
-17.475 18.075 0.825
-17.475 18.075 1.425
-17.475 18.075 1.275
-13.575 14.175 0.525
-13.575 14.175 1.575
-13.575 14.175 0.225
-13.575 14.175 1.725
-13.875 13.575 1.275
-18.975 16.875 -1.125
-13.425 15.825 0.825
-13.425 15.825 1.425
-13.425 15.825 1.575
-13.425 15.825 1.125
-13.425 15.825 1.275
-13.425 15.825 0.975
-13.425 15.825 0.675
-13.425 15.825 1.725
-13.425 15.825 0.525
-13.425 14.625 2.325
-13.425 14.625 0.375
-13.425 14.625 1.875
-13.425 14.625 1.725
-15.825 12.225 1.575
-17.025 18.225 0.675
-15.825 18.225 3.825
-18.675 17.325 0.525
-14.175 13.125 0.675
-18.525 17.475 0.525
-14.325 17.475 3.675
-14.925 12.525 1.725
-19.125 16.725 1.875
-13.725 13.725 1.275
-13.725 13.725 -4.575
-13.725 13.725 1.725
-17.925 17.925 1.425
-17.925 17.925 1.275
-17.925 17.925 1.125
-17.625 18.075 1.125
-17.625 18.075 0.975
-18.375 17.625 1.425
-18.825 17.175 2.475
-18.825 17.175 0.525
-14.025 13.275 0.825
-13.425 15.975 0.525
-13.425 15.975 1.125
-13.425 15.975 1.575
-13.425 15.975 1.425
-13.425 15.975 2.925
-13.425 14.475 0.375
-15.225 18.075 -1.875
-13.575 14.025 1.575
-13.575 14.025 -1.125
-13.575 14.025 1.275
-13.575 14.025 1.875
-13.575 14.025 0.225
-13.575 14.025 0.375
-13.575 14.025 -1.425
-13.575 14.025 0.975
-13.575 14.025 1.125
-14.475 17.625 2.775
-17.175 18.225 0.525
-18.225 17.775 1.275
-18.225 17.775 1.425
-18.225 17.775 1.125
-18.975 17.025 2.025
-13.875 13.425 -1.275
-13.875 13.425 0.825
-13.425 16.125 1.425
-13.425 16.125 0.975
-13.425 14.325 1.875
-13.425 14.325 1.575
-17.325 18.225 0.525
-17.325 18.225 0.975
-17.325 18.225 0.825
-19.575 15.225 0.675
-16.425 18.375 2.625
-16.425 18.375 1.575
-13.275 15.225 1.725
-13.275 15.225 -0.375
-19.575 15.075 3.375
-19.575 15.375 1.425
-19.575 15.375 2.475
-17.775 18.075 1.875
-17.775 18.075 1.275
-13.275 15.375 1.275
-13.275 15.375 1.575
-13.275 15.375 1.425
-13.275 15.375 2.025
-13.275 15.375 1.725
-16.275 12.075 1.275
-13.575 13.875 1.575
-13.575 13.875 1.425
-13.575 13.875 0.825
-13.575 13.875 0.675
-13.575 13.875 1.125
-13.575 13.875 0.975
-13.575 13.875 1.875
-19.575 15.525 1.875
-18.075 12.525 1.875
-19.125 16.875 2.175
-18.075 17.925 -0.075
-18.075 17.925 2.025
-18.075 17.925 -0.225
-18.075 17.925 -0.525
-18.075 17.925 1.275
-18.075 17.925 1.425
-13.275 15.525 2.325
-13.275 15.525 1.425
-13.275 15.525 1.275
-13.275 15.525 1.125
-16.725 18.375 2.625
-13.275 14.925 1.875
-16.125 12.075 1.575
-13.725 13.575 0.825
-13.725 13.575 1.725
-13.725 13.575 0.975
-13.725 13.575 1.875
-13.425 16.275 0.975
-13.425 14.175 2.925
-13.425 14.175 2.175
-13.425 14.175 0.975
-13.425 14.175 1.875
-19.425 14.175 2.775
-17.475 18.225 0.975
-17.475 18.225 1.275
-17.475 18.225 0.825
-17.475 18.225 2.325
-15.375 18.225 -2.025
-15.375 18.225 -1.575
-19.575 14.775 1.575
-13.275 14.775 1.725
-13.275 14.775 1.875
-13.275 15.675 0.975
-13.275 15.675 1.125
-13.275 15.675 0.825
-13.275 15.675 1.425
-13.275 15.675 1.275
-13.275 15.675 1.575
-13.275 15.675 2.175
-14.175 17.475 2.175
-18.675 17.475 0.525
-18.675 17.475 1.725
-18.825 13.125 1.275
-18.825 17.325 0.525
-18.525 17.625 0.225
-14.325 12.825 -1.725
-14.325 17.625 3.225
-19.575 14.625 1.875
-13.275 15.825 0.975
-13.275 15.825 1.425
-13.275 15.825 1.725
-13.275 14.625 2.325
-13.275 14.625 0.225
-13.275 14.625 2.175
-13.275 14.625 -0.225
-13.275 14.625 -0.375
-13.275 14.625 0.375
-18.375 17.775 -0.375
-18.375 17.775 1.275
-13.875 13.275 0.825
-13.875 13.275 0.675
-18.975 17.175 2.175
-13.875 17.175 3.975
-19.275 13.725 2.325
-19.275 16.725 2.625
-17.925 18.075 1.425
-17.925 18.075 1.275
-17.925 18.075 -1.425
-13.575 13.725 1.425
-13.575 16.725 0.525
-13.425 14.025 -2.475
-13.425 14.025 1.725
-13.425 14.025 1.125
-13.425 14.025 0.975
-13.425 14.025 1.575
-13.425 14.025 2.625
-13.425 14.025 0.825
-13.425 14.025 0.375
-13.425 16.425 0.825
-13.425 16.425 0.975
-13.425 16.425 3.975
-19.425 16.425 2.325
-19.425 16.425 1.275
-19.425 16.425 2.025
-19.425 16.425 2.775
-15.225 12.225 -3.375
-17.625 18.225 0.975
-17.625 18.225 1.875
-19.575 14.475 1.575
-19.575 14.475 1.425
-13.275 15.975 0.975
-13.275 15.975 1.275
-13.275 15.975 1.125
-13.275 14.475 0.375
-13.275 14.475 -0.675
-13.275 14.475 -0.525
-13.275 14.475 0.825
-19.125 17.025 2.025
-19.125 17.025 2.775
-13.725 13.425 1.425
-13.725 13.425 0.825
-13.725 13.425 0.375
-18.225 17.925 1.425
-18.225 17.925 -0.075
-18.225 17.925 1.275
-19.575 14.325 0.075
-17.325 18.375 0.375
-17.325 18.375 0.975
-13.275 16.125 5.325
-13.275 16.125 1.425
-13.275 16.125 1.125
-13.275 16.125 0.825
-13.275 16.125 -0.075
-13.275 14.325 -0.375
-13.275 14.325 -0.675
-13.275 14.325 2.025
-13.425 13.875 -1.725
-13.425 13.875 1.275
-13.425 13.875 1.875
-13.425 13.875 2.325
-13.425 13.875 -1.575
-13.425 13.875 1.575
-13.425 16.575 -1.125
-13.425 16.575 0.675
-13.425 16.575 1.275
-19.425 16.575 2.325
-14.025 12.975 2.175
-14.025 12.975 0.975
-18.675 17.625 1.425
-18.675 17.625 0.825
-14.175 17.625 2.175
-18.825 17.475 0.375
-18.825 17.475 1.725
-18.825 17.475 0.075
-17.775 18.225 1.425
-17.775 18.225 1.125
-17.775 18.225 0.975
-18.075 12.375 0.975
-18.075 18.075 1.875
-18.075 18.075 1.125
-18.075 18.075 1.425
-18.075 18.075 1.725
-18.075 18.075 5.175
-14.775 12.375 1.425
-14.775 18.075 1.725
-13.575 16.875 4.575
-13.575 13.575 1.725
-13.575 13.575 1.425
-13.125 15.225 -1.125
-13.125 15.225 0.975
-13.125 15.225 -0.375
-13.125 15.225 -0.525
-19.725 15.225 2.475
-18.525 17.775 0.375
-18.525 17.775 -0.975
-16.275 11.925 1.575
-13.875 17.325 0.225
-13.875 13.125 1.425
-13.875 13.125 0.525
-18.975 17.325 0.375
-13.125 15.375 2.625
-13.125 15.375 1.425
-13.125 15.075 -0.975
-19.725 15.375 0.975
-13.125 15.525 1.275
-13.125 15.525 1.575
-13.125 15.525 1.425
-13.125 15.525 1.125
-19.725 15.525 1.575
-19.725 15.525 1.875
-19.725 14.925 0.975
-19.575 16.275 1.275
-13.275 16.275 2.025
-13.275 16.275 1.725
-13.275 16.275 1.425
-13.275 16.275 1.125
-13.275 14.175 0.825
-13.275 14.175 2.175
-13.275 14.175 0.375
-17.475 18.375 0.825
-17.475 18.375 0.675
-17.475 18.375 1.725
-17.475 18.375 0.975
-15.375 12.075 -2.925
-16.875 18.525 2.475
-16.875 18.525 2.625
-19.125 17.175 2.025
-19.125 17.175 2.175
-13.125 14.775 2.625
-13.125 14.775 0.975
-13.125 14.775 0.825
-13.125 14.775 0.075
-18.375 17.925 1.425
-18.375 17.925 1.575
-18.375 17.925 -0.375
-18.375 17.925 1.125
-18.375 17.925 2.175
-18.375 17.925 -0.075
-13.125 14.775 0.375
-13.725 13.275 1.275
-13.725 13.275 1.575
-19.725 14.775 1.575
-19.725 14.775 0.075
-13.125 15.675 2.625
-13.125 15.675 1.125
-13.125 15.675 2.025
-13.125 15.675 1.725
-13.125 15.675 -0.375
-13.125 15.675 0.825
-13.125 15.675 1.875
-13.125 15.675 1.275
-19.725 15.675 1.875
-19.725 15.675 2.025
-13.425 13.725 0.825
-13.425 13.725 -1.425
-13.425 13.725 1.725
-13.425 13.725 1.875
-13.425 13.725 2.025
-14.925 12.225 -0.075
-13.125 15.825 1.725
-13.125 15.825 1.875
-13.125 15.825 1.425
-13.125 15.825 1.125
-13.125 15.825 1.575
-13.125 15.825 2.775
-13.125 15.825 1.275
-13.125 14.625 -2.175
-13.125 14.625 -0.375
-13.125 14.625 0.225
-13.125 14.625 -0.225
-13.125 14.625 0.375
-19.725 14.625 1.875
-19.725 14.625 1.575
-19.725 14.625 2.025
-17.925 18.225 1.125
-19.275 17.025 -0.375
-19.275 17.025 1.575
-19.275 17.025 2.475
-17.625 18.375 0.975
-17.625 18.375 0.825
-13.275 14.025 1.575
-13.275 14.025 2.325
-13.575 13.425 1.875
-13.575 13.425 1.575
-13.275 16.425 1.725
-15.225 12.075 -3.525
-15.675 18.525 -3.225
-13.125 15.975 1.725
-13.125 14.475 -0.375
-18.825 17.625 0.525
-18.825 17.625 0.975
-18.825 17.625 1.875
-18.825 17.625 2.625
-14.025 17.625 -1.425
-18.675 17.775 1.275
-18.675 17.775 0.525
-18.675 17.775 0.225
-13.875 12.975 0.975
-13.875 12.975 1.125
-13.875 12.975 1.275
-13.875 12.975 0.825
-13.875 12.975 1.575
-13.875 12.975 0.675
-18.975 17.475 0.375
-17.325 18.525 0.375
-18.525 17.925 0.975
-19.125 17.325 0.525
-13.725 13.125 0.675
-13.725 13.125 1.875
-13.725 13.125 0.825
-13.725 13.125 1.725
-13.725 13.125 0.975
-13.725 13.125 0.375
-13.125 14.325 -0.075
-13.425 13.575 2.025
-13.425 13.575 2.175
-13.425 13.575 1.125
-18.075 18.225 1.275
-18.075 18.225 1.425
-18.075 18.225 0.675
-17.775 18.375 1.875
-17.775 18.375 1.575
-17.775 18.375 1.125
-17.775 18.375 0.825
-13.275 13.875 0.975
-13.275 13.875 -1.575
-13.275 16.575 0.225
-13.275 16.575 1.725
-12.975 15.225 1.275
-12.975 15.225 -0.525
-12.975 15.225 -0.825
-12.975 15.225 -0.375
-16.425 18.675 2.325
-18.375 18.075 -0.675
-18.375 18.075 1.575
-18.375 18.075 -0.975
-18.375 18.075 1.125
-14.475 18.075 -2.475
-14.475 18.075 2.925
-13.575 13.275 1.575
-13.575 13.275 1.725
-13.575 13.275 0.975
-12.975 15.375 1.275
-12.975 15.375 1.425
-12.975 15.075 -2.625
-12.975 15.075 -0.975
-12.975 15.075 -1.125
-12.975 15.075 -0.225
-17.475 18.525 0.225
-19.875 15.525 1.575
-13.125 14.175 2.475
-13.125 14.175 2.325
-13.125 14.175 0.825
-13.125 14.175 0.975
-13.125 16.275 1.875
-13.125 16.275 1.425
-19.725 14.175 1.275
-12.975 15.525 1.575
-12.975 15.525 1.875
-16.725 18.675 2.175
-19.875 14.775 0.825
-19.875 14.775 0.375
-19.875 15.675 1.725
-12.975 14.775 0.075
-12.975 14.775 2.925
-12.975 14.775 3.075
-12.975 14.775 0.975
-12.975 14.775 0.375
-12.975 14.775 0.825
-12.975 15.675 1.275
-12.975 15.675 2.325
-12.975 15.675 1.725
-17.925 18.375 1.125
-17.925 18.375 0.975
-13.275 13.725 -1.575
-13.275 13.725 2.025
-13.275 16.725 1.425
-13.275 16.725 1.875
-19.425 17.025 1.725
-13.425 13.425 2.925
-13.425 13.425 2.175
-13.425 17.025 2.775
-13.425 17.025 1.575
-18.225 18.225 1.725
-18.225 18.225 -0.675
-18.225 18.225 -0.525
-18.225 18.225 0.075
-18.225 18.225 1.575
-14.625 18.225 0.975
-18.825 17.775 0.375
-18.825 17.775 0.825
-18.825 17.775 2.475
-18.825 17.775 1.275
-12.975 14.625 2.925
-12.975 14.625 0.375
-12.975 15.825 1.725
-12.975 15.825 2.025
-12.975 15.825 3.525
-12.975 15.825 1.425
-18.975 17.625 0.375
-17.625 18.525 0.975
-17.625 18.525 0.375
-17.625 18.525 0.825
-13.125 14.025 2.925
-13.125 16.425 1.425
-14.175 12.525 1.875
-14.175 12.525 -1.875
-13.725 12.975 1.125
-13.725 12.975 0.975
-13.725 12.975 0.675
-13.725 12.975 0.525
-13.725 12.975 1.275
-18.675 17.925 0.525
-13.725 12.975 1.575
-13.725 12.975 0.375
-13.725 17.475 4.275
-19.875 14.475 2.925
-12.975 14.475 2.025
-12.975 14.475 -0.225
-12.975 14.475 -0.675
-12.975 14.475 2.925
-12.975 14.475 0.375
-12.975 14.475 0.075
-12.975 14.475 -0.075
-12.975 15.975 2.025
-12.975 15.975 1.725
-12.975 14.475 -0.525
-18.525 18.075 0.075
-18.525 18.075 1.275
-13.575 13.125 2.025
-13.575 13.125 1.275
-13.575 13.125 1.875
-13.575 13.125 0.975
-13.575 13.125 0.525
-13.575 13.125 1.575
-14.325 12.375 1.575
-18.075 18.375 0.825
-18.075 18.375 1.275
-18.075 18.375 0.975
-13.275 13.575 2.775
-14.775 18.375 1.425
-13.275 16.875 1.425
-17.775 18.525 1.125
-17.775 18.525 0.825
-17.775 18.525 0.975
-19.875 14.325 1.425
-12.975 14.325 -0.225
-12.975 14.325 3.075
-12.975 16.125 2.175
-12.975 16.125 -0.375
-13.425 13.275 -1.875
-19.425 17.175 1.725
-14.475 12.225 1.725
-18.375 18.225 1.575
-18.375 18.225 1.125
-12.825 15.225 -0.525
-12.825 15.225 1.875
-12.825 15.225 0.975
-12.825 15.225 -0.825
-12.825 15.225 -0.375
-12.825 15.225 0.525
-12.825 15.225 4.725
-16.275 18.825 -1.425
-12.825 15.375 1.425
-12.825 15.375 1.875
-12.825 15.075 -0.375
-12.825 15.075 -1.275
-12.825 15.075 1.875
-12.825 15.375 3.225
-19.875 16.275 2.475
-18.975 17.775 0.375
-18.975 17.775 0.525
-18.975 17.775 1.575
-18.975 17.775 -1.275
-18.975 17.775 1.125
-18.975 17.775 0.975
-12.975 14.175 1.575
-12.975 14.175 3.225
-12.975 14.175 -2.325
-12.975 14.175 0.525
-12.975 14.175 1.425
-14.025 12.525 3.225
-19.125 17.625 -1.275
-16.125 18.825 1.875
-18.825 17.925 0.375
-18.825 17.925 1.725
-18.825 17.925 1.425
-13.725 12.825 0.675
-13.725 17.625 0.075
-14.025 17.925 4.425
-12.825 15.525 -0.825
-17.925 18.525 0.675
-17.925 18.525 0.975
-17.925 18.525 1.125
-13.125 13.725 -1.875
-13.125 16.725 1.575
-20.025 15.675 1.425
-20.025 15.675 2.325
-16.875 18.825 0.975
-13.275 13.425 2.175
-13.275 17.025 4.575
-13.275 17.025 1.425
-18.225 18.375 1.425
-14.625 18.375 -3.675
-12.825 14.775 -0.525
-12.825 14.775 0.375
-14.175 12.375 -0.075
-18.675 18.075 -0.225
-13.575 12.975 2.025
-13.575 12.975 1.425
-13.575 12.975 2.175
-13.575 12.975 1.125
-13.575 12.975 0.825
-13.575 12.975 1.875
-20.025 15.825 2.175
-17.025 18.825 2.175
-12.825 14.625 -0.225
-12.825 14.625 -0.075
-12.825 14.625 0.525
-12.825 14.625 3.075
-12.825 15.825 1.575
-12.825 15.825 1.875
-12.825 14.625 -0.525
-19.875 14.025 2.775
-12.975 14.025 3.075
-12.975 14.025 2.175
-17.625 18.675 0.675
-13.425 13.125 1.725
-13.425 13.125 0.675
-13.425 13.125 1.425
-13.425 17.325 -2.175
-13.425 17.325 3.225
-13.425 13.125 0.825
-13.425 13.125 0.975
-18.525 18.225 -0.075
-14.325 18.225 2.925
-20.025 14.475 2.925
-20.025 15.975 1.725
-12.825 14.475 -0.225
-12.825 14.475 0.375
-12.825 15.975 1.875
-12.825 14.475 -0.375
-12.825 14.475 -0.075
-12.825 15.975 2.025
-12.825 15.975 2.325
-13.125 16.875 1.275
-18.375 18.375 -0.075
-13.275 13.275 1.875
-13.275 13.275 1.725
-13.275 13.275 -0.225
-13.275 13.275 1.275
-13.275 13.275 -0.375
-18.375 18.375 1.425
-17.775 18.675 0.225
-17.775 18.675 0.675
-17.775 18.675 -0.075
-17.775 18.675 0.825
-12.975 16.575 1.725
-12.975 16.575 1.275
-12.975 13.875 -1.875
-12.975 13.875 -2.025
-20.025 16.125 2.325
-17.325 18.825 2.025
-12.825 16.125 2.025
