# .PCD v0.7 - Point Cloud Data file format
VERSION 0.7
FIELDS x y z
SIZE 4 4 4
TYPE F F F
COUNT 1 1 1
WIDTH 2048
HEIGHT 1
VIEWPOINT 0 0 0 1 0 0 0
POINTS 2048
DATA ascii
-22.125 23.625 1.575
-22.125 23.325 3.675
-22.275 23.625 3.675
-22.275 23.625 1.725
-21.975 23.325 2.175
-21.975 23.325 1.125
-22.125 23.775 1.725
-22.425 23.475 -0.375
-22.425 23.475 0.375
-22.125 23.175 -0.675
-22.275 23.775 0.675
-22.275 23.775 -3.525
-22.425 23.625 0.675
-22.275 23.175 1.725
-22.425 23.625 0.825
-22.425 23.625 0.075
-22.425 23.325 0.525
-22.425 23.325 1.125
-22.425 23.775 0.525
-22.425 23.775 1.425
-22.425 23.775 0.825
-22.425 23.175 0.675
-22.425 23.175 1.275
-22.575 23.475 0.525
-21.675 23.475 1.125
-22.125 23.025 2.025
-22.575 23.625 0.225
-22.275 23.925 2.175
-22.275 23.925 0.675
-22.275 23.925 0.825
-21.975 23.925 -0.375
-22.575 23.625 1.125
-21.675 23.625 1.125
-21.975 23.925 0.825
-22.275 23.925 -0.075
-22.575 23.625 1.275
-22.575 23.625 0.975
-22.575 23.325 0.825
-22.575 23.325 0.525
-22.575 23.325 1.275
-22.575 23.325 0.675
-22.575 23.325 0.075
-22.575 23.325 1.575
-22.575 23.325 1.425
-22.275 23.025 2.025
-22.575 23.775 1.725
-22.575 23.775 1.125
-22.575 23.775 0.225
-22.575 23.775 0.525
-22.425 23.925 0.075
-22.575 23.175 2.025
-22.575 23.175 0.975
-22.425 23.925 0.525
-22.425 23.925 0.375
-22.425 23.925 1.575
-22.425 23.925 0.675
-22.575 23.175 1.425
-21.675 23.175 -3.225
-22.575 23.175 1.725
-22.575 23.175 0.375
-22.575 23.175 1.575
-22.425 23.925 1.425
-22.725 23.475 1.125
-22.725 23.475 1.425
-22.125 22.875 1.425
-21.525 23.475 1.425
-21.525 23.475 -0.525
-22.725 23.475 0.525
-22.725 23.475 0.675
-22.275 24.075 0.375
-22.725 23.625 1.275
-21.525 23.625 1.425
-21.525 23.625 -0.375
-22.725 23.625 0.975
-21.525 23.625 0.975
-22.725 23.625 0.825
-22.725 23.325 1.275
-22.725 23.325 0.075
-22.725 23.325 -0.075
-21.525 23.325 0.975
-21.525 23.325 -4.425
-22.725 23.325 0.525
-22.725 23.325 1.725
-22.725 23.325 0.225
-22.725 23.325 0.825
-21.525 23.325 1.125
-22.725 23.325 0.675
-22.725 23.325 1.425
-22.575 23.925 1.125
-22.575 23.925 0.375
-22.575 23.925 0.825
-22.575 23.025 0.675
-22.425 24.075 0.975
-22.425 24.075 0.825
-22.425 24.075 0.375
-22.425 24.075 0.075
-22.425 24.075 0.225
-21.525 23.775 1.275
-21.525 23.775 1.125
-22.725 23.775 1.425
-22.725 23.775 -0.075
-21.525 23.175 0.375
-22.425 22.875 1.275
-22.725 23.175 0.975
-22.725 23.175 0.525
-22.725 23.175 1.125
-21.825 22.875 1.425
-22.575 24.075 0.675
-22.575 24.075 -0.225
-22.575 24.075 2.475
-21.675 24.075 -0.825
-21.375 23.475 0.375
-22.125 24.225 2.475
-22.875 23.475 1.575
-22.875 23.475 1.875
-22.875 23.475 0.825
-22.725 23.925 1.275
-21.675 22.875 1.725
-21.525 23.925 1.425
-21.525 23.925 -0.825
-22.725 23.925 0.075
-22.725 23.925 0.225
-22.725 23.025 1.275
-22.725 23.025 0.975
-21.375 23.625 1.575
-22.875 23.625 0.825
-22.275 24.225 0.975
-22.875 23.625 0.225
-22.875 23.625 0.675
-22.275 24.225 1.275
-22.275 24.225 0.375
-22.275 22.725 0.975
-21.375 23.625 0.375
-22.275 24.225 1.425
-22.275 24.225 0.675
-22.875 23.325 1.275
-22.875 23.325 0.075
-21.375 23.325 -4.125
-22.875 23.325 1.125
-22.875 23.325 0.675
-22.875 23.325 0.375
-21.375 23.775 0.225
-21.375 23.775 0.675
-21.375 23.775 1.575
-22.875 23.775 0.525
-21.375 23.775 -0.525
-22.875 23.775 0.675
-21.375 23.175 2.475
-22.425 24.225 1.425
-22.425 24.225 0.975
-22.425 24.225 0.825
-22.875 23.175 0.075
-22.875 23.175 1.275
-22.875 23.175 0.225
-22.875 23.175 0.825
-21.375 23.175 -0.075
-22.425 24.225 0.675
-22.425 24.225 1.275
-22.875 23.175 1.425
-22.725 24.075 1.575
-22.725 24.075 -0.375
-21.525 22.875 0.375
-22.725 22.875 0.975
-22.725 22.875 3.225
-22.725 22.875 0.675
-22.725 22.875 1.425
-22.725 22.875 3.825
-22.725 22.875 1.125
-21.675 22.725 2.025
-21.375 23.925 1.275
-21.375 23.925 -0.075
-22.575 22.725 1.425
-22.575 24.225 0.225
-22.575 24.225 1.275
-22.575 22.725 0.675
-22.575 24.225 0.675
-21.675 24.225 2.175
-22.575 22.725 1.125
-22.575 24.225 0.825
-21.675 22.725 1.725
-22.875 23.025 0.225
-21.375 23.025 0.375
-21.375 23.025 0.225
-22.875 23.025 1.125
-22.125 24.375 3.825
-21.225 23.475 0.375
-21.225 23.475 1.575
-21.225 23.475 0.825
-22.125 24.375 1.875
-22.125 24.375 1.425
-21.225 23.625 0.825
-21.225 23.625 0.375
-22.275 24.375 0.525
-22.275 24.375 0.675
-22.275 24.375 1.725
-23.025 23.325 0.225
-21.225 23.325 0.375
-23.025 23.325 0.675
-21.225 23.325 0.825
-23.025 23.325 0.825
-22.275 22.575 2.025
-21.225 23.775 -1.425
-21.225 23.775 0.225
-22.425 24.375 0.975
-22.425 24.375 1.425
-21.225 23.175 1.425
-21.225 23.175 0.375
-22.425 24.375 -0.075
-22.425 24.375 0.525
-23.025 23.175 3.525
-22.425 24.375 0.675
-22.425 22.575 0.525
-22.425 22.575 0.975
-21.375 24.075 -0.675
-22.875 24.075 1.425
-22.875 24.075 1.125
-22.725 22.725 0.825
-22.725 24.225 0.375
-22.725 24.225 0.525
-22.725 24.225 -0.075
-22.875 22.875 0.375
-22.875 22.875 0.825
-22.725 22.725 0.975
-22.725 22.725 0.675
-21.525 22.725 0.225
-22.725 22.725 1.425
-21.375 22.875 1.575
-21.675 24.375 2.175
-22.575 24.375 0.525
-21.675 24.375 1.575
-21.225 23.025 0.375
-23.025 23.025 0.675
-21.225 23.025 0.825
-23.025 23.025 -0.375
-23.025 23.025 0.075
-21.675 22.575 -0.825
-22.125 24.525 1.725
-22.125 24.525 -1.125
-22.125 24.525 1.575
-21.075 23.475 1.275
-21.075 23.475 0.375
-21.075 23.475 1.125
-22.275 24.525 -2.775
-22.275 24.525 1.425
-22.275 24.525 2.025
-22.875 22.725 1.425
-21.375 24.225 1.575
-22.875 24.225 0.825
-21.375 22.725 0.375
-21.375 24.225 -0.225
-21.075 23.625 0.375
-21.075 23.625 0.825
-21.075 23.625 1.125
-23.175 23.325 -1.275
-21.075 23.325 1.425
-21.075 23.325 0.375
-21.075 23.325 0.075
-21.225 24.075 1.275
-21.225 24.075 0.225
-21.225 24.075 0.525
-22.725 24.375 0.675
-21.225 22.875 0.075
-22.725 24.375 1.125
-23.025 22.875 0.375
-21.225 22.875 0.375
-22.725 24.375 0.525
-23.025 22.875 0.525
-22.725 22.575 1.875
-22.725 22.575 1.275
-22.425 24.525 0.825
-22.425 24.525 1.575
-22.425 24.525 1.725
-22.425 24.525 0.975
-22.425 24.525 -0.075
-22.425 24.525 -0.225
-21.075 23.775 0.375
-22.425 22.425 1.425
-21.075 23.175 0.375
-21.075 23.175 1.425
-21.075 23.175 2.325
-21.075 23.175 0.825
-22.425 22.425 2.325
-21.075 23.175 1.575
-22.575 24.525 0.975
-22.575 24.525 1.125
-21.075 23.925 0.225
-22.575 22.425 1.275
-21.075 23.925 0.075
-22.575 22.425 1.575
-21.675 22.425 0.225
-21.075 23.925 0.375
-21.075 23.925 -0.675
-21.075 23.925 0.825
-21.075 23.025 0.075
-21.075 23.025 0.975
-21.075 23.025 1.575
-21.225 24.225 0.225
-21.225 22.725 0.825
-21.225 24.225 0.375
-21.225 22.725 0.375
-23.025 22.725 0.225
-21.225 22.725 0.975
-22.875 22.575 1.425
-21.375 22.575 0.375
-22.875 22.575 1.275
-22.125 24.675 1.125
-22.125 24.675 1.575
-21.525 24.525 -0.075
-22.275 24.675 2.025
-20.925 23.625 0.075
-22.275 24.675 1.275
-20.925 23.625 -2.175
-22.275 24.675 0.825
-21.975 24.675 1.425
-20.925 23.325 0.825
-20.925 23.325 -0.825
-20.925 23.325 0.975
-21.075 24.075 0.825
-21.525 22.425 1.125
-21.525 22.425 2.025
-21.075 22.875 0.375
-21.075 22.875 2.775
-21.525 22.425 1.425
-22.725 22.425 1.575
-22.725 22.425 0.975
-21.525 22.425 0.225
-22.725 22.425 0.675
-22.725 22.425 1.275
-22.725 22.425 1.725
-22.725 22.425 0.825
-20.925 23.775 0.375
-20.925 23.775 1.125
-20.925 23.775 0.825
-22.425 24.675 0.825
-23.325 23.175 0.825
-22.425 24.675 1.275
-22.425 24.675 0.975
-22.425 24.675 -0.525
-20.925 23.175 0.975
-22.425 22.275 1.425
-23.025 24.375 0.975
-21.225 24.375 0.525
-21.225 24.375 0.375
-23.025 22.575 0.225
-21.225 22.575 0.375
-21.225 22.575 0.975
-23.025 22.575 0.525
-23.025 22.575 0.375
-21.225 22.575 1.725
-21.225 22.575 1.875
-21.225 22.575 0.825
-23.025 22.575 -0.075
-20.925 23.925 0.075
-21.675 24.675 1.275
-22.575 24.675 1.275
-20.925 23.025 1.875
-20.925 23.025 -0.225
-20.925 23.025 1.725
-20.925 23.025 1.275
-22.575 22.275 0.825
-22.575 22.275 1.575
-22.575 22.275 1.275
-22.575 22.275 1.725
-21.375 24.525 0.375
-21.375 24.525 1.575
-21.375 24.525 -2.025
-22.875 24.525 1.125
-21.375 24.525 -4.275
-21.375 22.425 0.225
-21.375 22.425 1.125
-21.375 22.425 0.825
-23.175 22.725 0.375
-21.075 24.225 0.825
-22.875 22.425 1.125
-21.075 22.725 0.075
-23.175 22.725 0.525
-21.075 24.225 0.375
-20.925 24.075 -0.075
-20.925 24.075 -0.675
-20.925 24.075 0.375
-21.525 24.675 0.075
-20.925 22.875 1.875
-20.925 22.875 -0.075
-20.925 22.875 1.725
-20.925 22.875 2.625
-20.925 22.875 -0.225
-22.725 22.275 1.125
-21.525 22.275 0.375
-22.125 24.825 1.125
-20.775 23.475 -0.075
-20.775 23.475 0.825
-23.475 23.475 0.825
-22.275 24.825 1.425
-20.775 23.625 0.975
-20.775 23.625 -0.375
-20.775 23.625 -0.075
-20.775 23.325 1.575
-23.475 23.325 0.975
-20.775 23.325 1.125
-23.475 23.325 1.275
-20.775 23.325 1.275
-20.775 23.325 -0.525
-20.775 23.325 -0.075
-21.225 24.525 0.375
-21.225 24.525 0.975
-21.225 24.525 -2.325
-21.225 24.525 0.525
-22.425 24.825 1.125
-21.225 22.425 0.375
-21.225 22.425 1.725
-23.175 24.375 3.375
-23.025 22.425 0.075
-21.075 24.375 1.575
-23.025 22.425 0.525
-21.075 24.375 0.975
-21.225 22.425 1.875
-21.075 24.375 -2.475
-21.075 24.375 0.375
-21.225 22.425 0.675
-22.425 22.125 1.275
-22.425 22.125 2.325
-22.425 22.125 1.875
-21.075 22.575 0.375
-21.075 22.575 1.725
-21.075 22.575 1.275
-23.175 22.575 0.075
-20.925 22.725 -0.075
-21.375 24.675 0.375
-20.925 24.225 0.075
-23.325 22.725 3.675
-20.925 22.725 -0.225
-22.875 22.275 1.125
-22.875 22.275 0.675
-22.875 22.275 0.825
-21.375 22.275 0.375
-21.375 22.275 -0.975
-22.575 24.825 0.975
-20.775 23.925 -0.225
-21.675 22.125 0.225
-22.575 22.125 1.425
-20.775 23.025 -0.225
-21.525 24.825 1.725
-20.775 22.875 2.175
-20.775 22.875 -0.225
-22.725 22.125 2.025
-21.075 24.525 0.525
-21.075 24.525 0.075
-21.075 24.525 0.825
-21.075 22.425 0.375
-21.075 22.425 0.075
-23.175 22.425 0.225
-21.075 22.425 -0.225
-21.225 24.675 0.975
-21.225 24.675 0.375
-21.225 24.675 1.125
-20.625 23.475 -0.225
-22.125 24.975 0.825
-20.925 22.575 -0.225
-20.925 22.575 1.725
-23.325 22.575 0.525
-20.925 22.575 0.075
-21.225 22.275 0.975
-21.225 22.275 2.475
-21.225 22.275 0.825
-23.025 22.275 0.375
-23.025 22.275 0.225
-23.025 22.275 0.975
-21.225 22.275 0.375
-20.625 23.625 0.675
-20.625 23.625 -0.375
-20.625 23.625 1.125
-22.275 21.975 1.875
-22.275 24.975 0.975
-22.275 24.975 0.825
-20.625 23.325 -0.525
-20.625 23.325 -0.975
-20.625 23.175 -0.225
-23.625 23.175 0.975
-22.425 21.975 2.175
-22.425 21.975 1.425
-20.625 23.175 1.125
-20.625 23.175 -0.825
-21.825 21.975 0.375
-22.425 24.975 0.975
-22.425 21.975 1.275
-22.875 22.125 1.575
-22.875 22.125 0.975
-22.875 22.125 -0.375
-22.875 22.125 0.225
-21.675 21.975 -0.975
-21.675 21.975 0.675
-22.575 21.975 1.275
-20.625 23.925 0.825
-20.625 23.025 1.125
-20.625 23.025 -0.525
-23.625 23.025 1.125
-21.075 24.675 0.225
-21.075 24.675 0.525
-21.075 24.675 0.825
-20.925 22.425 -0.075
-20.925 22.425 2.025
-23.175 22.275 0.525
-21.075 22.275 0.075
-23.175 22.275 0.225
-21.075 22.275 1.875
-20.625 24.075 1.125
-20.625 24.075 -0.375
-21.525 21.975 0.225
-23.625 22.875 0.375
-20.625 22.875 2.925
-22.725 21.975 1.125
-21.225 24.825 0.375
-21.225 24.825 0.525
-23.025 22.125 0.225
-23.025 22.125 0.525
-20.775 24.375 1.575
-20.775 24.375 3.525
-21.225 22.125 -0.225
-20.775 24.375 0.525
-21.225 22.125 1.575
-21.225 22.125 0.375
-23.475 22.575 1.575
-23.775 23.625 2.175
-22.275 25.125 0.675
-23.775 23.325 0.225
-20.475 23.325 1.275
-20.475 23.325 -0.225
-20.475 23.325 0.825
-20.475 23.325 0.975
-22.275 21.825 -0.075
-20.475 23.775 0.375
-20.475 23.775 1.125
-20.475 23.775 0.975
-20.475 23.175 0.975
-22.425 25.125 -0.825
-22.425 25.125 -2.325
-20.475 23.175 0.075
-22.875 21.975 0.075
-21.375 21.975 1.275
-21.375 21.975 0.375
-20.625 24.225 0.825
-20.625 24.225 -0.525
-21.375 24.975 0.375
-20.625 24.225 0.675
-20.625 22.725 -0.225
-22.875 21.975 0.675
-20.625 22.725 1.125
-22.875 21.975 0.825
-20.625 22.725 1.275
-22.875 21.975 0.225
-22.425 21.825 1.425
-22.425 21.825 1.125
-20.925 24.675 0.225
-20.925 22.275 -0.375
-20.925 22.275 1.275
-23.325 22.275 0.225
-23.325 22.275 0.525
-22.575 25.125 -2.625
-20.475 23.925 1.275
-20.475 23.925 -0.225
-21.075 24.825 0.525
-20.475 23.025 2.175
-20.475 23.025 0.975
-20.475 23.025 0.825
-23.775 23.025 1.425
-20.775 24.525 -0.225
-23.175 22.125 0.375
-23.175 22.125 0.975
-20.775 22.425 3.375
-21.075 22.125 -0.375
-21.075 22.125 0.075
-21.075 22.125 0.375
-23.475 22.425 0.525
-21.675 21.825 2.475
-21.675 21.825 0.225
-21.225 21.975 -0.525
-21.225 21.975 0.375
-21.225 21.975 1.125
-21.225 24.975 0.975
-21.225 21.975 -0.825
-21.225 24.975 0.525
-21.225 24.975 0.825
-21.225 21.975 0.525
-23.025 21.975 0.075
-23.025 21.975 1.275
-23.025 21.975 -0.225
-21.225 21.975 0.825
-20.625 22.575 1.125
-20.625 22.575 1.275
-20.625 22.575 1.875
-20.625 22.575 -0.525
-20.625 22.575 1.725
-20.475 24.075 -0.225
-20.475 24.075 1.575
-21.525 25.125 -2.625
-21.525 21.825 0.225
-22.725 21.825 1.125
-20.325 23.475 0.525
-20.325 23.475 0.225
-20.325 23.475 0.975
-20.325 23.475 -0.075
-20.325 23.475 0.375
-23.325 22.125 0.675
-20.325 23.625 0.975
-20.325 23.625 0.225
-20.325 23.625 0.825
-20.325 23.625 0.675
-20.925 22.125 1.275
-20.925 22.125 -0.225
-20.925 22.125 -0.825
-20.325 23.625 1.575
-23.325 22.125 -0.075
-20.325 23.325 0.825
-20.325 23.325 0.675
-20.325 23.325 0.375
-23.925 23.325 0.675
-20.475 22.725 1.425
-23.775 22.725 0.225
-20.475 22.725 1.125
-20.475 24.225 -1.125
-21.375 25.125 0.375
-20.475 24.225 -0.075
-22.875 21.825 0.825
-21.375 21.825 0.825
-22.875 21.825 -0.075
-22.875 21.825 0.225
-21.375 21.825 0.975
-21.375 21.825 2.175
-21.375 21.825 0.225
-21.375 21.825 0.375
-20.325 23.775 0.825
-20.325 23.775 1.725
-20.325 23.775 1.575
-20.325 23.775 0.975
-22.425 21.675 0.975
-20.325 23.175 0.675
-20.325 23.175 0.975
-20.325 23.175 0.375
-22.425 21.675 2.175
-20.625 24.525 1.125
-20.625 24.525 0.975
-20.625 24.525 0.075
-20.625 24.525 1.425
-20.625 22.425 -0.225
-20.625 22.425 1.275
-23.175 24.975 -0.375
-21.075 21.975 -0.375
-21.075 21.975 0.225
-23.175 21.975 0.975
-21.075 24.975 0.225
-21.075 24.975 0.675
-21.075 24.975 0.525
-23.175 21.975 -0.075
-22.575 25.275 1.425
-20.325 23.925 0.825
-20.325 23.925 0.975
-22.575 21.675 1.425
-20.325 23.025 0.825
-20.325 23.025 0.975
-20.475 24.375 2.175
-21.225 25.125 -2.175
-21.225 25.125 0.525
-21.225 25.125 2.475
-20.475 22.575 0.375
-21.225 21.825 1.425
-21.225 21.825 1.125
-21.225 21.825 0.375
-21.225 21.825 -1.425
-21.225 21.825 -0.075
-23.025 21.825 0.375
-21.525 25.275 0.375
-21.525 25.275 3.225
-20.325 24.075 0.975
-20.325 24.075 0.825
-20.325 24.075 0.675
-20.325 22.875 0.525
-20.325 22.875 0.975
-22.725 21.675 1.725
-20.775 24.825 -0.225
-20.775 24.825 2.175
-20.775 24.825 0.975
-20.775 22.125 1.125
-23.475 22.125 -1.275
-20.625 24.675 1.575
-20.625 24.675 -0.225
-20.625 24.675 0.825
-20.925 24.975 0.075
-20.625 22.275 -0.375
-20.625 22.275 -0.525
-20.625 22.275 1.425
-20.625 22.275 0.375
-21.375 25.275 -2.625
-21.375 25.275 0.075
-21.375 25.275 0.375
-22.875 25.275 0.525
-20.175 23.475 0.675
-22.125 25.425 -0.075
-20.175 23.475 0.825
-24.075 23.475 2.025
-22.125 25.425 2.025
-20.325 24.225 0.825
-20.325 24.225 -0.225
-20.325 24.225 0.525
-20.325 22.725 1.125
-20.325 22.725 0.675
-20.325 22.725 0.525
-21.375 21.675 0.225
-20.325 22.725 0.975
-22.875 21.675 1.275
-22.875 21.675 0.675
-20.325 24.225 -0.075
-20.325 22.725 0.825
-22.125 21.525 1.575
-20.475 24.525 0.225
-20.475 24.525 0.075
-20.475 24.525 1.425
-21.075 25.125 -0.375
-21.075 25.125 0.525
-20.175 23.625 0.825
-20.175 23.625 0.675
-20.475 22.425 1.425
-20.475 22.425 1.275
-23.175 25.125 -0.075
-20.175 23.325 0.225
-20.175 23.325 0.375
-20.175 23.325 0.075
-20.175 23.325 0.675
-20.175 23.325 -0.525
-20.175 23.325 0.825
-20.175 23.325 -0.225
-20.175 23.325 0.525
-21.075 21.825 0.375
-21.075 21.825 -0.375
-21.075 21.825 0.075
-21.075 21.825 0.825
-21.075 21.825 2.325
-23.175 21.825 0.225
-20.175 23.775 0.675
-20.175 23.775 2.475
-20.175 23.775 0.825
-20.175 23.775 2.925
-20.175 23.175 0.825
-20.175 23.175 -2.325
-20.175 23.175 0.525
-22.425 25.425 -2.325
-22.425 21.525 1.575
-20.175 23.925 0.825
-20.175 23.925 0.675
-21.675 25.425 1.125
-20.175 23.025 0.825
-20.175 23.025 0.075
-20.175 23.025 0.675
-20.175 23.025 0.525
-22.575 21.525 2.175
-21.225 25.275 -2.475
-21.225 25.275 0.975
-21.225 25.275 0.825
-21.225 25.275 0.375
-21.225 25.275 -0.525
-20.325 24.375 1.425
-20.325 24.375 -0.375
-20.325 24.375 0.075
-21.225 21.675 0.375
-23.025 21.675 -1.425
-20.325 22.575 0.075
-20.325 22.575 1.125
-20.325 22.575 0.825
-20.625 24.825 1.575
-20.625 24.825 -0.075
-20.625 24.825 0.225
-20.625 22.125 -0.675
-20.625 22.125 1.275
-20.625 22.125 1.575
-20.625 22.125 -0.975
-20.625 22.125 1.425
-20.775 21.975 1.725
-20.775 21.975 2.025
-20.775 21.975 2.325
-20.775 24.975 -0.375
-20.925 25.125 1.125
-20.925 25.125 0.225
-20.475 24.675 1.275
-20.175 24.075 2.475
-20.175 24.075 0.825
-20.175 24.075 0.975
-20.175 22.875 0.675
-20.175 22.875 1.575
-20.175 22.875 0.525
-20.475 22.275 0.825
-20.475 22.275 -0.525
-20.925 21.825 2.025
-23.325 21.825 0.675
-22.725 21.525 0.975
-21.075 25.275 0.225
-21.075 25.275 0.375
-21.075 21.675 0.525
-21.075 21.675 -0.075
-21.075 21.675 0.825
-21.075 21.675 0.375
-21.075 21.675 0.975
-21.075 21.675 2.025
-21.075 21.675 -0.225
-23.175 21.675 0.825
-20.325 22.425 1.275
-20.325 22.425 1.425
-23.175 21.675 1.125
-23.175 21.675 -1.725
-21.375 25.425 0.825
-21.375 25.425 0.375
-20.175 22.725 0.675
-21.375 25.425 0.525
-20.175 24.225 0.975
-20.175 24.225 0.825
-20.175 22.725 0.525
-22.875 25.425 -0.975
-20.175 22.725 0.825
-20.175 22.725 0.975
-22.875 21.525 1.725
-22.875 21.525 -0.375
-21.375 21.525 0.225
-22.275 25.575 1.875
-20.025 23.625 3.375
-22.425 25.575 0.525
-22.425 25.575 2.025
-20.625 24.975 -2.175
-20.625 24.975 1.575
-20.625 21.975 1.425
-23.625 21.975 1.875
-20.025 23.775 0.525
-20.025 23.775 0.675
-20.025 23.175 0.825
-20.025 23.175 -0.075
-20.475 24.825 -0.225
-20.475 24.825 0.825
-20.475 24.825 0.525
-20.475 24.825 -0.525
-20.775 25.125 0.675
-20.775 25.125 -0.525
-20.775 25.125 2.925
-20.475 22.125 -0.675
-20.475 22.125 0.075
-20.775 21.825 2.025
-20.175 24.375 0.375
-20.175 24.375 0.225
-20.175 24.375 0.825
-21.225 25.425 -1.725
-21.225 25.425 0.525
-21.225 25.425 2.025
-20.175 24.375 -0.225
-20.175 24.375 1.125
-20.175 24.375 0.675
-21.225 25.425 -2.025
-20.175 22.575 0.975
-20.175 22.575 0.525
-20.175 22.575 1.125
-20.025 23.925 0.525
-22.575 21.375 1.275
-22.575 21.375 1.575
-22.575 21.375 1.425
-21.675 21.375 2.475
-21.225 21.525 1.125
-21.225 21.525 0.375
-23.025 21.525 0.975
-23.025 21.525 1.575
-20.925 25.275 2.325
-20.925 25.275 -0.825
-20.925 21.675 0.375
-20.925 21.675 2.625
-20.925 21.675 0.075
-20.325 24.675 1.275
-23.325 21.675 0.675
-23.925 22.275 -0.225
-22.725 25.575 3.375
-20.025 24.075 0.825
-20.025 24.075 0.525
-20.025 22.875 0.075
-20.025 22.875 0.225
-20.175 24.525 0.225
-20.175 24.525 0.825
-20.175 24.525 0.975
-20.175 24.525 0.075
-20.175 22.425 1.125
-20.175 22.425 1.275
-20.175 22.425 1.425
-20.175 22.425 0.975
-24.075 22.425 2.175
-21.075 25.425 0.225
-20.175 22.425 0.825
-21.075 25.425 0.525
-21.075 25.425 1.725
-21.075 21.525 1.275
-21.075 21.525 0.525
-21.075 21.525 0.975
-21.075 21.525 1.425
-21.075 21.525 1.125
-21.075 21.525 -2.625
-21.075 21.525 0.375
-23.175 21.525 0.375
-23.175 21.525 0.225
-23.175 21.525 0.975
-23.175 21.525 0.525
-22.875 25.575 0.075
-22.875 25.575 -0.675
-21.375 25.575 0.375
-20.475 21.975 0.075
-20.475 21.975 0.675
-20.475 24.975 -0.075
-20.475 24.975 -0.825
-20.475 24.975 0.525
-20.625 25.125 -0.375
-20.625 25.125 -0.225
-20.625 25.125 2.175
-20.025 24.225 0.675
-20.025 24.225 0.825
-20.025 24.225 0.975
-22.875 21.375 1.575
-22.875 21.375 1.725
-22.875 21.375 0.825
-20.025 22.725 0.675
-22.875 21.375 1.425
-20.625 21.825 -0.675
-20.625 21.825 0.975
-20.775 25.275 -1.275
-20.775 25.275 -0.075
-20.775 25.275 1.275
-20.775 25.275 0.525
-20.775 25.275 0.825
-20.325 24.825 0.075
-20.325 24.825 1.125
-20.325 24.825 0.825
-19.875 23.475 0.675
-20.775 21.675 -0.375
-20.325 22.125 1.725
-20.325 22.125 1.125
-22.275 25.725 -0.525
-22.275 25.725 1.875
-22.275 25.725 -0.675
-21.975 25.725 1.875
-19.875 23.325 0.675
-24.375 23.325 1.575
-19.875 23.775 1.275
-19.875 23.775 2.475
-22.425 25.725 0.675
-21.225 25.575 0.975
-21.225 25.575 0.825
-21.225 25.575 0.525
-21.225 25.575 0.375
-23.025 21.375 0.075
-23.025 21.375 0.675
-23.025 21.375 2.475
-21.225 21.375 0.975
-23.025 21.375 0.825
-21.225 21.375 0.675
-21.225 21.375 1.425
-20.025 24.375 0.825
-20.025 24.375 0.675
-20.025 22.575 0.225
-20.025 22.575 0.525
-24.225 22.575 1.425
-20.175 24.675 0.975
-20.175 24.675 0.825
-20.175 24.675 -2.025
-20.925 25.425 1.875
-20.925 25.425 -1.875
-20.925 25.425 1.575
-20.925 25.425 -0.525
-20.175 22.275 0.975
-20.175 22.275 0.675
-20.175 22.275 1.125
-24.075 22.275 1.725
-24.075 22.275 1.875
-20.925 21.525 0.375
-20.925 21.525 2.325
-23.325 21.525 1.275
-23.325 21.525 0.675
-19.875 23.925 0.075
-21.675 25.725 1.725
-19.875 24.075 2.475
-21.525 25.725 2.175
-21.525 25.725 2.025
-19.875 22.875 0.375
-19.875 22.875 -0.675
-22.725 21.225 1.575
-21.525 25.725 2.325
-20.475 25.125 -0.075
-20.475 25.125 1.425
-20.475 21.825 1.125
-20.625 25.275 1.425
-20.625 25.275 0.525
-20.325 24.975 0.975
-20.325 24.975 0.075
-20.325 24.975 0.825
-20.325 21.975 1.575
-20.625 21.675 -0.675
-20.625 21.675 1.875
-20.625 21.675 -0.525
-20.325 24.975 1.125
-21.075 25.575 1.425
-21.075 25.575 -0.375
-21.075 25.575 1.275
-20.025 24.525 0.975
-20.025 24.525 0.825
-23.175 21.375 0.525
-20.025 22.425 0.375
-23.175 21.375 0.825
-23.175 21.375 0.975
-23.175 21.375 1.125
-20.025 22.425 0.675
-23.175 21.375 0.675
-21.075 21.375 -0.675
-21.075 21.375 1.425
-21.075 21.375 -1.425
-21.075 21.375 1.275
-21.075 21.375 1.725
-21.075 21.375 0.375
-21.075 21.375 1.125
-20.175 24.825 -0.075
-20.175 24.825 0.975
-21.375 25.725 2.775
-22.875 21.225 1.275
-22.875 21.225 0.975
-21.375 21.225 0.225
-21.375 21.225 -0.675
-19.875 22.725 0.225
-19.875 22.725 0.375
-19.875 22.725 0.075
-19.875 22.725 0.675
-19.875 22.725 0.525
-21.375 25.725 1.725
-21.375 25.725 0.375
-20.775 25.425 1.425
-24.075 22.125 -0.375
-20.775 25.425 1.725
-20.775 25.425 0.825
-20.775 25.425 1.275
-20.775 25.425 1.575
-20.175 22.125 1.125
-20.175 22.125 -0.075
-20.175 22.125 0.675
-20.775 21.525 2.475
-20.775 21.525 1.275
-22.125 25.875 1.725
-21.975 25.875 1.575
-21.975 25.875 1.425
-20.925 25.575 2.325
-20.925 25.575 1.275
-20.925 25.575 1.575
-21.825 25.875 1.425
-20.925 21.375 1.125
-20.925 21.375 0.825
-20.025 24.675 0.675
-20.025 24.675 0.975
-20.025 24.675 0.825
-20.925 21.375 0.375
-20.925 21.375 1.425
-20.925 21.375 -1.875
-20.925 21.375 2.175
-20.925 21.375 0.975
-23.325 21.375 1.125
-22.425 21.075 3.075
-20.025 22.275 1.575
-20.025 22.275 0.825
-20.025 22.275 0.075
-24.225 22.275 0.825
-24.225 22.275 2.175
-24.225 22.275 1.875
-23.025 21.225 2.325
-23.025 21.225 1.875
-23.025 21.225 0.825
-23.025 21.225 1.125
-24.375 24.375 0.675
-21.225 21.225 -0.825
-21.225 21.225 1.875
-21.225 21.225 1.725
-21.225 21.225 0.075
-21.225 21.225 0.225
-21.225 25.725 -4.875
-21.225 25.725 0.075
-21.225 25.725 0.525
-23.025 25.725 -0.225
-19.875 22.575 0.375
-19.875 22.575 -0.075
-19.875 22.575 0.675
-19.875 22.575 0.525
-20.475 25.275 0.975
-20.475 25.275 0.375
-20.475 25.275 1.425
-22.575 25.875 1.575
-22.575 25.875 -0.075
-24.525 23.925 -0.225
-20.325 25.125 1.125
-23.925 25.125 -0.675
-20.325 25.125 -0.075
-20.325 25.125 0.975
-20.325 21.825 -0.675
-20.325 21.825 -0.075
-20.325 21.825 3.525
-20.325 21.825 0.075
-21.675 21.075 -0.675
-24.075 21.975 3.075
-20.625 25.425 1.275
-20.625 25.425 1.575
-20.175 24.975 0.975
-20.175 21.975 0.825
-20.175 21.975 1.425
-20.175 24.975 0.825
-20.625 21.525 -0.225
-22.725 25.875 2.175
-22.725 25.875 2.025
-22.725 25.875 -0.075
-21.525 25.875 0.375
-22.725 21.075 0.825
-23.175 21.225 0.825
-23.175 21.225 0.975
-21.075 25.725 -0.225
-21.075 25.725 0.375
-21.075 25.725 0.225
-19.875 22.425 0.525
-19.875 22.425 0.675
-21.075 25.725 0.525
-21.075 21.225 1.725
-21.075 21.225 1.425
-21.075 21.225 0.375
-21.075 25.725 -0.075
-20.775 25.575 1.425
-20.775 25.575 1.575
-20.025 24.825 0.975
-20.025 24.825 1.125
-20.025 24.825 1.275
-20.025 24.825 0.675
-24.225 22.125 0.975
-20.775 21.375 0.075
-20.025 22.125 0.225
-24.525 24.225 0.225
-21.375 21.075 1.125
-20.325 25.275 1.125
-20.325 25.275 1.275
-20.325 25.275 0.975
-22.125 26.025 1.875
-22.125 26.025 1.425
-20.925 25.725 1.575
-20.925 25.725 1.425
-20.925 25.725 1.275
-20.925 21.225 0.975
-20.925 21.225 -0.525
-20.925 21.225 1.125
-20.925 21.225 1.425
-20.925 21.225 2.175
-20.925 21.225 0.375
-19.875 24.675 0.675
-23.325 21.225 0.525
-24.675 23.475 -0.375
-19.875 22.275 0.825
-19.875 22.275 0.525
-21.975 26.025 0.975
-22.275 26.025 1.575
-20.475 25.425 1.125
-23.775 25.425 -0.075
-20.475 25.425 1.275
-20.475 25.425 0.075
-20.475 25.425 -0.225
-20.475 25.425 0.825
-20.175 25.125 1.125
-20.175 25.125 0.675
-20.175 25.125 0.975
-20.175 25.125 0.825
-20.175 21.825 1.275
-20.175 21.825 1.425
-22.275 20.925 2.175
-21.225 25.875 1.575
-21.225 25.875 0.975
-21.225 25.875 0.375
-21.225 25.875 1.275
-21.225 25.875 0.825
-21.225 25.875 0.225
-21.225 25.875 0.075
-21.225 25.875 0.525
-23.025 21.075 0.525
-21.225 21.075 0.225
-21.225 21.075 0.075
-21.825 26.025 1.575
-22.425 26.025 1.725
-22.425 26.025 1.425
-19.575 23.775 2.775
-20.625 25.575 1.275
-20.625 25.575 -2.025
-20.625 25.575 1.575
-20.625 25.575 1.125
-20.625 25.575 1.725
-23.625 25.575 1.875
-24.225 21.975 1.425
-20.025 24.975 0.825
-20.025 24.975 1.125
-20.025 21.975 1.725
-20.025 21.975 0.975
-22.575 26.025 2.325
-21.675 26.025 0.375
-19.575 23.925 2.475
-24.675 23.925 -0.375
-22.725 26.025 1.725
-21.075 25.875 0.225
-21.075 25.875 1.575
-21.075 25.875 1.275
-21.075 25.875 0.525
-21.075 25.875 0.375
-21.075 25.875 1.425
-19.575 24.075 -1.725
-21.525 20.925 0.075
-22.725 20.925 1.875
-22.725 20.925 0.225
-22.725 20.925 1.275
-22.725 20.925 1.125
-23.175 21.075 1.425
-21.075 21.075 0.525
-21.075 21.075 1.875
-21.075 21.075 0.225
-21.075 21.075 1.575
-19.875 24.825 0.525
-20.775 21.225 0.375
-20.775 25.725 1.725
-20.775 25.725 1.425
-20.775 25.725 1.275
-20.775 25.725 1.575
-19.875 22.125 0.975
-19.875 22.125 0.075
-24.375 22.125 1.425
-24.375 22.125 1.725
-20.175 25.275 0.975
-20.175 25.275 0.375
-20.175 25.275 0.825
-20.175 25.275 0.675
-20.175 21.675 1.275
-20.175 21.675 1.575
-20.325 25.425 1.125
-20.325 21.525 2.025
-21.375 26.025 0.375
-21.375 26.025 2.175
-21.375 20.925 1.725
-22.875 20.925 1.125
-20.475 25.575 1.125
-20.475 25.575 1.275
-20.475 25.575 1.425
-20.025 25.125 0.975
-20.025 25.125 -0.225
-20.025 25.125 -0.075
-20.025 25.125 0.825
-20.025 25.125 0.525
-24.225 21.825 2.625
-20.025 21.825 0.975
-23.325 25.875 0.525
-19.725 22.275 0.525
-19.725 22.275 0.675
-19.725 22.275 0.975
-24.525 22.275 1.875
-24.525 22.275 1.725
-20.925 21.075 1.875
-20.925 21.075 0.375
-20.925 21.075 0.075
-22.125 26.175 1.725
-22.125 26.175 0.225
-21.225 26.025 3.075
-21.225 26.025 1.425
-23.025 26.025 1.725
-24.825 23.625 -0.375
-22.275 26.175 1.725
-20.625 25.725 0.225
-20.625 21.225 1.575
-20.625 25.725 1.425
-20.625 25.725 1.275
-20.625 21.225 2.475
-24.375 21.975 1.425
-19.875 21.975 0.075
-19.875 21.975 1.125
-21.225 20.925 1.725
-23.025 20.925 2.325
-23.025 20.925 1.875
-19.575 24.375 0.975
-24.825 23.175 2.025
-21.825 26.175 -0.075
-22.425 26.175 -0.075
-22.425 26.175 0.825
-22.575 26.175 2.625
-22.575 26.175 1.575
-21.675 26.175 1.575
-21.675 20.775 0.075
-20.775 25.875 1.425
-20.775 25.875 1.575
-19.725 22.125 0.975
-19.725 22.125 0.375
-19.725 22.125 0.675
-19.725 22.125 0.075
-24.525 22.125 1.575
-24.525 22.125 1.425
-23.475 25.875 1.725
-20.775 21.075 0.375
-20.775 21.075 0.975
-20.775 21.075 -0.375
-20.775 21.075 0.825
-21.075 26.025 1.575
-21.075 26.025 -0.525
-21.075 26.025 0.375
-21.075 26.025 0.225
-21.075 26.025 0.825
-20.175 25.425 0.675
-20.175 25.425 0.825
-19.575 24.525 -0.825
-19.575 22.425 0.525
-21.075 20.925 0.375
-23.175 20.925 0.675
-23.175 20.925 0.525
-20.175 21.525 1.875
-20.325 25.575 2.625
-20.025 25.275 0.675
-20.025 25.275 1.125
-20.025 25.275 0.825
-22.725 26.175 1.425
-21.525 26.175 -0.825
-21.525 26.175 0.525
-20.025 21.675 0.825
-20.025 21.675 1.125
-20.025 21.675 1.425
-20.325 21.375 -0.675
-20.325 21.375 -0.825
-21.525 20.775 0.075
-19.875 25.125 0.975
-19.875 25.125 1.125
-20.475 25.725 1.425
-20.475 25.725 1.275
-20.475 25.725 1.575
-20.475 25.725 -1.575
-20.475 21.225 -0.975
-24.375 25.125 0.975
-19.875 21.825 0.975
-22.875 26.175 1.875
-22.875 26.175 2.025
-21.375 26.175 -0.525
-21.375 26.175 1.425
-21.375 26.175 0.225
-22.875 20.775 1.425
-22.875 20.775 1.875
-20.925 26.025 1.425
-20.925 26.025 1.125
-20.925 26.025 1.725
-20.925 26.025 1.575
-20.925 20.925 -0.225
-20.925 20.925 1.725
-20.925 20.925 0.375
-20.925 20.925 5.625
-20.925 20.925 1.125
-23.325 20.925 -0.675
-19.575 22.275 -0.525
-24.675 22.275 1.425
-20.625 25.875 1.275
-19.725 21.975 0.825
-19.725 21.975 0.675
-20.625 21.075 0.075
-20.625 21.075 -0.375
-23.025 26.175 1.425
-21.225 26.175 0.375
-21.225 26.175 0.975
-21.225 20.775 -0.075
-23.025 20.775 0.525
-23.025 20.775 0.675
-23.025 20.775 0.975
-22.125 26.325 1.725
-21.975 26.325 -0.075
-22.275 20.625 -1.575
-22.275 20.625 2.775
-22.275 20.625 -1.875
-21.825 26.325 0.375
-21.825 26.325 0.075
-21.825 26.325 0.975
-22.425 26.325 1.125
-22.425 26.325 1.575
-22.425 26.325 0.975
-20.175 25.575 1.725
-20.175 25.575 0.825
-20.175 25.575 0.975
-20.025 25.425 0.825
-19.875 25.275 0.825
-19.875 25.275 1.125
-19.875 25.275 0.525
-19.875 25.275 0.075
-19.875 25.275 0.675
-19.875 21.675 0.675
-20.325 25.725 1.125
-20.325 25.725 1.275
-20.325 25.725 -0.225
-19.875 21.675 0.975
-20.325 21.225 -0.975
-21.675 26.325 -0.225
-21.675 26.325 0.225
-21.675 26.325 -0.075
-21.675 26.325 1.425
-21.675 26.325 0.375
-22.575 26.325 1.725
-20.775 26.025 -0.075
-20.775 20.925 -0.975
-20.775 20.925 0.975
-20.775 20.925 0.525
-20.775 20.925 0.825
-23.175 26.175 1.425
-23.175 26.175 1.575
-21.075 26.175 0.975
-21.075 26.175 0.075
-21.075 26.175 1.125
-24.825 22.425 2.775
-21.075 20.775 -0.075
-23.175 20.775 0.375
-23.175 20.775 0.675
-21.525 26.325 -0.075
-19.725 25.125 0.825
-20.475 25.875 1.275
-20.475 25.875 1.575
-22.725 26.325 2.025
-22.725 26.325 1.275
-19.725 21.825 0.975
-22.725 20.625 1.575
-22.875 26.325 1.575
-21.375 26.325 0.375
-21.375 26.325 1.275
-22.875 20.625 1.425
-22.875 20.625 1.125
-21.375 20.625 1.725
-21.375 20.625 0.825
-20.925 26.175 -0.675
-20.925 26.175 0.975
-20.925 26.175 -0.525
-20.625 26.025 0.525
-20.625 26.025 -0.075
-20.625 26.025 2.625
-20.625 20.925 0.075
-20.625 20.925 0.375
-20.625 20.925 -0.375
-19.575 21.975 0.225
-19.575 21.975 0.675
-19.575 21.975 0.825
-19.575 21.975 0.525
-20.025 25.575 0.825
-20.025 25.575 -0.075
-20.025 25.575 1.875
-20.025 25.575 2.025
-20.025 21.375 -0.525
-20.025 21.375 0.975
-24.225 21.375 1.575
-20.175 25.725 -0.225
-20.175 25.725 1.425
-19.875 25.425 0.675
-19.875 25.425 0.525
-24.075 25.725 1.275
-19.875 21.525 1.125
-19.875 21.525 0.825
-23.025 26.325 0.975
-23.025 26.325 0.525
-21.225 26.325 -0.525
-23.025 20.625 0.825
-23.025 20.625 1.275
-19.275 22.575 4.725
-20.325 25.875 1.275
-20.325 25.875 1.125
-22.125 26.475 0.675
-20.325 21.075 0.075
-20.325 21.075 -0.825
-20.325 21.075 -0.375
-25.125 23.775 -0.075
-21.825 26.475 -0.375
-21.825 26.475 0.375
-20.775 26.175 1.425
-20.775 26.175 -0.225
-20.775 26.175 3.075
-20.775 26.175 4.725
-20.775 26.175 0.975
-20.775 26.175 -0.075
-20.775 26.175 1.275
-20.775 26.175 1.575
-20.775 26.175 1.725
-24.825 22.125 2.175
-20.775 20.775 -0.975
-20.775 20.775 0.375
-20.775 20.775 -0.525
-21.675 26.475 -0.225
-21.675 26.475 0.375
-21.675 26.475 -0.375
-22.575 26.475 1.425
-22.575 26.475 1.275
-22.575 26.475 2.625
-21.675 26.475 -0.075
-21.075 26.325 0.525
-23.175 26.325 1.275
-20.475 20.925 0.675
-20.475 20.925 -0.525
-23.175 20.625 0.375
-21.075 20.625 1.725
-24.675 21.825 1.425
-25.125 24.075 0.375
-21.525 26.475 0.375
-22.725 26.475 1.725
-22.725 26.475 1.125
-21.525 26.475 1.425
-22.725 20.475 1.125
-22.725 20.475 1.275
-22.725 20.475 1.725
-19.875 25.575 0.225
-19.875 25.575 -0.075
-20.025 25.725 -0.375
-20.025 25.725 1.275
-20.025 25.725 0.825
-20.025 25.725 1.575
-20.025 25.725 1.425
-20.025 25.725 0.975
-19.875 21.375 0.975
-20.025 21.225 1.575
-20.625 26.175 1.875
-20.625 26.175 0.975
-20.625 26.175 0.825
-20.625 20.775 0.375
-20.625 20.775 3.225
-20.925 26.325 -1.275
-20.925 26.325 0.375
-20.175 25.875 0.975
-21.375 26.475 0.375
-21.375 26.475 0.525
-21.375 26.475 0.225
-19.725 21.525 1.125
-24.525 21.525 2.175
-20.925 20.625 -0.375
-23.325 20.625 1.275
-23.325 20.625 0.825
-23.325 20.625 0.675
-23.325 20.625 -0.375
-23.325 20.625 0.525
-20.325 26.025 1.275
-20.325 26.025 1.425
-20.325 26.025 1.125
-20.325 20.925 -0.075
-20.325 20.925 -0.825
-20.325 20.925 0.075
-20.325 20.925 0.525
-21.225 26.475 -0.225
-21.225 20.475 -0.225
-21.225 20.475 2.025
-21.225 20.475 -0.675
-21.975 26.625 0.675
-22.275 26.625 -1.575
-23.475 26.325 0.225
-20.775 26.325 -0.675
-20.775 26.325 -0.225
-19.275 24.825 -0.375
-20.775 20.625 -0.375
-20.775 20.625 5.625
-20.775 20.625 0.525
-20.775 20.625 1.725
-20.775 20.625 -0.525
-23.475 20.625 0.825
-23.475 20.625 1.125
-21.825 26.625 -0.675
-21.825 26.625 0.225
-22.425 26.625 1.275
-20.475 26.175 1.125
-19.425 25.125 3.675
-24.825 21.825 2.775
-20.475 20.775 0.225
-25.125 24.525 0.525
-21.075 26.475 0.525
-21.075 26.475 -0.675
-23.175 20.475 -0.075
-23.175 20.475 0.375
-23.175 20.475 0.675
-19.125 22.425 4.875
-21.675 26.625 -0.975
-21.675 26.625 -0.225
-21.675 26.625 0.975
-22.575 26.625 1.125
-19.875 25.725 -0.375
-19.875 25.725 -0.525
-19.875 25.725 -0.675
-19.875 25.725 0.225
-19.875 25.725 1.275
-19.875 25.725 -0.225
-19.875 21.225 0.975
-19.875 25.725 0.675
-19.875 25.725 0.825
-22.575 20.325 1.575
-20.025 25.875 0.525
-20.025 25.875 1.125
-20.025 25.875 0.825
-19.725 21.375 0.975
-19.725 21.375 1.125
-21.525 26.625 0.225
-21.525 26.625 0.375
-22.725 26.625 0.375
-22.725 20.325 1.275
-22.725 20.325 -4.125
-22.725 20.325 1.575
-21.525 20.325 0.525
-20.175 26.025 1.125
-20.175 26.025 0.675
-24.075 20.925 2.625
-20.175 20.925 1.125
-20.175 20.925 -0.375
-19.575 21.525 0.975
-20.625 26.325 1.875
-24.975 21.975 2.025
-23.325 20.475 -0.525
-20.925 26.475 0.075
-20.925 26.475 0.375
-20.925 26.475 -0.375
-20.925 20.475 -0.075
-20.925 20.475 -0.825
-21.375 20.325 -5.175
-21.375 20.325 0.225
-22.875 20.325 1.575
-22.875 20.325 1.875
-20.325 26.175 1.575
-20.325 26.175 1.125
-20.325 26.175 1.875
-19.425 21.675 0.675
-19.425 21.675 0.225
-19.425 21.675 0.975
-20.325 20.775 -1.125
-21.225 20.325 0.225
-21.225 20.325 2.175
-21.225 20.325 1.725
-21.225 20.325 2.475
-23.025 20.325 0.675
-23.025 20.325 0.225
-23.025 20.325 1.725
-23.025 20.325 0.975
-19.875 25.875 -0.375
-19.875 25.875 0.375
-19.875 25.875 0.525
-19.875 25.875 -0.225
-19.875 25.875 0.225
-19.725 21.225 1.125
-19.725 21.225 1.275
-19.725 21.225 0.975
-19.875 25.875 0.075
-20.775 20.475 -0.375
-20.775 20.475 -0.825
-20.775 20.475 -0.225
-20.775 20.475 0.375
-25.125 22.125 2.325
-23.475 26.475 0.975
-20.475 26.325 1.275
-19.275 21.825 0.675
-19.275 21.825 0.975
-22.125 26.775 -0.075
-19.575 21.375 0.825
-21.825 26.775 0.375
-21.075 26.625 0.975
-21.075 26.625 0.375
-23.175 26.625 1.275
-23.175 20.325 0.075
-23.175 20.325 1.425
-23.175 20.325 0.225
-20.175 26.175 1.425
-21.675 20.175 0.825
-21.675 20.175 1.275
-19.425 21.525 0.525
-19.425 21.525 4.575
-20.175 20.775 0.975
-20.175 20.775 0.825
-20.175 20.775 1.125
-20.175 20.775 1.425
-22.725 26.775 -0.075
-20.625 26.475 1.425
-20.625 20.475 -0.225
-21.525 20.175 -0.525
-21.525 20.175 1.125
-21.525 20.175 1.425
-20.925 26.625 0.975
-20.925 26.625 0.075
-20.925 26.625 0.825
-20.925 26.625 0.375
-20.325 26.325 1.275
-20.325 26.325 1.575
-20.325 26.325 0.975
-20.325 26.325 1.425
-25.275 22.275 2.325
-19.275 21.675 0.675
-20.325 20.625 -0.225
-20.925 20.325 0.375
-20.925 20.325 2.625
-20.925 20.325 0.225
-21.375 20.175 1.575
-21.375 20.175 1.125
-21.375 20.175 0.975
-22.875 20.175 1.725
-19.725 21.075 1.275
-19.725 21.075 1.575
-19.725 21.075 1.125
-19.875 26.025 1.275
-19.875 26.025 1.575
-19.575 21.225 1.125
-19.575 21.225 0.975
-19.575 21.225 1.575
-19.575 21.225 0.225
-21.225 26.775 -0.525
-21.225 26.775 0.375
-21.225 26.775 -0.675
-21.225 26.775 -0.825
-23.025 26.775 -0.825
-23.025 26.775 -0.525
-21.225 20.175 1.425
-21.225 20.175 0.525
-21.225 20.175 1.725
-23.025 20.175 1.575
-18.825 24.375 0.225
-20.025 26.175 0.975
-19.425 21.375 1.125
-20.025 26.175 0.525
-20.025 26.175 1.125
-25.425 22.575 1.725
-20.025 20.775 -0.825
-20.475 26.475 1.425
-20.475 26.475 -0.375
-20.475 26.475 1.275
-20.475 20.475 0.825
-20.475 20.475 0.225
-20.775 26.625 1.575
-20.775 26.625 -0.225
-20.775 26.625 0.675
-20.775 26.625 1.425
-20.775 20.325 0.375
-20.775 20.325 -0.225
-23.475 20.325 0.525
-20.175 26.325 1.575
-20.175 26.325 -0.375
-19.275 21.525 0.675
-21.075 26.775 1.575
-21.075 26.775 0.375
-21.825 26.925 -0.525
-22.575 26.925 -0.225
-20.625 26.625 1.275
-23.625 26.625 1.275
-20.625 20.325 0.375
-20.625 20.325 0.975
-19.725 26.025 -0.375
-19.725 26.025 0.225
-19.725 26.025 1.275
-19.725 26.025 0.825
-19.725 26.025 -0.525
-18.675 24.075 -1.575
-25.575 24.075 0.075
-21.525 26.925 -0.825
-19.725 20.925 1.275
-24.525 20.925 -1.275
-21.525 20.025 2.025
-20.925 26.775 1.425
-20.925 26.775 0.225
-20.925 26.775 0.825
-20.925 26.775 -0.375
-23.325 20.175 0.675
-23.325 20.175 0.225
-19.875 26.175 1.275
-19.875 26.175 0.375
-19.875 26.175 0.825
-19.875 26.175 0.525
-19.875 26.175 0.675
-19.425 21.225 0.975
-19.875 20.775 -1.125
-19.875 20.775 -0.075
-19.875 20.775 1.275
-19.875 20.775 0.975
-21.375 26.925 1.575
-20.025 26.325 0.375
-19.275 21.375 0.675
-19.275 21.375 0.825
-19.275 21.375 0.375
-20.025 20.625 -0.825
-20.475 26.625 1.275
-23.775 26.625 1.275
-20.475 20.325 0.375
-20.475 20.325 0.075
-20.775 26.775 2.925
-20.775 26.775 1.575
-21.225 26.925 0.375
-23.475 20.175 0.975
-21.225 20.025 -0.375
-20.175 26.475 0.225
-20.175 26.475 1.575
-20.175 20.475 -0.225
-20.175 26.475 3.225
-19.125 21.525 0.525
-21.975 27.075 -1.275
-18.525 23.625 -0.525
-22.275 19.875 6.225
-21.075 26.925 0.525
-21.075 26.925 1.275
-21.075 26.925 2.175
-21.075 26.925 0.225
-21.075 26.925 1.575
-25.575 22.425 1.575
-21.075 20.025 1.875
-23.175 20.025 0.675
-23.175 20.025 1.725
-22.425 27.075 5.775
-21.825 27.075 -0.825
-19.725 26.175 -0.675
-19.425 21.075 0.975
-19.725 20.775 1.275
-24.825 21.075 -0.375
-24.525 20.775 3.075
-22.425 19.875 2.325
-22.425 19.875 1.575
-25.725 23.175 0.675
-20.625 26.775 1.275
-20.625 26.775 0.975
-20.625 20.175 0.375
-23.625 20.175 -0.975
-21.675 27.075 1.875
-21.675 27.075 2.175
-20.325 26.625 -0.225
-20.325 26.625 0.225
-21.675 19.875 -0.675
-22.575 19.875 2.325
-22.575 19.875 2.175
-20.325 20.325 0.375
-19.875 26.325 0.975
-19.875 26.325 0.825
-19.875 20.625 1.275
-19.875 20.625 -0.525
-19.275 21.225 0.525
-19.275 21.225 0.375
-21.525 27.075 1.575
-21.525 19.875 1.275
-21.525 19.875 1.425
-21.525 19.875 2.025
-22.725 19.875 2.025
-20.925 26.925 0.975
-20.925 20.025 -0.525
-20.925 20.025 0.075
-23.325 20.025 1.575
-20.025 20.475 -0.675
-20.025 20.475 -2.025
-20.025 20.475 0.675
-24.225 20.475 -1.875
-21.375 27.075 0.225
-21.375 27.075 1.275
-22.875 19.875 1.725
-21.375 19.875 1.275
-21.375 19.875 -0.075
-21.375 19.875 1.125
-20.475 26.775 1.275
-20.475 26.775 1.125
-20.475 26.775 1.425
-20.475 20.175 0.825
-20.475 20.175 0.375
-20.475 20.175 0.975
-20.475 20.175 2.475
-20.475 20.175 0.525
-20.175 26.625 0.525
-18.675 24.825 2.625
-20.775 26.925 0.375
-20.775 26.925 -0.075
-20.775 20.025 0.375
-20.775 20.025 1.125
-20.775 20.025 0.825
-20.775 20.025 1.275
-23.475 20.025 0.525
-21.225 27.075 0.375
-21.225 27.075 0.825
-21.225 27.075 1.425
-23.025 27.075 2.475
-23.025 19.875 2.025
-23.025 19.875 1.575
-21.225 19.875 1.275
-21.225 19.875 0.375
-19.425 20.925 0.375
-19.425 20.925 1.275
-19.425 20.925 0.525
-19.575 20.775 1.275
-19.575 20.775 1.125
-19.725 26.325 -1.725
-19.725 26.325 0.675
-19.725 26.325 -0.375
-19.725 20.625 1.425
-19.275 21.075 0.375
-19.275 21.075 1.425
-19.275 21.075 0.525
-21.075 27.075 0.375
-21.075 27.075 0.825
-19.875 20.475 1.425
-19.875 20.475 1.275
-19.875 26.475 1.275
-19.875 26.475 0.825
-19.875 26.475 1.125
-19.875 26.475 1.875
-23.175 19.875 1.125
-21.075 19.875 -0.225
-21.975 27.225 1.125
-20.325 26.775 0.675
-20.325 20.175 0.375
-20.325 20.175 0.075
-20.625 26.925 0.075
-20.625 26.925 1.875
-21.825 27.225 2.175
-21.825 19.725 -0.375
-20.625 20.025 0.375
-20.625 20.025 1.875
-20.625 20.025 1.275
-23.625 20.025 -0.675
-21.675 27.225 1.875
-22.575 19.725 1.875
-22.575 19.725 1.725
-20.025 26.625 1.425
-20.025 26.625 0.825
-20.025 20.325 1.425
-20.025 20.325 1.275
-20.025 20.325 -0.375
-20.925 27.075 0.825
-23.325 27.075 0.825
-20.925 27.075 -0.075
-20.925 27.075 0.375
-20.925 27.075 0.975
-20.925 27.075 0.075
-23.325 19.875 0.975
-23.325 19.875 0.825
-23.325 19.875 1.575
-20.925 19.875 1.425
-21.525 27.225 0.975
-19.425 20.775 1.125
-19.425 20.775 0.225
-19.425 20.775 1.275
-19.425 20.775 -0.825
-19.425 20.775 0.525
-19.425 20.775 0.825
-20.475 26.925 1.425
-20.475 26.925 2.175
-20.475 26.925 -0.225
-23.775 26.925 1.125
-21.375 19.725 2.025
-21.375 19.725 1.725
-21.375 19.725 0.675
-21.375 19.725 -0.675
-21.375 19.725 1.275
-21.375 19.725 5.775
-19.275 20.925 0.225
-19.575 20.625 -0.825
-24.975 20.925 -0.225
-20.475 20.025 0.375
-20.175 26.775 1.125
-20.175 26.775 1.275
-20.175 26.775 1.425
-19.725 20.475 1.275
-19.725 26.475 0.675
-19.725 26.475 0.825
-19.125 21.075 0.225
-19.125 21.075 0.525
-19.125 21.075 0.675
-23.475 27.075 1.275
-20.775 27.075 -0.075
-20.775 27.075 1.425
-20.775 27.075 -0.375
-20.775 27.075 1.875
-20.775 27.075 0.075
-23.475 19.875 0.525
-21.225 27.225 1.575
-21.225 27.225 0.375
-23.025 19.725 1.575
-21.225 19.725 0.825
-21.225 19.725 1.575
-21.225 19.725 1.425
-19.875 26.625 1.275
-19.875 26.625 0.675
-19.875 20.325 2.025
-19.875 20.325 1.275
-19.875 20.325 1.425
-20.325 26.925 1.425
-20.325 20.025 1.425
-20.325 20.025 0.375
-20.325 20.025 0.525
-21.075 27.225 0.675
-21.075 27.225 -0.525
-21.075 27.225 0.375
-23.175 19.725 1.125
-23.175 19.725 1.575
-21.075 19.725 2.175
-20.625 27.075 1.575
-20.625 27.075 1.425
-20.625 19.875 1.575
-23.625 19.875 0.525
-22.275 27.375 2.175
-20.025 26.775 -0.825
-20.025 20.175 1.425
-20.025 20.175 1.125
-20.025 20.175 1.275
-22.425 19.575 2.175
-19.425 26.325 -1.575
-21.675 27.375 -0.525
-21.675 27.375 1.575
-19.425 20.625 0.375
-19.425 20.625 -0.375
-19.275 20.775 0.825
-20.925 19.725 1.425
-23.325 19.725 1.275
-20.925 19.725 1.725
-19.575 26.475 0.675
-19.575 26.475 0.825
-19.575 20.475 0.525
-21.525 19.575 1.575
-19.725 26.625 0.675
-19.725 26.625 0.225
-19.725 26.625 0.825
-19.725 26.625 1.125
-19.725 26.625 0.975
-20.475 19.875 0.375
-23.775 19.875 -2.175
-19.725 20.325 1.425
-19.725 20.325 1.575
-20.175 26.925 -1.575
-20.175 26.925 -0.225
-20.175 26.925 0.075
-20.175 26.925 1.575
-20.175 20.025 1.125
-20.175 20.025 1.275
-21.375 19.575 1.725
-22.875 19.575 2.325
-21.375 19.575 1.425
-20.775 19.725 -1.575
-23.475 27.225 -0.375
-20.775 27.225 1.575
-20.775 27.225 0.075
-20.775 27.225 1.725
-19.875 26.775 0.825
-19.875 26.775 1.125
-19.875 26.775 0.675
-24.375 20.175 3.225
-19.875 20.175 1.275
-21.225 27.375 0.375
-21.225 19.575 1.725
-20.325 19.875 0.825
-20.325 19.875 0.375
-20.325 19.875 0.975
-19.275 20.625 0.975
-19.425 20.475 0.225
-19.425 20.475 0.975
-19.125 20.775 0.075
-19.125 20.775 0.825
-21.075 27.375 -0.225
-21.075 27.375 0.225
-23.625 19.725 0.675
-20.625 19.725 0.225
-20.625 19.725 -0.075
-20.625 19.725 0.075
-20.625 27.225 -0.075
-20.625 27.225 -0.525
-20.625 27.225 -0.675
