# .PCD v0.7 - Point Cloud Data file format
VERSION 0.7
FIELDS x y z
SIZE 4 4 4
TYPE F F F
COUNT 1 1 1
WIDTH 2048
HEIGHT 1
VIEWPOINT 0 0 0 1 0 0 0
POINTS 2048
DATA ascii
-26.925 20.325 0.375
-26.925 20.025 1.125
-26.925 20.025 0.525
-26.775 20.175 -0.225
-26.775 20.175 0.525
-26.775 20.025 0.675
-26.925 19.875 1.725
-27.225 20.175 0.225
-27.225 20.175 0.525
-26.625 20.175 2.325
-26.925 20.475 2.775
-26.925 19.875 0.525
-26.925 19.875 0.225
-26.925 20.475 -0.375
-26.625 20.175 0.525
-26.925 19.875 0.675
-27.075 20.475 0.675
-27.075 19.875 0.525
-27.075 19.875 1.125
-26.625 20.325 0.675
-27.225 20.325 0.525
-27.225 20.325 1.275
-27.075 19.875 0.975
-27.075 19.875 0.225
-27.075 19.875 2.925
-26.625 20.325 2.775
-27.225 20.025 3.975
-26.775 20.475 -0.375
-27.225 20.025 -0.525
-27.225 20.025 0.675
-26.775 19.875 0.525
-27.225 20.025 -0.375
-26.775 20.475 1.275
-27.225 19.875 0.525
-27.225 19.875 -0.375
-27.225 19.875 1.275
-27.375 20.175 0.975
-26.925 19.725 1.125
-26.925 19.725 0.975
-27.375 20.175 0.825
-27.375 20.175 0.675
-26.925 20.625 -0.375
-27.375 20.325 0.975
-26.475 20.325 -0.075
-27.375 20.325 1.275
-27.075 19.725 2.025
-27.075 20.625 1.425
-27.075 19.725 2.325
-27.075 19.725 -0.375
-27.075 19.725 -0.525
-27.075 19.725 1.125
-27.075 20.625 1.275
-27.075 19.725 0.525
-26.475 20.325 0.675
-26.775 19.725 0.675
-26.775 19.725 0.975
-26.475 20.025 0.525
-27.375 20.025 1.725
-26.475 20.025 -0.675
-26.475 20.025 0.675
-26.775 19.725 2.025
-27.375 20.025 0.975
-27.375 20.025 0.525
-27.375 20.475 1.575
-27.375 19.875 0.975
-27.375 19.875 0.675
-27.225 19.725 1.275
-26.625 19.725 0.525
-26.625 19.725 0.225
-27.225 19.725 0.525
-27.225 20.625 1.725
-27.225 19.725 0.975
-27.225 19.725 1.575
-27.375 19.875 -0.375
-26.625 20.625 1.875
-27.525 20.175 0.975
-26.925 19.575 -0.525
-26.925 19.575 0.525
-26.325 20.175 -0.075
-26.925 19.575 -0.675
-26.925 19.575 -0.075
-27.525 20.325 0.525
-27.525 20.325 0.975
-27.525 20.325 -0.225
-27.075 20.775 -0.675
-27.525 20.025 -0.675
-26.775 20.775 1.125
-27.525 20.025 1.125
-27.525 20.025 1.575
-26.775 20.775 -0.675
-26.325 20.325 0.675
-26.775 19.575 -0.375
-26.775 19.575 0.525
-26.325 20.025 0.525
-26.325 20.025 0.225
-26.475 20.625 -0.375
-27.375 19.725 1.125
-26.475 20.625 1.875
-26.475 19.725 0.525
-27.375 19.725 0.675
-27.525 19.875 -0.375
-27.525 20.475 1.125
-27.525 20.475 1.725
-27.225 20.775 1.425
-27.525 19.875 2.775
-27.525 19.875 0.675
-27.525 19.875 0.525
-27.225 19.575 -0.675
-26.325 19.875 0.075
-26.325 19.875 -0.825
-26.625 19.575 0.525
-26.475 20.775 1.125
-27.375 20.775 1.275
-27.525 19.725 0.675
-26.475 20.775 1.425
-27.375 20.775 -0.525
-27.375 20.775 0.975
-27.375 20.775 0.525
-27.525 20.625 1.125
-27.375 20.775 -0.675
-27.525 19.725 1.275
-27.525 20.625 2.175
-27.525 19.725 -0.525
-27.525 19.725 -0.675
-26.925 19.425 -0.825
-27.675 20.175 0.975
-26.175 20.175 -0.825
-26.175 20.175 -0.225
-27.675 20.175 0.525
-26.925 19.425 -0.375
-26.925 19.425 -0.225
-26.475 19.575 1.125
-27.375 19.575 -0.225
-26.325 20.625 1.875
-26.325 19.725 -0.075
-26.475 19.575 0.975
-26.325 19.725 0.225
-26.475 19.575 0.525
-27.375 19.575 0.375
-26.475 19.575 0.675
-27.675 20.325 0.225
-27.675 20.325 0.525
-27.675 20.325 0.975
-27.075 19.425 0.375
-27.675 20.325 -0.375
-26.175 20.025 1.425
-26.775 20.925 2.325
-26.775 19.425 -0.375
-26.175 20.025 -0.675
-27.675 20.025 1.125
-27.675 20.475 0.975
-27.675 20.475 0.825
-26.625 19.425 0.375
-27.675 19.875 0.525
-27.225 20.925 -0.525
-27.225 19.425 -0.375
-26.625 20.925 1.125
-27.525 20.775 0.975
-27.525 20.775 0.675
-26.325 20.775 1.275
-26.325 19.575 0.525
-26.325 19.575 -0.375
-26.325 19.575 -0.225
-26.475 19.425 -0.375
-26.475 19.425 0.525
-26.175 19.725 0.525
-26.475 20.925 1.875
-26.475 20.925 0.375
-26.175 19.725 0.225
-27.675 20.625 1.875
-27.675 19.725 0.525
-26.175 19.725 -2.025
-26.175 20.625 2.475
-27.675 19.725 -1.425
-26.475 19.425 -0.825
-26.475 20.925 0.525
-27.675 19.725 2.175
-26.175 20.625 1.425
-26.925 21.075 1.575
-27.825 20.175 0.975
-27.825 20.175 0.525
-27.825 20.175 0.375
-26.925 19.275 -0.375
-27.075 21.075 -0.825
-27.825 20.025 1.125
-26.775 21.075 1.125
-27.825 20.025 1.575
-26.025 20.025 0.825
-26.775 19.275 0.525
-27.825 20.475 1.875
-27.225 21.075 0.525
-26.625 21.075 1.125
-27.825 19.875 0.075
-27.825 19.875 1.125
-26.025 19.875 0.375
-26.625 19.275 0.075
-27.225 19.275 0.375
-26.175 20.775 6.375
-27.675 20.775 1.875
-27.525 20.925 1.875
-27.675 20.775 0.975
-27.525 19.425 0.375
-27.675 20.775 0.825
-27.525 20.925 0.825
-27.675 20.775 2.475
-27.675 20.775 0.675
-26.325 20.925 1.275
-26.325 19.425 -0.525
-26.175 19.575 0.675
-26.175 19.575 -0.075
-26.325 20.925 1.425
-26.325 19.425 0.075
-27.825 20.625 1.875
-27.375 21.075 0.675
-27.825 19.725 0.375
-27.825 20.625 2.025
-26.475 21.075 1.125
-27.375 21.075 1.125
-26.475 21.075 1.425
-27.375 21.075 0.375
-27.375 21.075 -0.525
-26.475 19.275 0.375
-26.475 19.275 0.075
-26.025 19.725 0.525
-26.025 19.725 1.725
-26.025 20.625 1.275
-27.975 20.175 0.675
-26.925 21.225 1.125
-27.975 20.175 0.225
-26.175 20.925 1.425
-26.175 19.425 -0.375
-27.675 19.425 0.375
-27.675 20.925 -0.075
-26.175 20.925 1.575
-27.675 20.925 0.825
-26.175 20.925 1.275
-27.675 20.925 0.675
-26.175 20.925 0.975
-27.675 19.425 -0.375
-27.075 21.225 1.725
-27.075 21.225 1.575
-27.975 20.325 1.875
-27.075 21.225 1.275
-26.775 19.125 -0.225
-26.775 21.225 -3.525
-26.775 19.125 -0.675
-27.825 20.775 0.375
-27.525 21.075 1.125
-27.825 20.775 -0.075
-27.825 19.575 2.175
-27.825 19.575 -1.575
-27.825 19.575 -0.075
-27.825 19.575 -0.525
-26.325 21.075 1.425
-27.525 19.275 1.425
-26.025 19.575 0.675
-26.625 21.225 2.025
-27.225 21.225 1.425
-26.625 21.225 1.275
-26.625 21.225 0.675
-27.225 19.125 3.075
-27.225 21.225 1.125
-26.625 21.225 0.825
-27.975 19.875 -0.075
-26.625 21.225 0.975
-27.975 19.875 -0.525
-26.475 19.125 0.675
-25.875 19.725 0.075
-26.475 21.225 1.425
-27.375 21.225 1.575
-27.975 20.625 -0.375
-25.875 19.725 1.725
-27.975 19.725 -0.075
-27.825 19.425 -0.375
-26.175 21.075 1.575
-27.675 21.075 1.725
-27.825 20.925 0.525
-27.825 20.925 0.075
-27.825 20.925 0.825
-26.175 19.275 0.525
-26.025 19.425 1.125
-26.025 19.425 0.975
-26.025 19.425 0.675
-26.175 19.275 0.675
-25.725 20.175 2.025
-28.125 20.175 0.675
-26.925 18.975 -0.525
-27.075 21.375 1.575
-27.075 21.375 1.425
-25.725 20.325 1.275
-28.125 20.325 0.375
-27.075 18.975 2.175
-28.125 20.325 0.675
-27.075 18.975 1.725
-28.125 20.025 1.275
-28.125 20.025 -0.375
-28.125 20.025 -0.225
-26.775 18.975 1.125
-26.775 18.975 0.825
-27.525 21.225 0.675
-27.525 21.225 0.525
-26.775 21.375 0.675
-27.525 21.225 1.275
-25.875 20.775 1.425
-26.775 21.375 2.325
-26.775 21.375 1.425
-26.775 21.375 1.125
-28.125 20.025 0.825
-28.125 20.025 0.675
-28.125 20.025 1.125
-27.975 20.775 -0.675
-27.975 19.575 0.525
-27.975 19.575 0.375
-25.875 19.575 -0.525
-26.325 21.225 0.825
-26.325 21.225 1.425
-26.325 21.225 0.975
-25.875 19.575 0.525
-25.875 19.575 -0.825
-27.975 19.575 -0.375
-27.225 21.375 0.525
-28.125 20.475 1.725
-28.125 19.875 1.725
-26.625 21.375 0.825
-26.625 18.975 2.025
-27.825 21.075 0.225
-27.825 19.275 0.075
-26.025 21.075 1.725
-26.025 19.275 1.125
-26.025 19.275 0.525
-26.025 19.275 -1.125
-26.025 19.275 0.375
-27.375 18.975 0.225
-26.475 18.975 -0.225
-28.125 19.725 -0.075
-25.725 19.725 0.525
-28.125 20.625 -0.375
-25.725 19.725 -0.675
-26.475 18.975 1.425
-26.475 21.375 1.425
-27.375 21.375 1.125
-27.375 21.375 1.575
-27.375 21.375 1.425
-27.375 21.375 -0.075
-27.375 18.975 0.075
-26.475 21.375 0.675
-28.125 19.725 -0.525
-25.725 19.725 2.475
-27.675 21.225 0.675
-25.875 19.425 0.525
-26.175 19.125 0.525
-25.875 19.425 0.225
-25.875 19.425 1.125
-27.525 21.375 -0.225
-27.525 18.975 0.675
-27.525 18.975 -0.675
-25.725 20.775 2.925
-26.325 18.975 0.825
-25.725 19.575 1.425
-25.725 19.575 0.525
-25.725 19.575 -0.225
-25.725 19.575 -0.825
-26.325 21.375 0.825
-26.325 21.375 1.125
-28.125 19.575 -0.225
-26.925 21.525 0.675
-26.925 21.525 0.375
-28.275 20.175 0.975
-28.275 20.175 0.675
-26.925 21.525 0.975
-26.925 21.525 1.125
-26.925 21.525 1.425
-26.925 18.825 0.975
-26.925 18.825 -0.675
-27.075 21.525 0.375
-27.075 21.525 1.125
-26.775 21.525 1.125
-26.775 21.525 0.675
-28.275 20.025 0.675
-28.275 20.025 0.525
-25.575 20.325 0.975
-28.275 19.875 0.225
-28.275 19.875 0.375
-28.275 19.875 -0.375
-27.975 21.075 0.375
-27.825 21.225 0.825
-27.825 21.225 1.725
-27.825 21.225 1.425
-27.825 21.225 1.575
-25.575 20.475 1.275
-27.225 18.825 0.375
-27.225 18.825 2.475
-25.575 19.875 0.525
-27.225 18.825 2.925
-27.975 19.275 -0.075
-25.875 19.275 0.675
-26.025 19.125 -0.675
-27.975 19.275 0.075
-25.725 19.425 2.325
-25.725 20.925 1.725
-27.675 21.375 1.575
-26.175 21.375 1.425
-26.175 21.375 0.825
-28.125 20.925 1.575
-25.725 19.425 1.125
-27.675 18.975 1.575
-26.175 21.375 0.525
-26.175 18.975 -0.225
-26.175 21.375 1.725
-27.675 21.375 0.525
-26.475 21.525 0.675
-28.275 19.725 -0.225
-28.275 19.725 -0.075
-26.475 21.525 0.975
-26.475 21.525 0.375
-25.575 19.725 -0.675
-25.575 19.725 -0.075
-26.475 18.825 1.875
-26.475 18.825 -0.825
-26.475 18.825 -1.125
-26.475 18.825 -0.225
-28.275 20.775 1.425
-28.275 20.775 0.375
-27.525 21.525 0.375
-28.275 19.575 -1.125
-26.325 21.525 0.225
-26.325 21.525 0.675
-27.975 21.225 1.575
-27.975 19.125 0.825
-28.125 21.075 0.975
-27.825 21.375 1.875
-27.825 21.375 1.725
-28.425 20.175 -0.225
-28.425 20.175 1.125
-25.425 20.175 1.575
-28.425 20.175 -0.075
-25.425 20.175 0.225
-28.425 20.175 -0.525
-26.025 21.375 1.275
-27.075 21.675 0.675
-27.075 18.675 1.725
-25.425 20.325 0.975
-25.425 20.325 1.725
-27.075 18.675 2.175
-27.075 18.675 2.925
-28.425 20.025 0.225
-28.425 20.025 0.525
-26.775 21.675 0.975
-26.625 21.675 0.825
-28.425 20.475 -0.525
-25.425 19.875 0.525
-28.425 19.875 -0.525
-26.625 18.675 0.675
-27.225 21.675 0.525
-27.225 21.675 0.675
-27.225 21.675 1.125
-27.225 21.675 0.975
-28.425 20.475 0.075
-27.675 21.525 0.375
-27.675 21.525 1.425
-26.175 21.525 0.675
-28.275 20.925 0.675
-26.175 21.525 0.525
-28.275 20.925 1.425
-26.175 21.525 -0.375
-26.175 21.525 0.075
-25.575 19.425 1.875
-27.675 18.825 -0.825
-26.475 18.675 -2.775
-26.475 21.675 0.225
-27.375 18.675 2.325
-28.425 19.725 -3.975
-28.425 19.725 -0.825
-28.425 19.725 0.075
-26.475 18.675 2.175
-27.375 21.675 1.425
-27.375 21.675 0.225
-27.375 21.675 1.725
-27.375 21.675 0.825
-26.475 21.675 0.675
-27.975 18.975 1.875
-25.875 21.375 0.375
-27.975 21.375 0.225
-27.975 21.375 1.725
-27.975 21.375 1.275
-27.975 18.975 1.725
-27.525 21.675 0.675
-27.525 21.675 1.275
-28.425 20.775 0.525
-26.325 18.675 2.025
-26.325 18.675 0.825
-26.325 18.675 -0.375
-26.325 21.675 0.225
-26.325 21.675 0.675
-28.275 21.075 0.075
-28.275 21.075 0.675
-27.825 21.525 0.975
-27.825 21.525 0.225
-27.825 21.525 -1.425
-27.825 21.525 2.175
-27.825 21.525 1.875
-28.275 19.275 2.175
-25.575 21.075 -0.225
-25.575 21.075 0.075
-27.825 18.825 1.725
-26.025 18.825 -0.225
-25.575 19.275 2.625
-28.575 20.175 -0.375
-26.925 21.825 0.825
-26.925 18.525 1.575
-25.275 20.175 1.725
-28.575 20.325 -0.525
-28.575 20.325 0.825
-28.575 20.025 1.425
-28.575 20.025 1.575
-28.575 20.025 -0.675
-28.575 20.025 0.525
-25.275 20.325 1.725
-28.575 20.475 2.025
-28.575 20.475 1.125
-28.575 19.875 0.525
-28.575 19.875 1.275
-27.225 21.825 0.675
-25.425 19.425 -0.975
-26.175 18.675 2.175
-25.425 19.425 0.675
-27.675 21.675 1.725
-27.675 21.675 1.125
-26.175 21.675 0.675
-27.675 21.675 0.675
-27.675 18.675 1.425
-28.425 20.925 0.525
-25.275 20.475 1.575
-25.275 20.475 1.275
-27.225 18.525 1.575
-25.275 19.875 -1.125
-26.625 18.525 1.575
-25.275 19.875 0.525
-28.125 21.375 1.575
-28.125 21.375 -0.075
-28.125 21.375 1.275
-28.125 21.375 1.875
-28.575 20.625 0.525
-28.575 19.725 -0.825
-28.575 19.725 0.675
-27.375 21.825 0.375
-28.575 20.625 2.175
-28.575 20.625 1.575
-28.575 20.625 -0.375
-28.575 20.625 -0.675
-28.275 21.225 1.425
-25.875 21.525 0.525
-27.975 21.525 1.875
-25.875 18.825 -0.225
-25.575 19.125 -0.225
-25.575 19.125 -0.525
-25.275 20.625 0.525
-27.375 18.525 1.575
-26.475 18.525 1.875
-26.475 18.525 2.025
-26.475 18.525 0.975
-27.825 21.675 1.425
-25.425 21.075 1.725
-25.425 21.075 1.425
-27.825 21.675 0.675
-27.825 21.675 0.975
-25.425 19.275 0.675
-26.025 21.675 0.375
-25.425 19.275 -0.375
-28.575 20.775 0.975
-27.525 21.825 1.425
-27.525 21.825 0.825
-28.575 20.775 -0.825
-26.325 21.825 0.375
-27.525 18.525 2.475
-27.525 18.525 1.725
-25.275 19.575 -1.125
-25.275 19.575 -0.375
-26.325 18.525 1.425
-25.275 19.575 -0.525
-26.925 18.375 1.425
-28.725 20.175 0.975
-26.925 18.375 -0.975
-28.275 18.975 2.325
-28.275 18.975 0.825
-28.275 21.375 1.575
-28.275 21.375 -0.075
-28.125 21.525 1.425
-25.725 18.825 2.325
-25.575 18.975 -0.075
-25.575 18.975 0.975
-25.575 18.975 -0.225
-28.725 20.325 0.975
-28.725 20.325 0.675
-27.075 21.975 0.675
-28.725 20.325 -0.225
-28.125 18.825 2.025
-26.775 18.375 0.225
-26.775 18.375 1.575
-26.175 21.825 0.675
-26.175 21.825 1.425
-28.575 19.425 -0.075
-27.675 21.825 0.825
-27.675 21.825 1.725
-27.675 21.825 0.675
-25.275 19.425 0.675
-25.275 20.925 0.675
-27.225 21.975 0.825
-27.225 21.975 1.125
-25.125 20.475 0.825
-27.225 18.375 1.725
-27.225 18.375 1.575
-28.725 20.475 1.275
-26.625 18.375 1.725
-25.125 20.475 1.575
-26.625 18.375 0.075
-28.725 19.875 0.375
-25.875 18.675 -0.825
-25.425 21.225 1.275
-27.975 21.675 0.975
-27.975 21.675 0.675
-25.425 19.125 -1.125
-25.425 19.125 2.475
-25.425 19.125 -0.375
-25.425 19.125 -0.525
-25.875 21.675 0.675
-27.975 18.675 2.625
-25.125 20.625 1.425
-27.375 21.975 0.675
-27.375 18.375 1.875
-28.725 20.625 0.525
-25.125 19.725 2.175
-26.475 18.375 1.725
-26.475 18.375 -0.675
-28.725 19.725 0.525
-27.825 21.825 1.875
-27.825 21.825 1.275
-28.575 21.075 0.225
-28.575 21.075 0.675
-26.025 21.825 0.975
-26.025 21.825 0.075
-26.025 21.825 -0.075
-28.575 19.275 2.175
-28.575 19.275 -0.075
-25.275 21.075 1.575
-25.275 21.075 1.425
-25.275 21.075 0.975
-27.825 18.525 1.275
-26.025 18.525 1.125
-25.275 19.275 1.125
-25.275 19.275 0.675
-25.275 19.275 0.375
-28.725 20.775 1.125
-25.125 20.775 1.425
-28.725 20.775 1.425
-25.125 20.775 2.025
-27.525 18.375 2.175
-28.725 19.575 -0.675
-25.125 19.575 -0.375
-26.325 18.375 0.225
-28.275 21.525 1.275
-28.275 18.825 1.125
-25.575 18.825 0.525
-25.575 18.825 -0.675
-25.575 18.825 1.125
-25.725 18.675 0.975
-25.725 18.675 0.525
-28.425 21.375 1.425
-25.425 21.375 0.525
-25.425 21.375 1.875
-28.125 21.675 1.875
-28.125 21.675 0.975
-25.425 18.975 0.225
-25.425 18.975 0.525
-25.425 18.975 -0.075
-25.725 21.675 0.825
-24.975 20.175 1.125
-28.875 20.175 -0.225
-28.875 20.175 -0.075
-28.725 20.925 0.825
-27.675 21.975 0.675
-26.175 21.975 1.125
-25.125 19.425 -1.875
-26.175 18.375 0.375
-25.125 19.425 0.525
-25.125 19.425 1.125
-26.175 21.975 1.575
-27.675 18.375 1.575
-25.125 20.925 1.575
-26.175 18.375 0.525
-26.175 18.375 -0.075
-26.175 18.375 2.625
-28.725 19.425 1.425
-28.725 19.425 2.625
-27.075 22.125 0.675
-27.975 21.825 1.575
-27.975 21.825 0.825
-27.075 18.225 1.425
-27.075 18.225 1.275
-27.075 18.225 1.875
-28.575 21.225 0.525
-28.575 21.225 0.825
-28.575 21.225 1.575
-27.075 18.225 -0.375
-28.575 21.225 0.975
-28.875 20.025 -0.375
-24.975 20.025 0.075
-28.875 20.025 -0.825
-28.875 20.025 -0.225
-25.275 19.125 2.925
-25.275 19.125 -0.375
-27.975 18.525 0.975
-25.275 21.225 1.575
-25.875 18.525 1.875
-24.975 19.875 2.475
-27.225 22.125 0.975
-28.875 19.875 -0.225
-27.225 22.125 0.525
-24.975 20.475 1.725
-27.225 22.125 1.125
-24.975 20.475 1.275
-28.875 20.475 0.525
-28.875 20.475 0.075
-24.975 19.725 1.125
-24.975 19.725 2.475
-27.375 22.125 0.675
-24.975 20.625 1.275
-24.975 20.625 2.475
-28.875 19.725 -0.075
-28.875 19.725 0.525
-28.875 20.625 0.975
-26.475 18.225 0.975
-25.125 21.075 0.825
-28.725 21.075 1.275
-27.825 18.375 2.025
-28.725 21.075 1.125
-27.825 18.375 0.525
-26.025 18.375 1.425
-26.025 18.375 2.625
-26.025 21.975 0.675
-26.025 21.975 1.425
-26.025 18.375 2.025
-28.725 19.275 1.725
-28.725 19.275 0.525
-28.275 21.675 1.125
-25.425 21.525 0.675
-28.425 21.525 1.575
-28.275 18.675 1.125
-25.725 21.825 0.825
-28.575 21.375 0.975
-28.575 18.975 -0.075
-28.125 21.825 1.125
-28.125 21.825 0.975
-28.125 21.825 2.025
-24.975 19.575 0.525
-26.325 22.125 0.675
-28.875 19.575 -0.225
-25.275 18.975 -0.375
-25.275 18.975 0.525
-25.275 21.375 0.825
-28.125 18.525 1.125
-28.125 18.525 0.825
-27.975 18.375 1.575
-28.725 21.225 0.825
-25.875 21.975 0.525
-28.725 21.225 1.125
-28.725 21.225 0.525
-28.725 21.225 1.275
-25.125 21.225 1.425
-27.975 18.375 1.275
-27.975 18.375 1.875
-28.725 21.225 0.675
-28.725 19.125 2.175
-25.125 19.125 1.725
-28.725 19.125 1.725
-24.975 19.425 -0.525
-24.975 19.425 0.075
-24.975 19.425 -0.825
-28.875 20.925 0.825
-24.975 20.925 2.175
-28.875 20.925 0.675
-28.875 20.925 1.125
-28.875 20.925 0.525
-27.675 18.225 0.825
-27.675 18.225 1.275
-26.925 22.275 0.375
-29.025 20.175 1.725
-26.925 18.075 1.425
-27.075 22.275 0.825
-29.025 20.325 -0.225
-24.825 20.325 1.125
-27.075 18.075 1.275
-26.775 18.075 1.275
-26.625 22.275 0.975
-27.225 22.275 4.125
-29.025 19.875 -0.225
-29.025 20.475 1.725
-29.025 20.475 1.125
-29.025 20.475 1.275
-29.025 20.475 0.675
-28.425 21.675 0.975
-25.425 18.675 1.875
-25.425 21.675 0.675
-25.425 21.675 -1.425
-24.825 19.875 -0.675
-26.625 18.075 1.275
-24.825 20.475 1.875
-28.275 21.825 0.525
-28.275 21.825 2.025
-28.575 21.525 1.575
-28.575 21.525 0.975
-28.575 21.525 -0.525
-25.575 21.825 2.175
-28.575 18.825 1.275
-25.275 18.825 0.675
-25.275 18.825 -0.075
-24.975 21.075 1.425
-27.825 18.225 2.325
-27.825 22.125 0.975
-27.825 22.125 1.725
-28.875 21.075 0.375
-24.975 19.275 -1.875
-26.025 22.125 1.275
-26.025 18.225 1.425
-26.025 18.225 2.025
-26.025 18.225 -0.675
-28.875 19.275 4.275
-28.875 19.275 1.725
-24.825 20.625 2.175
-26.475 18.075 1.425
-24.825 20.625 1.875
-24.825 19.725 -1.275
-25.725 18.375 0.825
-28.125 18.375 1.875
-28.125 18.375 1.575
-25.725 21.975 1.575
-28.725 21.375 1.575
-25.725 18.375 2.175
-25.125 18.975 -0.375
-28.725 18.975 1.575
-27.525 22.275 0.675
-29.025 20.775 1.425
-29.025 20.775 2.625
-29.025 19.575 1.575
-27.525 18.075 1.875
-27.525 18.075 1.575
-27.525 18.075 0.825
-26.325 18.075 1.725
-26.325 18.075 -0.375
-26.325 18.075 1.875
-26.325 18.075 1.575
-26.325 18.075 0.225
-27.975 22.125 1.725
-25.875 22.125 1.275
-24.975 19.125 -1.125
-24.975 19.125 -0.975
-25.875 22.125 0.975
-25.875 18.225 0.675
-27.675 22.275 1.425
-27.675 22.275 0.825
-29.025 20.925 1.275
-29.025 19.425 2.325
-29.025 19.425 0.075
-28.425 21.825 0.825
-28.575 21.675 0.825
-28.575 21.675 1.425
-28.425 21.825 1.125
-28.575 18.675 0.825
-28.575 18.675 1.425
-28.575 18.675 1.275
-28.425 21.825 0.225
-25.425 21.825 1.575
-24.825 20.925 0.975
-24.825 19.425 1.125
-26.175 18.075 1.725
-24.825 19.425 -0.675
-27.675 18.075 1.275
-25.275 21.675 0.675
-25.275 18.675 -0.525
-28.425 18.525 0.825
-28.425 18.525 0.675
-25.275 18.675 -0.375
-25.425 18.525 2.475
-28.275 21.975 1.875
-28.275 21.975 0.375
-28.725 21.525 1.275
-25.125 21.525 0.675
-28.725 21.525 0.975
-28.275 21.975 0.825
-28.725 21.525 0.825
-28.275 21.975 0.975
-29.175 20.175 -0.525
-25.575 18.375 0.825
-25.125 18.825 -0.075
-25.125 18.825 -0.375
-25.575 21.975 0.525
-25.575 21.975 0.675
-28.725 18.825 1.425
-28.725 18.825 1.875
-29.175 20.325 0.375
-29.175 20.325 -0.375
-29.175 20.325 0.675
-27.075 17.925 0.675
-27.075 22.425 0.375
-26.775 17.925 0.825
-26.775 17.925 0.525
-26.775 17.925 0.075
-29.175 20.025 2.325
-27.225 17.925 0.375
-27.225 17.925 0.675
-29.175 20.475 0.375
-29.175 20.475 0.675
-26.625 17.925 1.875
-26.625 17.925 1.275
-27.225 22.425 0.375
-27.825 22.275 0.675
-27.825 22.275 0.225
-26.025 22.275 1.725
-27.825 18.075 0.825
-24.825 21.075 1.575
-24.825 21.075 -1.575
-26.025 18.075 1.575
-26.025 18.075 1.425
-28.875 21.375 0.975
-25.725 18.225 1.425
-28.875 21.375 1.575
-28.875 21.375 0.525
-28.875 21.375 0.825
-28.875 21.375 -0.525
-25.725 18.225 -0.075
-25.725 18.225 -1.425
-24.975 21.375 1.575
-28.125 18.225 1.875
-24.975 18.975 -0.375
-28.125 22.125 2.625
-28.125 22.125 1.725
-25.725 22.125 0.825
-25.725 22.125 0.975
-27.375 17.925 2.325
-24.675 20.625 1.275
-26.475 17.925 1.575
-29.175 20.625 0.675
-26.475 17.925 0.975
-27.375 17.925 0.525
-24.675 20.625 0.825
-29.175 20.625 -0.225
-24.675 19.725 0.075
-24.675 19.725 0.825
-24.675 19.725 2.325
-24.675 20.775 1.275
-24.675 20.775 1.575
-24.675 20.775 0.825
-27.525 17.925 0.225
-27.525 22.425 1.125
-29.175 20.775 0.675
-26.325 17.925 1.575
-26.325 22.425 0.825
-28.575 21.825 0.825
-28.575 21.825 0.975
-28.575 18.525 0.975
-25.275 18.525 -0.525
-25.275 18.525 2.475
-28.425 21.975 2.325
-28.425 21.975 0.675
-28.425 21.975 0.825
-25.425 18.375 -0.525
-28.725 21.675 0.975
-28.425 18.375 0.975
-28.425 18.375 0.825
-25.425 18.375 2.175
-25.125 18.675 -0.525
-28.725 18.675 1.275
-28.725 18.675 2.025
-28.425 21.975 1.725
-25.875 22.275 1.125
-29.025 19.125 1.575
-29.025 19.125 2.175
-27.975 22.275 1.275
-27.975 22.275 0.825
-29.025 21.225 0.825
-27.975 18.075 0.825
-24.825 21.225 1.875
-25.875 18.075 1.725
-28.875 21.525 0.675
-28.875 21.525 0.975
-28.275 22.125 1.575
-29.175 20.925 1.575
-27.675 17.925 1.125
-24.675 19.425 -0.675
-29.175 20.925 -0.225
-25.575 18.225 -0.075
-24.975 18.825 -0.225
-25.575 22.125 1.125
-29.325 20.175 -1.125
-29.325 20.325 1.125
-29.325 20.325 0.675
-29.325 20.025 2.175
-29.325 20.025 -1.275
-27.075 17.775 0.375
-24.525 20.325 0.975
-26.775 17.775 0.525
-29.025 18.975 1.425
-28.125 22.275 1.575
-28.125 22.275 1.125
-28.125 22.275 0.975
-29.025 21.375 1.575
-24.825 18.975 -0.375
-24.825 18.975 2.025
-25.725 18.075 1.875
-25.725 18.075 -0.075
-27.225 17.775 0.375
-26.625 17.775 1.425
-26.625 17.775 0.675
-24.675 21.075 0.525
-24.675 21.075 1.575
-29.175 21.075 -0.375
-27.825 17.925 -0.225
-27.825 17.925 0.825
-27.825 17.925 0.675
-27.825 17.925 1.125
-29.175 19.275 2.475
-26.025 17.925 2.025
-24.675 19.275 0.675
-24.675 19.275 0.225
-26.025 22.425 0.675
-28.725 21.825 1.275
-28.575 21.975 2.025
-28.725 21.825 1.125
-28.725 21.825 2.025
-25.125 21.825 0.825
-25.125 21.825 0.975
-28.725 18.525 0.975
-25.125 18.525 -0.375
-25.275 18.375 -0.975
-26.475 17.775 1.275
-27.375 17.775 0.825
-24.525 20.625 1.575
-24.525 20.625 0.525
-28.875 21.675 2.025
-28.875 21.675 1.275
-28.875 21.675 0.975
-28.425 18.225 1.275
-28.425 18.225 1.875
-28.425 18.225 0.375
-28.425 18.225 0.675
-24.975 18.675 -0.375
-24.975 18.675 -0.525
-25.425 22.125 0.975
-28.875 18.675 0.375
-28.875 18.675 0.975
-28.875 18.675 -1.275
-29.325 20.775 0.675
-26.325 22.575 0.825
-27.525 17.775 0.975
-26.325 17.775 1.725
-24.525 19.575 0.825
-26.325 17.775 2.175
-29.175 19.125 1.725
-24.675 19.125 0.675
-24.675 19.125 0.375
-24.675 21.225 2.025
-29.175 21.225 1.725
-29.175 21.225 2.175
-29.175 21.225 0.975
-27.975 22.425 0.525
-25.875 22.425 1.725
-25.875 17.925 1.425
-25.875 17.925 -0.075
-28.275 22.275 0.975
-25.575 22.275 1.725
-29.025 18.825 1.275
-24.825 21.525 0.675
-24.825 18.825 1.125
-24.825 18.825 0.975
-25.575 18.075 -0.225
-25.575 18.075 -0.675
-29.325 20.925 3.825
-27.675 17.775 0.375
-26.175 17.775 1.725
-26.175 17.775 1.125
-27.675 17.775 0.975
-24.525 19.425 -0.675
-24.525 19.425 -0.525
-24.525 19.425 -0.375
-28.725 21.975 0.825
-28.725 21.975 1.725
-28.725 18.375 0.525
-29.175 18.975 1.425
-25.725 17.925 0.375
-25.725 17.925 -0.075
-24.675 21.375 2.025
-28.125 22.425 0.825
-28.125 22.425 0.675
-26.925 17.625 -0.075
-29.475 20.175 0.375
-29.475 20.175 0.525
-29.475 20.175 -0.375
-28.575 22.125 1.425
-28.575 22.125 2.025
-28.875 21.825 0.675
-28.875 21.825 -0.075
-28.575 18.225 0.525
-28.575 18.225 1.575
-24.975 18.525 -0.825
-24.975 18.525 0.525
-24.975 18.525 -0.075
-29.475 20.325 -0.375
-24.375 20.325 0.525
-27.075 17.625 0.225
-24.375 20.325 0.225
-25.275 18.225 -0.225
-25.275 18.225 -0.075
-26.775 17.625 1.275
-24.375 20.025 4.125
-29.475 20.025 2.775
-27.825 22.575 0.375
-29.325 21.075 2.325
-29.325 19.275 1.875
-24.525 21.075 0.375
-24.525 21.075 1.125
-27.825 17.775 0.525
-26.025 17.775 0.525
-26.025 17.775 1.725
-24.525 19.275 0.525
-24.525 19.275 1.125
-24.525 19.275 -5.025
-24.525 19.275 0.675
-29.475 19.875 -0.525
-26.625 17.625 1.125
-26.625 17.625 0.525
-27.225 17.625 1.275
-29.475 20.475 -2.025
-29.025 18.675 1.275
-29.025 18.675 0.825
-29.025 18.675 1.575
-29.025 18.675 1.125
-29.025 21.675 0.975
-29.025 21.675 1.275
-29.025 21.675 1.125
-24.825 21.675 1.725
-28.425 18.075 0.525
-28.425 18.075 1.575
-25.425 18.075 1.575
-25.425 18.075 -1.125
-24.825 18.675 1.275
-24.825 18.675 -1.125
-24.825 18.675 0.525
-24.825 18.675 0.675
-24.375 19.725 -0.225
-24.375 19.725 0.675
-24.375 19.725 0.825
-24.375 20.625 0.225
-29.475 20.625 -0.225
-27.375 22.725 1.125
-29.325 21.225 1.575
-29.325 21.225 2.025
-29.325 21.225 0.675
-29.475 20.775 1.725
-24.375 20.775 1.275
-24.375 20.775 1.425
-27.525 17.625 0.825
-26.325 17.625 0.225
-24.525 21.225 0.675
-24.525 19.125 1.125
-24.525 19.125 0.675
-24.525 19.125 -2.925
-27.975 17.775 0.675
-25.875 17.775 1.425
-25.875 17.775 -0.675
-24.675 21.525 0.825
-29.175 21.525 1.575
-28.275 17.925 0.525
-28.275 17.925 0.825
-28.275 17.925 1.725
-28.275 22.425 0.825
-24.675 18.825 0.225
-24.675 18.825 0.525
-24.675 18.825 1.875
-24.675 18.825 -0.225
-29.175 18.825 1.275
-25.575 17.925 0.075
-25.575 17.925 -0.375
-28.875 18.375 2.325
-28.875 21.975 1.125
-28.725 18.225 2.175
-25.125 18.225 0.075
-24.975 21.975 0.825
-24.375 19.425 0.525
-26.175 17.625 1.725
-26.175 17.625 1.575
-27.675 17.625 0.975
-27.675 17.625 1.575
-24.375 20.925 0.975
-29.475 20.925 1.275
-29.475 20.925 0.225
-29.475 20.925 1.575
-29.025 21.825 0.975
-29.025 21.825 0.675
-29.025 18.525 2.175
-29.025 18.525 1.275
-28.575 18.075 1.575
-28.575 18.075 1.275
-25.275 18.075 1.725
-24.825 18.525 -0.825
-24.825 18.525 -0.225
-29.325 18.975 1.275
-29.325 21.375 1.575
-25.725 17.775 1.425
-28.125 17.775 0.375
-28.125 17.775 0.525
-26.925 17.475 1.125
-29.625 20.175 0.525
-26.925 17.475 0.825
-26.925 17.475 0.375
-29.625 20.175 0.225
-24.225 20.325 0.225
-24.225 20.325 0.825
-24.225 20.325 0.075
-29.625 20.325 0.975
-29.625 20.325 0.525
-27.075 17.475 0.975
-27.075 17.475 1.125
-27.075 17.475 0.225
-26.775 17.475 0.525
-26.775 17.475 1.275
-26.775 17.475 1.425
-26.775 17.475 0.825
-26.775 17.475 1.125
-26.775 17.475 0.675
-29.625 20.025 -0.525
-29.625 20.025 0.375
-29.625 20.025 0.525
-24.675 21.675 0.975
-24.675 18.675 0.675
-24.675 18.675 -0.825
-29.175 21.675 1.875
-29.175 21.675 0.975
-29.175 21.675 1.125
-25.425 17.925 -0.225
-28.425 17.925 1.275
-29.175 18.675 0.525
-28.425 17.925 0.525
-28.425 22.425 0.975
-28.425 22.425 0.825
-24.375 21.075 1.125
-29.475 21.075 2.325
-27.825 17.625 0.375
-29.475 19.275 1.425
-29.475 19.275 1.575
-29.625 19.875 -0.525
-24.225 20.475 0.825
-24.225 20.475 0.375
-26.625 17.475 1.425
-26.625 17.475 1.125
-27.225 17.475 1.125
-27.225 17.475 2.475
-24.225 20.625 0.525
-29.625 19.725 -0.675
-24.225 20.625 0.825
-24.225 19.725 0.675
-26.475 17.475 0.675
-26.475 17.475 1.725
-27.375 17.475 0.975
-27.375 17.475 1.275
-27.375 17.475 0.675
-27.375 17.475 0.525
-29.325 21.525 1.725
-28.275 22.575 -0.075
-29.325 18.825 1.125
-28.275 17.775 1.725
-28.275 17.775 0.825
-24.525 18.825 -0.225
-24.525 18.825 -1.425
-24.525 18.825 0.225
-25.575 17.775 1.125
-28.875 18.225 0.075
-24.375 19.125 1.425
-25.875 17.625 2.025
-25.875 17.625 1.425
-24.375 21.225 1.125
-29.475 19.125 1.575
-29.475 19.125 1.725
-29.475 21.225 0.675
-27.975 17.625 0.375
-27.975 17.625 1.125
-27.975 17.625 1.275
-28.725 22.275 1.575
-29.025 21.975 1.425
-29.025 21.975 1.125
-29.025 18.375 2.175
-24.225 20.775 0.375
-24.225 20.775 0.975
-29.625 20.775 0.675
-29.625 20.775 2.325
-27.525 17.475 0.675
-27.525 17.475 1.125
-24.225 19.575 0.525
-24.225 19.575 -3.375
-26.325 17.475 0.375
-25.125 18.075 2.025
-24.825 18.375 -0.825
-24.825 18.375 -0.975
-24.675 21.825 1.575
-29.175 21.825 0.975
-29.175 21.825 1.275
-29.175 21.825 1.425
-28.575 17.925 2.025
-28.575 17.925 0.525
-28.575 17.925 1.875
-24.675 18.525 -0.075
-25.275 17.925 1.875
-29.175 18.525 2.025
-24.225 19.425 -0.375
-29.625 20.925 1.425
-29.625 20.925 1.575
-26.175 17.475 0.975
-27.675 17.475 1.125
-24.375 18.975 -0.525
-28.125 17.625 0.825
-28.125 17.625 1.425
-24.375 21.375 0.825
-29.475 18.975 1.725
-24.375 21.375 1.125
-28.125 22.725 0.525
-29.325 18.675 0.975
-25.425 22.575 0.675
-24.525 18.675 -0.525
-25.425 17.775 -0.675
-28.425 17.775 0.975
-29.625 21.075 0.675
-24.225 21.075 0.975
-24.225 21.075 1.575
-27.825 17.475 0.975
-24.225 19.275 0.975
-26.025 17.475 2.025
-26.025 17.475 1.875
-29.625 19.275 1.875
-26.925 17.325 0.225
-26.925 17.325 1.275
-26.925 17.325 1.725
-26.925 17.325 1.425
-26.925 17.325 1.125
-24.075 20.175 1.425
-26.925 17.325 0.375
-27.075 23.025 -2.625
-29.775 20.325 0.825
-29.775 20.325 1.725
-27.075 17.325 1.125
-24.075 20.325 0.975
-24.075 20.325 0.675
-24.075 20.325 0.525
-26.775 17.325 0.525
-26.775 17.325 1.875
-24.075 20.025 0.675
-29.025 18.225 1.125
-29.775 20.475 -0.525
-24.825 18.225 0.225
-24.075 20.475 0.825
-24.075 20.475 0.675
-24.075 20.475 0.975
-27.225 17.325 0.675
-26.625 17.325 0.675
-24.675 18.375 2.625
-24.675 18.375 -1.425
-24.675 18.375 2.025
-24.675 18.375 -4.575
-28.725 17.925 1.125
-29.175 18.375 1.275
-29.175 21.975 1.275
-29.175 21.975 0.975
-24.675 21.975 1.275
-29.775 20.625 0.075
-29.775 20.625 -0.975
-27.375 23.025 1.575
-24.375 21.525 1.425
-28.275 17.625 1.125
-28.275 17.625 1.425
-28.275 17.625 0.375
-28.275 22.725 0.525
-24.075 20.625 0.825
-26.475 17.325 0.975
-29.475 18.825 0.975
-24.375 18.825 0.975
-25.575 17.625 1.575
-29.625 21.225 0.675
-24.225 19.125 -4.125
-29.625 21.225 1.425
-29.625 21.225 2.175
-25.875 17.475 2.025
-25.875 17.475 1.575
-29.625 19.125 1.875
-29.775 20.775 -0.675
-29.775 20.775 1.275
-29.775 20.775 2.325
-29.775 20.775 2.175
-29.775 20.775 -3.075
-29.775 20.775 3.375
-29.775 20.775 0.075
-29.775 20.775 2.025
-29.775 19.575 1.575
-29.325 21.825 -0.075
-29.325 18.525 2.025
-29.325 18.525 1.575
-28.575 17.775 0.975
-28.575 17.775 2.325
-28.575 17.775 1.575
-28.575 17.775 1.125
-28.575 17.775 0.525
-26.325 17.325 1.725
-26.325 17.325 1.125
-24.525 18.525 0.375
-24.525 18.525 -0.975
-25.275 17.775 0.525
-29.775 19.425 2.025
-29.775 19.425 1.725
-29.775 20.925 0.375
-29.775 20.925 0.975
-29.775 20.925 0.825
-29.775 20.925 0.675
-24.075 20.925 0.525
-24.075 19.425 0.675
-24.075 19.425 -1.575
-27.675 17.325 0.375
-26.175 17.325 1.575
-26.175 17.325 0.825
-26.175 17.325 0.675
-26.175 17.325 1.725
-29.625 21.375 -0.825
-29.625 21.375 1.575
-29.625 21.375 1.875
-25.725 17.475 1.125
-28.125 17.475 1.275
-28.125 17.475 1.575
-24.225 21.375 0.975
-29.625 18.975 0.675
-29.625 18.975 1.275
-25.425 17.625 1.875
-24.375 18.675 0.525
-24.375 18.675 0.975
-24.375 18.675 -0.075
-28.425 17.625 1.275
-28.425 17.625 1.425
-29.475 18.675 2.025
-29.475 21.675 1.425
-29.475 21.675 1.575
-29.025 22.275 1.875
-29.025 18.075 0.675
-24.675 18.225 2.475
-28.875 17.925 0.225
-28.875 17.925 0.675
-28.875 17.925 0.375
-29.175 18.225 0.975
-29.775 21.075 1.125
-29.775 19.275 1.875
-24.075 21.075 0.825
-24.075 19.275 -0.825
-26.025 17.325 0.225
-26.025 17.325 1.425
-29.325 18.375 -0.525
-29.325 21.975 1.275
-28.725 22.575 1.125
-23.925 20.175 1.575
-23.925 20.175 1.425
-23.925 20.175 1.275
-26.925 17.175 1.125
-29.925 20.175 -0.675
-23.925 20.175 1.875
-28.725 17.775 1.425
-28.725 17.775 1.875
-25.125 17.775 1.875
-25.125 17.775 -0.375
-23.925 20.325 0.675
-23.925 20.325 0.975
-23.925 20.325 0.825
-27.075 17.175 1.125
-23.925 20.025 1.575
-26.775 17.175 2.775
-29.925 20.025 -0.225
-23.925 20.475 0.675
-23.925 20.475 0.825
-23.925 20.475 0.525
-23.925 20.475 0.975
-26.625 17.175 3.225
-29.925 20.475 1.875
-23.925 19.875 0.075
-24.225 21.525 -1.125
-29.625 21.525 1.875
-28.275 17.475 1.125
-28.275 17.475 0.975
-24.225 18.825 0.225
-24.225 18.825 0.525
-29.625 18.825 0.975
-23.925 20.625 0.675
-23.925 20.625 1.125
-29.925 20.625 0.225
-26.475 17.175 -0.675
-29.925 20.625 -0.375
-29.925 20.625 2.025
-27.375 17.175 0.975
-27.375 17.175 1.125
-29.925 19.725 -0.525
-29.775 19.125 1.125
-29.775 21.225 1.875
-28.575 17.625 1.725
-28.575 22.725 -0.375
-24.075 21.225 -0.375
-24.075 21.225 0.825
-27.975 17.325 0.825
-25.875 17.325 0.225
-24.375 18.525 2.925
-24.375 18.525 0.375
-29.475 18.525 0.675
-29.925 20.775 2.325
-29.925 20.775 1.125
-29.925 20.775 1.275
-29.925 20.775 0.225
-29.925 20.775 -0.675
-26.325 17.175 0.525
-23.925 19.575 -1.275
-23.925 19.575 0.825
-29.925 19.575 2.475
-29.025 17.925 0.225
-29.025 17.925 0.975
-29.025 17.925 1.275
-29.025 22.425 5.775
-29.175 22.275 2.025
-29.625 21.675 2.025
-29.625 21.675 1.425
-25.425 17.475 -0.225
-28.425 17.475 1.425
-29.625 18.675 1.875
-29.775 18.975 0.825
-29.775 18.975 1.725
-29.325 18.225 1.275
-23.925 20.925 -0.225
-29.925 20.925 0.675
-29.925 20.925 0.825
-29.925 20.925 1.575
-23.925 19.425 -0.225
-24.075 21.375 0.825
-24.525 18.225 1.875
-28.875 17.775 1.125
-29.475 21.975 0.375
-29.475 21.975 1.125
-29.475 21.975 1.425
-25.125 17.625 1.125
-24.375 18.375 -0.675
-24.375 18.375 -3.225
-23.925 21.075 0.675
-26.025 17.175 1.425
-30.075 20.175 1.575
-30.075 20.175 2.175
-23.775 20.175 1.725
-23.775 20.175 1.575
-23.775 20.175 0.525
-29.775 21.525 -0.525
-28.275 23.025 0.825
-30.075 20.325 1.875
-30.075 20.025 -0.375
-29.775 18.825 1.425
-24.075 21.525 1.275
-24.075 21.525 1.125
-28.275 17.325 1.875
-23.775 20.325 1.425
-27.075 17.025 0.975
-23.775 20.025 1.725
-23.775 20.025 1.275
-23.775 20.025 0.975
-23.775 20.025 1.425
-23.775 20.025 1.875
-30.075 20.475 0.075
-30.075 20.475 0.825
-30.075 19.875 -0.225
-29.625 21.825 -0.825
-29.625 21.825 0.825
-28.575 17.475 1.875
-28.575 17.475 1.575
-25.275 17.475 2.625
-25.275 22.875 1.575
-23.775 20.475 0.975
-23.775 20.475 0.675
-23.775 20.475 0.525
-27.225 17.025 0.675
-23.925 21.225 0.675
-23.925 21.225 1.125
-29.925 21.225 0.075
-30.075 20.625 0.225
-30.075 20.625 0.675
-30.075 20.625 0.375
-29.175 17.925 0.525
-24.675 17.925 0.525
-29.175 22.425 1.425
-23.775 20.625 0.825
-23.775 20.625 0.975
-23.775 20.625 1.425
-23.775 20.625 1.875
-27.375 17.025 0.825
-26.475 17.025 2.775
-26.475 17.025 0.975
-27.375 17.025 0.675
-29.325 18.075 1.125
-29.025 17.775 0.225
-29.025 17.775 0.525
-29.025 17.775 0.975
-30.075 20.775 0.825
-30.075 20.775 0.525
-30.075 20.775 -0.075
-30.075 19.575 1.425
-23.775 20.775 1.275
-26.325 17.025 1.425
-26.325 17.025 1.725
-26.325 17.025 0.675
-24.375 22.125 2.775
-28.875 22.725 0.825
-29.475 22.125 0.825
-29.475 22.125 0.375
-24.375 18.225 2.025
-24.375 18.225 -1.575
-24.975 17.625 1.875
-29.475 18.225 1.125
-29.475 18.225 0.375
-29.475 18.225 1.275
-29.775 18.675 0.825
-29.775 18.675 1.275
-24.075 18.675 0.525
-24.075 18.675 1.875
-25.425 17.325 0.975
-25.425 17.325 2.925
-29.925 18.975 1.425
-30.075 20.925 -0.225
-30.075 20.925 -0.525
-30.075 20.925 -0.375
-30.075 19.425 1.575
-30.075 19.425 2.175
-23.775 20.925 0.675
-26.175 17.025 1.425
-26.175 17.025 1.125
-26.175 17.025 1.575
-29.625 21.975 1.275
-29.625 21.975 -0.075
-29.625 18.375 0.525
-25.125 17.475 1.575
-25.125 17.475 2.925
-23.775 21.075 0.675
-26.025 17.025 0.675
-26.025 17.025 0.825
-23.925 21.525 -0.075
-29.925 21.525 1.425
-29.325 22.425 0.075
-28.275 23.175 0.675
-25.575 17.175 0.375
-25.575 17.175 0.825
-29.925 18.825 1.125
-24.675 17.775 -0.375
-24.075 21.825 1.125
-24.075 18.525 -0.075
-23.625 20.175 1.575
-29.475 22.275 1.725
-29.025 22.725 0.675
-29.025 22.725 0.825
-29.025 17.625 -0.075
-23.625 20.325 0.675
-30.225 20.325 0.075
-30.225 20.325 -0.075
-23.625 20.025 1.725
-23.625 20.025 1.875
-23.625 20.025 1.275
-23.625 20.025 1.425
-30.225 20.025 2.025
-24.375 18.075 3.675
-24.375 18.075 2.025
-24.825 17.625 1.725
-29.475 18.075 1.275
-30.225 20.475 0.675
-30.225 19.875 -0.375
-30.225 20.475 -0.675
-23.625 20.475 0.975
-23.625 20.475 1.275
-23.625 20.475 0.525
-30.075 19.125 2.175
-30.075 19.125 1.875
-23.775 21.225 0.825
-25.875 17.025 0.525
-24.225 22.125 0.675
-29.625 22.125 0.075
-28.875 22.875 0.675
-28.875 22.875 0.975
-24.975 17.475 1.275
-24.975 17.475 -0.375
-24.225 22.125 -0.675
-23.625 20.625 0.825
-23.625 20.625 0.375
-30.225 20.625 1.125
-30.225 20.625 0.675
-30.225 20.625 -0.375
-30.225 20.625 -0.225
-23.925 18.675 -0.075
-25.425 17.175 2.475
-29.925 18.675 0.975
-23.625 20.775 1.275
-23.625 20.775 1.575
-30.225 20.775 0.825
-26.325 16.875 1.425
-30.075 18.975 0.975
-30.075 18.975 2.025
-30.075 18.975 1.275
-29.775 21.975 1.575
-29.775 21.975 -0.075
-29.775 21.975 1.125
-23.775 21.375 1.125
-25.725 17.025 0.825
-25.725 17.025 0.375
-25.725 17.025 0.675
-23.775 18.975 0.675
-30.225 20.925 0.825
-23.625 20.925 1.875
-26.175 16.875 1.575
-29.475 22.425 0.675
-29.175 22.725 0.825
-29.175 22.725 0.675
-29.475 17.925 1.275
-29.175 17.625 0.975
-24.675 17.625 1.875
-29.625 22.275 0.975
-23.625 21.075 0.825
-23.625 21.075 -0.375
-30.225 21.075 1.425
-30.225 21.075 -0.225
-30.225 21.075 0.075
-29.625 18.075 0.825
-26.025 16.875 1.725
-23.625 19.275 -0.225
-29.925 21.825 1.275
-23.925 18.525 1.575
-30.075 21.525 0.525
-30.075 18.825 0.975
-30.075 18.825 0.825
-30.075 18.825 0.525
-23.475 20.175 0.075
-23.475 20.175 0.975
-30.375 20.175 -0.075
-29.775 22.125 2.025
-29.775 22.125 2.325
-29.775 22.125 1.275
-29.775 18.225 0.975
-23.475 20.325 1.125
-23.475 20.325 0.375
-30.375 20.325 0.675
-30.375 20.325 0.075
-23.475 20.025 1.575
-23.475 20.025 1.425
-26.775 16.725 1.425
-24.075 18.225 1.275
-23.475 20.475 0.825
-23.475 20.475 0.375
-30.375 20.475 0.375
-30.375 20.475 0.675
-25.875 16.875 1.575
-25.875 16.875 0.825
-23.625 21.225 0.375
-25.875 16.875 2.625
-23.475 20.625 0.675
-23.475 19.725 -0.675
-23.475 20.625 0.525
-23.475 20.625 0.825
-30.375 20.625 1.125
-26.475 16.725 1.725
-26.475 16.725 1.575
-30.075 18.675 0.375
-23.775 18.675 1.425
-25.425 17.025 0.525
-25.425 17.025 0.075
-23.775 21.675 -2.325
-29.925 21.975 1.725
-29.925 21.975 1.425
-29.925 21.975 0.675
-29.925 21.975 0.825
-29.925 21.975 0.075
-23.925 18.375 1.425
-30.375 19.575 2.775
-29.325 22.725 0.675
-29.475 22.575 0.525
-24.375 17.775 1.875
-29.475 17.775 0.975
-29.475 17.775 0.825
-30.225 21.375 0.675
-30.225 21.375 1.275
-23.625 21.375 0.825
-23.625 21.375 1.125
-23.625 18.975 0.675
-23.625 18.975 0.375
-24.225 17.925 -0.525
-29.175 22.875 1.125
-29.175 22.875 1.425
-29.625 17.925 1.275
-29.625 17.925 -0.075
-23.475 19.425 0.525
-30.375 20.925 1.125
-30.375 20.925 0.225
-30.375 20.925 -0.825
-26.175 16.725 1.125
-23.475 19.425 -0.225
-29.775 18.075 0.825
-29.775 18.075 0.525
-24.075 18.075 1.125
-24.825 17.325 0.975
-30.075 21.825 1.875
-23.775 18.525 -0.525
-23.775 18.525 1.125
-23.775 18.525 0.975
-30.375 21.075 2.025
-30.375 21.075 -0.225
-23.475 19.275 0.525
-30.375 19.275 2.175
-23.625 21.525 0.675
-25.575 16.875 0.675
-25.575 16.875 2.025
-23.625 18.825 -0.375
-29.925 22.125 0.225
-23.925 18.225 1.275
-23.925 18.225 0.525
-23.925 18.225 -0.375
-28.875 17.175 1.725
-29.925 18.225 1.125
-23.325 20.175 0.825
-23.325 20.175 1.125
-23.325 20.175 0.225
-30.525 20.325 0.675
-23.475 19.125 -1.425
-23.475 19.125 1.125
-23.475 21.225 0.675
-30.375 21.225 1.725
-30.375 21.225 0.675
-25.875 16.725 1.575
-23.475 19.125 0.675
-24.375 17.625 1.575
-30.525 20.475 -0.675
-30.525 20.475 1.275
-30.525 19.875 1.575
-30.525 19.875 1.425
-29.325 22.875 0.675
-29.625 22.575 2.925
-29.625 22.575 0.675
-24.225 17.775 -0.675
-29.625 17.775 0.975
-23.325 19.875 1.125
-23.325 20.475 0.825
-25.425 16.875 2.475
-30.225 18.675 0.825
-30.225 21.675 -0.225
-30.525 20.625 1.125
-30.525 20.625 2.175
-30.075 18.375 -0.075
-30.075 21.975 1.275
-30.075 21.975 1.725
-23.325 20.625 0.675
-23.325 20.625 0.375
-23.325 20.625 0.825
-23.325 20.625 0.525
-23.775 18.375 0.525
-23.775 18.375 2.475
-23.775 18.375 1.575
-23.775 18.375 1.275
-28.725 17.025 1.575
-29.775 17.925 0.675
-29.775 17.925 1.125
-29.775 17.925 1.425
-24.075 17.925 -0.825
-24.075 17.925 1.125
-24.075 17.925 2.475
-30.525 19.575 2.025
-23.325 20.775 0.825
-23.325 20.775 1.425
-23.475 21.375 1.125
-30.375 21.375 0.075
-30.375 21.375 0.675
-30.375 18.975 1.725
-23.475 18.975 1.125
-29.925 22.275 1.875
-23.925 18.075 1.125
-29.925 18.075 0.075
-23.325 19.425 -0.075
-23.325 19.425 1.725
-26.175 16.575 1.125
-30.225 21.825 2.025
-30.225 21.825 1.275
-30.225 21.825 -0.075
-23.625 18.525 0.225
-23.625 18.525 0.525
-30.225 18.525 0.675
-30.075 18.225 0.675
-30.075 18.225 2.025
-30.075 22.125 0.825
-30.075 18.225 -0.075
-30.075 22.125 -0.675
-30.375 21.525 1.275
-25.575 16.725 1.575
-30.375 18.825 1.275
-23.775 18.225 1.275
-30.525 21.075 0.675
-30.525 21.075 2.025
-23.325 19.275 0.075
-23.325 19.275 -0.525
-29.475 22.875 0.825
-24.375 17.475 0.675
-29.625 17.625 1.125
-29.775 17.775 1.875
-24.525 17.325 1.125
-24.525 17.325 1.275
-24.075 17.775 2.175
-30.525 21.225 0.675
-30.525 21.225 -0.375
-30.525 21.225 -0.225
-30.525 19.125 1.725
-30.675 20.175 0.525
-30.675 20.175 2.325
-23.925 17.925 1.875
-23.925 17.925 1.125
-29.925 22.425 0.675
-23.175 20.175 0.675
-23.325 21.225 1.125
-23.175 20.325 1.875
-23.175 20.025 0.825
-23.625 18.375 -0.825
-23.625 18.375 0.525
-30.225 18.375 1.125
-30.225 21.975 1.575
-25.125 16.875 4.125
-25.125 16.875 1.425
-25.125 16.875 0.375
-23.475 21.675 3.825
-23.475 18.675 0.525
-30.375 21.675 -0.225
-30.375 21.675 1.425
-25.425 16.725 1.425
-30.375 18.675 0.975
-23.475 21.675 2.025
-23.175 20.475 0.675
-23.175 19.875 2.475
-30.675 19.875 1.425
-26.625 23.925 0.825
-30.675 20.625 -0.675
-30.675 20.625 0.825
-23.175 20.625 0.825
-23.175 20.625 0.375
-30.075 22.275 1.875
-30.075 22.275 0.675
-30.075 18.075 -0.075
-29.025 17.025 1.425
-23.775 18.075 1.125
-23.775 18.075 -1.575
-30.525 21.375 1.725
-30.525 21.375 0.075
-30.525 18.975 0.225
-30.525 18.975 0.825
-23.325 21.375 1.125
-30.675 20.775 0.675
-23.175 20.775 1.125
-23.175 20.775 0.525
-23.175 19.575 -0.075
-23.175 19.575 1.425
-29.625 22.875 0.975
-30.375 21.825 1.125
-23.175 19.425 -0.675
-23.175 19.425 -0.075
-23.175 19.425 -0.225
-30.675 20.925 1.275
-30.675 20.925 -0.225
-30.675 19.425 1.425
-23.475 18.525 0.675
-25.275 16.725 1.275
-25.275 16.725 2.625
-24.075 17.625 0.525
-30.225 18.225 1.425
-30.225 18.225 0.525
-24.975 16.875 0.225
-24.975 16.875 1.725
-29.925 22.575 0.525
-29.925 22.575 0.375
-23.925 17.775 3.075
-23.925 17.775 1.125
-30.525 21.525 -0.075
-30.675 21.075 0.825
-30.675 21.075 -0.225
-23.175 19.275 1.725
-30.075 22.425 2.475
-23.775 17.925 -1.125
-23.475 18.375 1.575
-30.375 21.975 0.825
-25.125 16.725 0.375
-30.375 21.975 0.975
-30.675 21.225 0.975
-23.175 21.225 0.975
-30.525 21.675 0.675
-30.825 20.175 0.525
-23.325 21.675 -2.625
-23.325 18.675 2.625
-25.425 16.575 0.825
-25.425 16.575 1.575
-23.025 20.175 0.525
-30.825 20.025 0.225
-30.825 20.025 -0.375
-23.025 20.025 1.875
-23.025 20.025 2.325
-23.025 20.025 1.275
-30.225 22.275 1.125
-30.225 22.275 0.525
-23.625 18.075 1.275
-30.225 18.075 0.225
-23.625 18.075 1.425
-24.825 16.875 1.575
-23.025 20.475 0.525
-24.225 17.325 0.825
-23.025 20.625 1.125
-23.025 20.625 0.675
-23.025 19.725 -3.975
-30.675 21.375 1.125
-23.175 18.975 1.425
-23.925 17.625 1.425
-23.925 17.625 1.575
-30.825 20.775 0.375
-30.825 20.775 0.675
-27.525 24.075 -2.025
-23.025 20.775 0.675
-23.025 20.775 0.825
-30.525 21.825 1.125
-30.525 21.825 2.325
-30.525 18.525 2.925
-30.525 18.525 0.975
-30.075 17.775 -0.075
-23.325 18.525 1.275
-25.275 16.575 0.375
-25.275 16.575 1.425
-25.275 16.575 1.125
-23.775 17.775 0.975
-23.775 17.775 1.575
-30.375 18.225 1.425
-30.375 22.125 0.825
-30.375 18.225 0.075
-23.475 18.225 0.525
-30.825 20.925 0.525
-30.825 20.925 -0.525
-30.825 19.425 1.575
-30.825 20.925 0.825
-23.025 20.925 2.175
-23.025 20.925 0.675
-23.175 21.525 0.525
-30.675 21.525 1.275
