# .PCD v0.7 - Point Cloud Data file format
VERSION 0.7
FIELDS x y z
SIZE 4 4 4
TYPE F F F
COUNT 1 1 1
WIDTH 2048
HEIGHT 1
VIEWPOINT 0 0 0 1 0 0 0
POINTS 2048
DATA ascii
-29.175 -11.025 2.625
-29.175 -11.025 1.875
-29.175 -11.025 2.325
-29.025 -11.025 2.325
-29.025 -11.175 1.725
-29.175 -10.875 2.175
-29.175 -10.875 2.625
-29.025 -10.875 0.525
-28.875 -11.025 0.075
-28.875 -11.025 0.825
-28.875 -11.025 0.525
-29.325 -10.875 0.975
-29.325 -10.875 1.875
-28.875 -11.175 2.625
-28.875 -11.175 1.575
-28.875 -11.175 1.275
-29.175 -11.325 1.575
-29.175 -11.325 1.125
-28.875 -10.875 1.575
-29.025 -11.325 0.825
-29.025 -11.325 1.725
-29.175 -10.725 1.275
-29.025 -10.725 1.875
-29.325 -11.325 2.625
-29.325 -11.325 1.875
-29.325 -11.325 1.725
-29.325 -11.325 2.925
-29.475 -11.025 1.425
-28.875 -11.325 0.975
-29.475 -11.175 -0.225
-29.475 -11.175 1.875
-28.725 -11.025 0.825
-29.475 -10.875 0.075
-28.875 -10.725 2.625
-28.875 -10.725 1.425
-28.875 -10.725 1.875
-28.725 -11.175 0.675
-28.725 -11.175 0.225
-28.725 -10.875 0.075
-28.725 -10.875 1.575
-28.725 -10.875 2.175
-28.725 -10.875 0.975
-29.175 -11.475 1.575
-29.175 -11.475 1.725
-29.175 -11.475 2.025
-29.175 -11.475 1.275
-29.175 -11.475 2.175
-29.025 -11.475 1.575
-29.025 -11.475 0.525
-29.475 -11.325 1.725
-29.175 -10.575 0.525
-29.475 -10.725 1.425
-29.475 -10.725 -0.225
-29.475 -10.725 2.325
-29.325 -11.475 1.125
-29.325 -11.475 3.075
-28.875 -11.475 1.125
-28.875 -11.475 -0.225
-28.875 -11.475 0.825
-28.725 -10.725 0.825
-28.725 -10.725 0.075
-28.725 -10.725 1.425
-28.725 -10.725 1.275
-28.875 -10.575 1.725
-28.875 -10.575 0.825
-28.875 -10.575 0.525
-29.625 -11.175 -0.225
-29.625 -11.175 -0.075
-29.625 -10.875 -0.075
-29.625 -10.875 1.725
-28.575 -11.025 2.775
-29.475 -11.475 -0.525
-28.575 -10.875 2.925
-28.575 -10.875 1.275
-29.625 -11.325 1.725
-28.725 -11.475 0.825
-28.725 -11.475 4.725
-29.475 -10.575 0.975
-29.175 -11.625 1.275
-29.175 -11.625 1.725
-29.025 -11.625 1.275
-29.625 -10.725 -0.225
-29.625 -10.725 -0.075
-28.725 -10.575 2.025
-28.725 -10.575 1.725
-28.725 -10.575 0.825
-28.575 -11.325 0.675
-28.575 -11.325 0.375
-29.325 -11.625 2.175
-29.325 -11.625 2.325
-29.325 -11.625 1.575
-29.325 -11.625 -0.975
-29.325 -11.625 -0.675
-29.325 -11.625 2.625
-28.575 -10.725 0.975
-28.575 -10.725 0.075
-28.575 -10.725 0.825
-28.875 -11.625 1.275
-28.875 -11.625 0.825
-28.875 -11.625 0.675
-29.775 -11.175 0.375
-29.775 -11.175 0.975
-29.775 -10.875 2.025
-29.475 -11.625 2.175
-29.625 -10.575 -0.375
-29.625 -10.575 0.825
-28.575 -11.475 -0.075
-28.575 -11.475 3.225
-28.725 -11.625 0.825
-28.725 -11.625 1.425
-28.425 -11.175 2.175
-28.425 -11.175 0.975
-28.425 -11.175 0.825
-28.425 -10.875 0.825
-29.475 -10.425 0.975
-29.475 -10.425 0.525
-28.575 -10.575 1.725
-28.575 -10.575 1.875
-29.775 -11.325 2.475
-29.775 -11.325 2.325
-29.775 -10.725 1.425
-29.775 -10.725 1.725
-29.775 -10.725 1.575
-28.725 -10.425 0.975
-28.725 -10.425 1.275
-28.725 -10.425 1.425
-28.725 -10.425 1.875
-28.725 -10.425 0.225
-29.175 -11.775 0.525
-29.175 -11.775 1.875
-29.175 -11.775 0.225
-29.025 -11.775 0.825
-29.025 -11.775 1.725
-28.425 -11.325 0.675
-28.425 -11.325 0.825
-28.425 -11.325 0.975
-28.425 -10.725 0.825
-28.425 -10.725 0.975
-29.325 -11.775 2.325
-29.325 -11.775 -1.575
-29.175 -10.275 0.375
-28.875 -11.775 0.075
-29.775 -11.475 -0.975
-29.775 -11.475 0.975
-29.325 -10.275 1.425
-28.575 -11.625 0.825
-29.625 -10.425 2.475
-28.875 -10.275 0.525
-29.775 -10.575 0.225
-29.775 -10.575 1.125
-29.775 -10.575 1.425
-29.925 -11.175 0.525
-28.575 -10.425 1.875
-28.575 -10.425 0.825
-28.575 -10.425 1.725
-28.425 -10.575 0.525
-28.425 -10.575 0.075
-28.275 -11.025 0.975
-28.275 -11.025 1.125
-28.275 -11.025 0.825
-28.275 -11.175 0.825
-28.275 -11.175 1.275
-28.275 -11.175 0.975
-28.275 -11.175 1.125
-29.925 -11.325 2.775
-29.925 -11.325 1.875
-28.275 -10.875 0.975
-28.275 -10.875 0.825
-28.275 -10.875 1.125
-28.725 -10.275 0.825
-28.725 -10.275 0.375
-29.925 -10.725 1.425
-29.925 -10.725 1.875
-29.925 -10.725 0.225
-29.175 -11.925 1.875
-28.275 -11.325 0.825
-28.275 -11.325 1.125
-28.275 -11.325 0.225
-28.275 -11.325 0.975
-29.025 -11.925 1.575
-29.025 -11.925 0.225
-29.025 -11.925 1.875
-29.025 -11.925 1.275
-29.025 -11.925 1.125
-29.625 -11.775 2.925
-29.625 -11.775 2.475
-29.625 -11.775 2.625
-28.275 -10.725 1.125
-28.275 -10.725 0.075
-28.275 -10.725 0.825
-28.275 -10.725 0.975
-29.775 -10.425 1.575
-28.425 -11.625 1.575
-28.425 -11.625 1.125
-29.325 -11.925 2.175
-29.325 -11.925 1.125
-28.575 -11.775 1.425
-28.575 -11.775 0.825
-28.875 -11.925 0.225
-28.875 -11.925 1.125
-28.875 -11.925 1.275
-28.875 -11.925 0.675
-29.925 -11.475 1.275
-29.925 -11.475 0.825
-29.925 -11.475 0.675
-29.625 -10.275 1.275
-29.625 -10.275 1.125
-29.025 -10.125 2.325
-29.025 -10.125 5.325
-28.425 -10.425 0.825
-29.925 -10.575 2.025
-29.925 -10.575 1.425
-28.575 -10.275 1.725
-28.575 -10.275 1.875
-28.575 -10.275 0.375
-28.575 -10.275 0.825
-29.325 -10.125 3.075
-29.325 -10.125 0.675
-28.875 -10.125 0.825
-28.275 -11.475 0.825
-28.275 -11.475 1.125
-28.275 -11.475 1.275
-29.475 -11.925 2.625
-30.075 -11.025 1.875
-30.075 -11.025 2.925
-28.275 -10.575 1.125
-28.275 -10.575 0.975
-28.275 -10.575 0.525
-30.075 -11.175 1.875
-28.725 -11.925 1.125
-28.725 -11.925 0.375
-29.475 -10.125 1.425
-29.475 -10.125 1.275
-29.475 -10.125 2.475
-29.775 -11.775 -2.325
-29.775 -11.775 1.875
-28.125 -11.025 0.825
-28.125 -11.025 0.975
-28.125 -11.025 0.375
-28.725 -10.125 0.975
-28.725 -10.125 2.025
-28.725 -10.125 1.275
-28.725 -10.125 1.125
-29.925 -11.625 0.375
-29.925 -11.625 1.575
-29.925 -11.625 0.825
-30.075 -11.325 1.875
-28.125 -11.175 1.875
-28.125 -11.175 1.275
-28.125 -11.175 0.975
-28.125 -11.175 0.525
-28.125 -10.875 0.675
-30.075 -10.725 0.675
-30.075 -10.725 2.625
-30.075 -10.725 1.575
-29.775 -10.275 0.975
-28.425 -11.775 0.675
-28.425 -11.775 0.525
-28.425 -11.775 0.375
-29.925 -10.425 1.425
-29.625 -11.925 1.725
-29.625 -11.925 1.425
-28.275 -11.625 0.975
-28.275 -11.625 1.125
-28.425 -10.275 0.675
-28.425 -10.275 1.875
-28.125 -11.325 0.975
-28.125 -11.325 1.275
-29.175 -12.075 2.025
-28.575 -11.925 2.175
-28.575 -11.925 0.525
-28.575 -11.925 2.325
-29.025 -12.075 1.275
-29.025 -12.075 1.725
-28.125 -10.725 1.125
-28.125 -10.725 1.575
-28.125 -10.725 0.975
-28.275 -10.425 1.125
-28.275 -10.425 0.975
-29.625 -10.125 3.375
-29.625 -10.125 1.725
-30.075 -11.475 -1.725
-30.075 -11.475 1.875
-30.075 -11.475 2.475
-30.075 -11.475 -1.875
-30.075 -11.475 -5.475
-28.875 -12.075 1.275
-28.875 -12.075 0.075
-28.575 -10.125 0.675
-30.075 -10.575 1.425
-30.075 -10.575 0.675
-30.075 -10.575 1.275
-29.175 -9.975 2.625
-29.025 -9.975 -0.375
-28.125 -11.475 1.275
-28.125 -11.475 1.575
-28.125 -11.475 2.175
-29.325 -9.975 1.125
-29.925 -11.775 1.425
-29.925 -11.775 1.275
-29.925 -11.775 0.225
-28.875 -9.975 0.525
-29.475 -12.075 2.775
-28.125 -10.575 0.975
-28.125 -10.575 1.425
-28.125 -10.575 1.125
-29.775 -11.925 1.725
-29.775 -11.925 2.475
-29.775 -11.925 1.275
-28.725 -12.075 0.675
-28.725 -12.075 1.125
-30.225 -11.025 1.575
-30.225 -11.025 1.275
-29.925 -10.275 1.725
-30.225 -11.175 3.225
-30.225 -11.175 0.825
-28.275 -11.775 0.825
-30.075 -11.625 0.375
-28.425 -11.925 1.275
-29.475 -9.975 2.175
-29.475 -9.975 1.725
-29.475 -9.975 2.475
-29.775 -10.125 1.725
-28.725 -9.975 0.825
-28.725 -9.975 2.025
-28.275 -10.275 1.125
-28.275 -10.275 0.975
-30.075 -10.425 1.425
-27.975 -11.025 1.425
-30.225 -11.325 2.025
-30.225 -11.325 0.825
-28.425 -10.125 2.775
-28.425 -10.125 -0.225
-28.425 -10.125 0.375
-28.425 -10.125 1.575
-28.125 -11.625 1.125
-30.225 -10.725 1.575
-29.625 -12.075 1.575
-28.125 -10.425 0.975
-28.125 -10.425 1.125
-27.975 -11.325 2.325
-29.625 -9.975 1.725
-29.625 -9.975 2.025
-29.625 -9.975 1.875
-29.625 -9.975 -0.075
-29.625 -9.975 1.425
-27.975 -10.725 1.575
-29.175 -12.225 0.825
-29.175 -12.225 2.475
-29.025 -12.225 0.825
-29.025 -12.225 1.725
-30.225 -11.475 1.875
-30.225 -11.475 1.125
-30.225 -11.475 1.425
-28.575 -9.975 2.025
-28.575 -9.975 1.875
-28.575 -9.975 0.825
-28.575 -9.975 1.575
-29.925 -11.925 2.025
-29.925 -11.925 1.275
-29.925 -11.925 -1.425
-30.225 -10.575 1.725
-30.225 -10.575 1.575
-29.325 -12.225 0.375
-29.325 -12.225 2.025
-29.175 -9.825 2.325
-29.025 -9.825 2.025
-29.025 -9.825 2.475
-29.925 -10.125 2.925
-29.925 -10.125 1.425
-28.275 -11.925 1.425
-28.275 -11.925 3.525
-28.275 -11.925 5.325
-28.275 -11.925 1.125
-28.275 -11.925 0.975
-28.275 -11.925 1.575
-28.275 -11.925 2.325
-30.075 -10.275 1.575
-30.075 -10.275 1.425
-29.775 -12.075 1.275
-29.775 -12.075 2.475
-29.775 -12.075 -1.425
-29.775 -12.075 2.325
-29.325 -9.825 2.475
-29.325 -9.825 2.325
-27.975 -10.575 0.675
-28.125 -11.775 0.825
-28.125 -11.775 1.275
-28.125 -11.775 1.125
-28.125 -11.775 0.975
-29.475 -12.225 -0.075
-29.475 -12.225 0.375
-28.875 -9.825 0.825
-28.875 -9.825 2.025
-28.275 -10.125 0.975
-28.275 -10.125 1.575
-28.425 -12.075 0.825
-29.775 -9.975 1.425
-30.225 -11.625 0.375
-30.225 -11.625 1.275
-30.225 -11.625 1.125
-30.225 -11.625 1.425
-30.225 -11.625 -0.675
-28.125 -10.275 1.125
-28.125 -10.275 0.975
-28.125 -10.275 1.275
-30.375 -11.025 -0.525
-30.375 -11.025 1.425
-30.375 -11.025 2.625
-30.375 -11.175 1.425
-29.475 -9.825 4.275
-29.475 -9.825 1.875
-30.225 -10.425 1.425
-30.225 -10.425 1.725
-30.225 -10.425 0.675
-30.375 -10.875 1.575
-30.375 -10.875 1.725
-30.375 -10.875 1.875
-28.425 -9.975 -3.225
-28.425 -9.975 0.675
-28.725 -9.825 2.175
-30.375 -11.325 1.425
-30.375 -11.325 1.275
-30.375 -11.325 3.225
-27.975 -10.425 0.825
-27.975 -10.425 1.275
-27.975 -10.425 1.725
-30.075 -11.925 1.425
-29.925 -12.075 1.875
-29.625 -9.825 1.425
-29.625 -9.825 1.125
-29.625 -9.825 -3.075
-29.625 -9.825 0.975
-30.075 -10.125 0.825
-30.225 -11.775 1.125
-30.225 -11.775 1.725
-28.125 -11.925 0.525
-28.575 -9.825 1.425
-28.575 -9.825 0.825
-28.575 -9.825 2.175
-28.275 -12.075 0.675
-28.275 -12.075 0.825
-29.175 -12.375 0.525
-29.175 -12.375 0.675
-29.175 -12.375 1.875
-29.925 -9.975 -1.275
-29.025 -12.375 0.675
-29.025 -12.375 1.275
-29.025 -12.375 -0.225
-30.375 -10.575 1.725
-30.375 -10.575 1.425
-30.225 -10.275 1.125
-30.225 -10.275 0.975
-28.125 -10.125 0.525
-28.125 -10.125 0.225
-28.125 -10.125 0.975
-28.125 -10.125 1.425
-28.125 -10.125 4.875
-29.775 -12.225 2.025
-29.775 -12.225 0.525
-28.275 -9.975 0.375
-28.275 -9.975 1.875
-27.975 -11.775 0.825
-27.825 -11.475 3.975
-28.425 -12.225 2.175
-27.975 -10.275 0.975
-27.975 -10.275 1.125
-29.325 -9.675 2.175
-29.325 -9.675 2.025
-29.325 -9.675 0.825
-29.325 -9.675 2.475
-29.475 -12.375 2.175
-29.475 -12.375 0.375
-29.775 -9.825 1.425
-28.875 -9.675 2.175
-30.375 -11.625 1.575
-30.375 -11.625 0.975
-28.425 -9.825 0.375
-28.425 -9.825 0.525
-28.425 -9.825 2.025
-28.425 -9.825 1.875
-30.375 -10.425 1.125
-30.525 -11.025 1.875
-30.525 -11.025 2.475
-30.525 -11.175 -2.925
-30.525 -11.175 0.975
-30.525 -11.175 0.225
-30.525 -11.175 1.875
-30.225 -11.925 1.275
-28.725 -9.675 2.175
-29.625 -12.375 -0.075
-27.825 -10.425 0.975
-30.075 -9.975 1.425
-30.075 -9.975 0.225
-28.125 -12.075 1.275
-28.125 -12.075 0.675
-28.125 -12.075 0.975
-28.125 -12.075 0.525
-29.925 -12.225 1.875
-29.925 -12.225 2.325
-30.525 -11.325 0.825
-30.525 -11.325 1.875
-30.525 -11.325 1.125
-30.525 -11.325 -0.225
-30.225 -10.125 1.125
-30.225 -10.125 1.725
-30.225 -10.125 2.325
-28.575 -12.375 2.175
-30.525 -10.725 1.125
-30.525 -10.725 1.725
-30.525 -10.725 0.975
-27.975 -11.925 2.325
-28.275 -12.225 0.675
-28.125 -9.975 -0.075
-28.125 -9.975 0.825
-30.375 -11.775 -3.225
-30.375 -11.775 1.125
-30.375 -11.775 1.575
-30.375 -11.775 2.025
-29.625 -9.675 2.325
-29.625 -9.675 2.175
-29.925 -9.825 1.725
-29.925 -9.825 2.625
-27.975 -10.125 0.975
-27.975 -10.125 0.825
-28.575 -9.675 -0.825
-30.375 -10.275 0.825
-30.375 -10.275 1.875
-30.375 -10.275 0.975
-30.525 -11.475 1.125
-30.525 -11.475 -0.075
-30.525 -10.575 1.275
-30.525 -10.575 -2.775
-30.525 -10.575 1.875
-27.825 -11.775 2.925
-29.025 -12.525 -2.325
-29.025 -12.525 1.425
-29.025 -12.525 1.275
-29.025 -12.525 1.125
-29.775 -12.375 2.475
-29.325 -12.525 3.825
-29.325 -12.525 2.325
-27.825 -10.275 1.275
-27.825 -10.275 1.575
-28.425 -12.375 0.525
-28.875 -12.525 0.675
-27.675 -11.475 3.675
-29.775 -9.675 -0.525
-29.775 -9.675 -1.125
-29.775 -9.675 1.425
-30.225 -12.075 2.475
-29.175 -9.525 2.325
-29.175 -9.525 2.475
-29.025 -9.525 2.775
-29.025 -9.525 2.325
-30.075 -12.225 2.325
-30.525 -11.625 0.075
-30.525 -11.625 1.275
-30.525 -11.625 -0.075
-29.475 -12.525 2.325
-29.475 -12.525 3.975
-29.475 -12.525 6.675
-29.475 -12.525 2.175
-29.325 -9.525 2.025
-28.425 -9.675 0.675
-28.425 -9.675 1.725
-28.875 -9.525 0.825
-28.725 -12.525 1.725
-30.525 -10.425 1.725
-30.225 -9.975 1.125
-30.225 -9.975 -0.375
-30.225 -9.975 0.675
-30.375 -11.925 1.275
-30.375 -11.925 -3.225
-30.375 -11.925 1.875
-30.375 -11.925 1.725
-27.975 -12.075 1.575
-28.125 -12.225 -0.075
-28.125 -12.225 0.525
-28.125 -12.225 0.375
-28.125 -12.225 1.125
-28.125 -12.225 0.675
-28.125 -12.225 0.975
-28.125 -12.225 2.325
-29.475 -9.525 2.325
-29.925 -12.375 -1.425
-29.925 -12.375 1.875
-27.975 -9.975 0.975
-27.975 -9.975 0.525
-27.975 -9.975 0.825
-27.975 -9.975 1.425
-27.975 -9.975 1.725
-30.675 -11.175 1.275
-30.675 -11.175 0.825
-28.725 -9.525 -2.175
-28.725 -9.525 2.175
-30.675 -10.875 8.175
-30.675 -10.875 0.975
-28.125 -9.825 0.825
-28.125 -9.825 -1.425
-29.625 -12.525 2.625
-29.625 -12.525 2.175
-28.275 -12.375 1.125
-28.275 -12.375 0.975
-30.675 -11.325 2.025
-30.675 -11.325 2.175
-27.825 -10.125 2.325
-27.825 -10.125 1.125
-27.825 -10.125 1.575
-29.925 -9.675 1.875
-29.925 -9.675 -2.325
-30.525 -11.775 0.975
-30.525 -11.775 0.825
-30.525 -11.775 -0.525
-28.575 -9.525 2.325
-28.575 -9.525 0.825
-28.575 -9.525 2.025
-28.575 -9.525 0.675
-28.575 -9.525 1.125
-28.575 -9.525 -3.225
-30.675 -11.475 -1.275
-30.675 -11.475 2.025
-30.675 -11.475 2.175
-30.225 -12.225 1.275
-30.225 -12.225 2.475
-30.225 -12.225 0.675
-30.225 -12.225 2.325
-29.775 -12.525 1.125
-29.775 -12.525 2.625
-29.775 -12.525 1.425
-30.675 -10.575 1.275
-30.375 -12.075 1.575
-30.375 -12.075 1.275
-27.675 -10.275 1.725
-27.675 -10.275 -0.675
-29.175 -12.675 0.825
-29.175 -12.675 3.225
-29.025 -12.675 1.575
-29.025 -12.675 1.275
-28.425 -12.525 -0.075
-30.075 -12.375 2.475
-27.975 -12.225 1.275
-27.975 -12.225 6.675
-29.325 -12.675 0.075
-29.325 -12.675 0.675
-29.325 -12.675 2.025
-30.375 -9.975 8.025
-30.375 -9.975 2.475
-30.375 -9.975 1.725
-29.775 -9.525 2.625
-29.775 -9.525 2.475
-29.775 -9.525 2.025
-30.525 -11.925 2.325
-30.525 -11.925 1.275
-28.125 -12.375 0.525
-28.125 -12.375 1.275
-28.425 -9.525 2.625
-28.425 -9.525 2.025
-29.175 -9.375 2.025
-29.175 -9.375 2.475
-29.175 -9.375 2.775
-30.075 -9.675 1.725
-30.075 -9.675 5.025
-27.975 -9.825 0.825
-27.975 -9.825 0.975
-27.975 -9.825 0.675
-27.975 -9.825 1.725
-29.025 -9.375 2.475
-29.025 -9.375 1.425
-27.825 -9.975 1.425
-27.825 -9.975 1.125
-27.825 -9.975 0.975
-29.325 -9.375 2.775
-29.325 -9.375 1.875
-28.725 -12.675 0.675
-29.925 -12.525 1.875
-29.475 -9.375 3.225
-29.475 -9.375 1.875
-29.475 -9.375 -1.875
-28.275 -12.525 2.025
-28.275 -12.525 0.675
-28.275 -12.525 0.975
-28.725 -9.375 0.075
-28.725 -9.375 0.525
-28.725 -9.375 0.825
-29.625 -12.675 -0.225
-30.825 -11.175 1.275
-29.925 -9.525 1.875
-29.925 -9.525 2.025
-29.925 -9.525 -1.575
-29.925 -9.525 1.425
-28.575 -12.675 1.875
-28.575 -12.675 1.425
-30.675 -11.775 2.325
-30.675 -11.775 1.725
-30.375 -12.225 2.025
-30.375 -12.225 1.125
-30.375 -12.225 1.875
-30.375 -12.225 0.975
-30.225 -12.375 1.875
-30.225 -12.375 2.325
-30.225 -12.375 0.225
-30.675 -10.275 2.175
-29.625 -9.375 2.325
-30.525 -12.075 2.925
-30.525 -12.075 1.425
-30.525 -12.075 2.325
-30.375 -9.825 1.275
-28.575 -9.375 0.825
-28.575 -9.375 2.025
-27.825 -12.225 -2.175
-27.825 -12.225 1.125
-27.975 -12.375 0.525
-27.975 -12.375 1.125
-30.225 -9.675 1.425
-29.775 -12.675 1.425
-29.775 -12.675 2.175
-30.075 -12.525 0.075
-30.075 -12.525 2.325
-30.825 -10.575 2.025
-30.825 -10.575 2.325
-27.825 -9.825 1.425
-27.825 -9.825 0.975
-27.825 -9.825 0.675
-28.425 -12.675 -0.225
-28.425 -12.675 1.425
-28.425 -12.675 1.725
-27.975 -9.675 0.525
-27.975 -9.675 0.825
-29.175 -12.825 0.675
-29.175 -12.825 1.125
-29.175 -12.825 1.275
-29.175 -12.825 1.875
-29.175 -12.825 1.575
-28.125 -12.525 0.825
-28.125 -12.525 0.525
-29.025 -12.825 0.675
-29.025 -12.825 1.875
-29.025 -12.825 0.525
-29.775 -9.375 2.325
-30.675 -11.925 1.725
-30.075 -9.525 1.575
-27.675 -9.975 0.825
-29.325 -12.825 0.375
-29.325 -12.825 2.475
-29.325 -12.825 1.875
-28.875 -12.825 -1.725
-28.875 -12.825 0.975
-28.425 -9.375 0.825
-30.825 -11.625 -0.525
-30.675 -10.125 2.025
-30.825 -10.425 2.175
-30.825 -10.425 1.125
-29.475 -12.825 0.075
-29.925 -12.675 1.575
-28.875 -9.225 0.375
-28.875 -9.225 2.625
-28.875 -9.225 1.575
-30.375 -12.375 1.425
-30.375 -12.375 1.275
-30.375 -12.375 0.525
-27.525 -10.125 2.025
-28.275 -12.675 0.825
-28.275 -12.675 1.875
-28.275 -12.675 0.675
-30.525 -12.225 1.575
-30.525 -12.225 0.975
-30.525 -12.225 1.425
-30.525 -12.225 1.725
-29.475 -9.225 1.425
-29.925 -9.375 1.875
-30.225 -12.525 -0.375
-30.225 -12.525 1.425
-30.225 -12.525 1.125
-29.625 -12.825 2.475
-28.575 -12.825 2.625
-28.575 -12.825 2.025
-28.275 -9.375 1.575
-30.675 -12.075 1.425
-30.675 -12.075 2.325
-30.675 -12.075 1.275
-30.225 -9.525 1.725
-30.975 -11.325 2.175
-27.825 -9.675 0.975
-27.825 -9.675 1.125
-27.825 -9.675 0.825
-27.825 -9.675 0.525
-30.975 -10.725 2.325
-27.675 -9.825 0.975
-27.675 -9.825 1.725
-27.675 -9.825 1.125
-28.575 -9.225 1.275
-28.575 -9.225 -0.825
-28.575 -9.225 2.025
-28.575 -9.225 -0.375
-27.975 -9.525 1.125
-27.975 -9.525 0.975
-29.775 -12.825 0.075
-29.775 -12.825 2.775
-27.375 -10.275 0.525
-28.125 -12.675 0.825
-28.425 -12.825 1.875
-28.425 -12.825 0.525
-28.425 -12.825 1.725
-30.975 -10.575 1.725
-27.525 -9.975 2.475
-30.825 -11.925 0.075
-29.775 -9.225 2.625
-29.175 -12.975 1.725
-29.175 -12.975 1.875
-29.025 -12.975 0.675
-30.525 -12.375 0.975
-30.525 -12.375 1.275
-30.525 -12.375 1.575
-30.525 -12.375 0.675
-28.425 -9.225 1.575
-28.425 -9.225 0.675
-29.325 -12.975 0.225
-29.325 -12.975 2.175
-30.375 -12.525 1.575
-28.875 -12.975 1.125
-30.675 -12.225 2.325
-29.925 -12.825 1.275
-30.525 -9.675 0.975
-30.525 -9.675 0.825
-29.475 -12.975 2.325
-27.375 -10.125 -3.225
-27.825 -12.525 5.775
-27.825 -12.525 -3.525
-27.825 -12.525 1.425
-27.825 -12.525 1.725
-30.375 -9.525 2.175
-30.375 -9.525 1.725
-30.375 -9.525 1.275
-28.275 -12.825 1.875
-28.275 -12.825 0.675
-28.725 -12.975 1.575
-30.225 -12.675 1.425
-29.325 -9.075 0.525
-29.325 -9.075 -0.675
-29.325 -9.075 1.575
-28.875 -9.075 2.325
-27.675 -9.675 0.075
-27.675 -9.675 0.975
-27.675 -9.675 1.125
-29.925 -9.225 1.125
-27.825 -9.525 0.675
-27.825 -9.525 0.375
-27.825 -9.525 0.975
-27.825 -9.525 -0.075
-27.975 -12.675 0.975
-27.975 -12.675 1.125
-27.975 -12.675 1.275
-30.825 -12.075 1.425
-29.475 -9.075 -0.375
-29.625 -12.975 2.475
-29.625 -12.975 0.075
-28.275 -9.225 -1.125
-28.275 -9.225 2.175
-27.525 -9.825 1.125
-28.725 -9.075 2.025
-31.125 -11.025 1.575
-31.125 -11.025 -1.125
-31.125 -11.025 2.325
-30.975 -10.275 3.525
-31.125 -11.175 2.025
-31.125 -10.875 2.475
-31.125 -10.875 1.575
-27.975 -9.375 0.825
-27.975 -9.375 1.275
-27.975 -9.375 0.675
-30.075 -12.825 0.225
-31.125 -11.325 1.875
-31.125 -11.325 -1.275
-29.625 -9.075 1.275
-31.125 -10.725 2.325
-31.125 -10.725 1.275
-28.575 -9.075 1.125
-28.575 -9.075 0.975
-28.575 -9.075 0.675
-28.575 -9.075 0.825
-28.575 -9.075 1.275
-28.125 -12.825 0.525
-27.375 -9.975 1.425
-29.775 -12.975 2.475
-30.525 -12.525 0.525
-30.525 -12.525 1.575
-30.525 -12.525 2.475
-30.525 -12.525 0.675
-30.675 -12.375 -3.075
-30.075 -9.225 -1.425
-31.125 -11.475 1.725
-31.125 -11.475 -0.975
-31.125 -10.575 0.825
-31.125 -10.575 1.725
-30.525 -9.525 1.725
-30.525 -9.525 0.975
-28.125 -9.225 2.325
-27.675 -12.525 0.375
-27.675 -12.525 0.975
-30.975 -10.125 2.475
-30.975 -10.125 2.175
-30.675 -9.675 1.875
-27.525 -12.375 6.225
-28.425 -9.075 1.125
-28.425 -9.075 0.375
-28.425 -9.075 0.075
-28.425 -9.075 0.675
-27.825 -12.675 2.775
-29.175 -13.125 0.825
-29.175 -13.125 0.675
-29.175 -13.125 2.325
-29.175 -13.125 0.075
-29.025 -13.125 0.675
-29.025 -13.125 2.025
-30.375 -9.375 0.375
-27.675 -9.525 0.825
-27.675 -9.525 1.275
-27.675 -9.525 0.975
-29.325 -13.125 2.475
-29.325 -13.125 2.925
-29.325 -13.125 0.675
-29.325 -13.125 0.375
-30.825 -9.825 2.175
-30.825 -9.825 -1.275
-27.525 -9.675 0.825
-28.875 -13.125 2.175
-28.875 -13.125 0.675
-28.875 -13.125 0.225
-30.225 -12.825 0.825
-30.225 -12.825 1.275
-27.825 -9.375 0.375
-27.825 -9.375 0.675
-28.275 -12.975 1.425
-28.275 -12.975 1.725
-29.475 -13.125 0.075
-29.475 -13.125 -0.225
-29.025 -8.925 2.475
-29.025 -8.925 2.325
-29.025 -8.925 1.725
-27.975 -12.825 1.875
-29.325 -8.925 1.275
-30.975 -12.075 1.725
-30.975 -12.075 1.275
-30.225 -9.225 1.725
-30.225 -9.225 -1.275
-28.875 -8.925 1.575
-28.875 -8.925 2.775
-31.125 -11.775 2.625
-31.125 -11.775 1.575
-28.275 -9.075 1.725
-28.275 -9.075 0.375
-29.475 -8.925 -1.575
-31.125 -10.275 1.575
-28.725 -8.925 0.525
-28.725 -8.925 0.825
-28.725 -8.925 2.175
-28.725 -8.925 -1.125
-30.675 -12.525 0.975
-30.675 -12.525 1.275
-30.675 -12.525 -0.825
-28.575 -13.125 0.525
-28.575 -13.125 0.825
-30.525 -12.675 1.425
-31.275 -11.175 2.325
-31.275 -10.875 2.325
-30.675 -9.525 1.725
-30.675 -9.525 2.925
-28.125 -12.975 0.675
-28.125 -12.975 1.875
-28.125 -12.975 1.725
-31.275 -11.325 2.325
-31.275 -10.725 1.425
-30.375 -12.825 1.575
-30.375 -12.825 1.125
-28.575 -8.925 0.825
-28.575 -8.925 1.275
-28.575 -8.925 -0.525
-29.775 -13.125 2.475
-29.775 -13.125 0.075
-30.825 -9.675 1.875
-28.425 -13.125 0.675
-27.525 -9.525 0.525
-31.275 -11.475 2.025
-28.125 -9.075 0.675
-28.125 -9.075 2.475
-27.675 -9.375 0.825
-27.675 -9.375 0.675
-27.675 -9.375 0.525
-27.675 -9.375 0.975
-30.975 -12.225 1.725
-27.825 -12.825 1.725
-31.125 -10.125 1.575
-30.375 -9.225 1.725
-30.375 -9.225 0.375
-27.375 -9.675 0.675
-27.375 -9.675 1.275
-28.425 -8.925 0.675
-27.825 -9.225 0.825
-27.825 -9.225 0.375
-27.825 -9.225 0.675
-30.225 -12.975 1.575
-29.175 -13.275 2.325
-29.175 -13.275 0.675
-29.175 -13.275 1.125
-29.175 -13.275 1.275
-29.175 -13.275 2.175
-31.275 -11.625 2.025
-29.025 -13.275 1.875
-29.025 -13.275 1.725
-29.025 -13.275 -1.575
-27.975 -12.975 0.825
-27.975 -12.975 1.875
-27.975 -12.975 1.125
-28.275 -13.125 1.125
-28.275 -13.125 2.625
-30.225 -9.075 0.525
-30.225 -9.075 1.875
-31.125 -12.075 1.725
-29.475 -13.275 2.325
-29.475 -13.275 0.825
-29.475 -13.275 1.125
-29.925 -8.925 1.275
-29.175 -8.775 2.775
-29.025 -8.775 2.475
-29.025 -8.775 1.725
-28.725 -13.275 0.525
-30.525 -12.825 1.125
-30.525 -12.825 1.575
-30.525 -12.825 0.975
-27.975 -9.075 0.825
-28.275 -8.925 1.725
-28.275 -8.925 1.575
-28.875 -8.775 1.575
-31.275 -11.775 2.025
-31.275 -11.775 1.425
-30.675 -9.375 0.975
-29.625 -13.275 2.175
-29.475 -8.775 1.125
-29.475 -8.775 1.425
-30.075 -13.125 3.075
-30.075 -13.125 1.725
-28.725 -8.775 2.175
-27.525 -9.375 1.575
-30.375 -12.975 1.425
-30.375 -12.975 1.575
-31.425 -11.025 2.025
-28.125 -13.125 1.875
-28.125 -13.125 1.425
-28.125 -13.125 1.125
-26.925 -11.775 1.575
-31.425 -10.875 1.425
-27.675 -9.225 0.975
-27.675 -9.225 0.675
-27.675 -9.225 0.525
-27.675 -9.225 1.275
-29.625 -8.775 1.275
-29.625 -8.775 1.125
-29.625 -8.775 3.075
-29.625 -8.775 1.425
-31.425 -10.725 1.275
-28.575 -8.775 0.825
-28.575 -8.775 0.675
-28.575 -8.775 1.125
-29.775 -13.275 0.075
-29.775 -13.275 -0.225
-31.125 -12.225 1.875
-28.125 -8.925 1.125
-31.275 -10.125 2.325
-31.425 -11.475 1.875
-27.825 -9.075 0.675
-27.825 -9.075 0.975
-27.825 -9.075 -0.225
-30.225 -13.125 1.725
-30.825 -12.675 3.075
-30.825 -12.675 2.025
-28.425 -8.775 0.675
-30.675 -12.825 2.175
-30.675 -12.825 1.425
-29.925 -13.275 1.425
-29.925 -13.275 2.025
-29.925 -13.275 1.725
-27.975 -13.125 2.325
-27.975 -13.125 2.025
-27.975 -13.125 5.175
-30.825 -9.375 1.425
-29.175 -13.425 0.825
-29.025 -13.425 0.675
-30.225 -8.925 1.875
-30.225 -8.925 2.175
-28.275 -13.275 1.275
-28.275 -13.275 0.975
-28.275 -13.275 2.175
-28.275 -13.275 0.825
-28.275 -13.275 1.725
-30.525 -12.975 2.175
-29.325 -13.425 0.675
-29.325 -13.425 2.175
-27.975 -8.925 0.825
-31.125 -12.375 2.475
-31.125 -12.375 1.875
-31.125 -12.375 2.025
-29.475 -13.425 2.175
-26.775 -11.625 0.675
-27.525 -9.225 0.975
-27.525 -9.225 0.825
-29.175 -8.625 1.725
-29.175 -8.625 2.475
-28.725 -13.425 -2.775
-28.725 -13.425 0.675
-28.275 -8.775 0.375
-28.275 -8.775 1.425
-28.275 -8.775 1.275
-28.275 -8.775 2.175
-29.025 -8.625 1.725
-30.525 -9.075 3.675
-26.925 -12.075 1.425
-28.875 -8.625 0.225
-30.075 -13.275 1.725
-31.425 -10.275 0.975
-31.425 -10.275 2.475
-30.375 -13.125 1.275
-30.375 -13.125 1.425
-30.375 -13.125 1.875
-27.675 -9.075 0.825
-27.675 -9.075 1.125
-29.475 -8.625 2.775
-29.475 -8.625 0.975
-29.475 -8.625 1.875
-29.475 -8.625 1.425
-28.125 -13.275 1.725
-28.575 -13.425 1.125
-28.725 -8.625 0.525
-28.725 -8.625 0.825
-27.825 -13.125 1.875
-30.075 -8.775 1.575
-30.375 -8.925 1.575
-30.375 -8.925 1.875
-30.375 -8.925 1.425
-31.275 -12.225 2.175
-31.275 -12.225 1.725
-31.275 -12.225 2.025
-31.575 -10.875 1.425
-31.575 -10.875 1.875
-26.775 -10.275 -1.125
-29.625 -8.625 1.275
-30.825 -12.825 2.175
-28.125 -8.775 -3.525
-28.125 -8.775 1.575
-28.125 -8.775 0.825
-29.775 -13.425 1.725
-29.775 -13.425 1.875
-29.775 -13.425 3.675
-28.575 -8.625 1.725
-28.575 -8.625 0.825
-31.275 -9.825 1.275
-31.575 -10.725 3.975
-31.575 -10.725 1.575
-27.825 -8.925 -0.075
-30.675 -12.975 0.825
-30.675 -12.975 4.125
-30.225 -13.275 3.075
-30.225 -13.275 0.825
-30.225 -13.275 0.675
-31.575 -11.475 1.875
-31.575 -10.575 1.575
-29.775 -8.625 1.425
-29.775 -8.625 2.475
-27.525 -12.975 2.325
-31.125 -9.525 1.575
-30.525 -13.125 1.125
-30.525 -13.125 2.175
-29.925 -13.425 1.425
-29.925 -13.425 1.725
-29.925 -13.425 1.125
-30.225 -8.775 1.575
-31.575 -11.625 1.875
-28.275 -13.425 0.975
-28.275 -13.425 1.275
-28.275 -13.425 -0.675
-31.425 -12.075 1.425
-27.525 -9.075 0.375
-27.525 -9.075 0.675
-27.525 -9.075 1.125
-27.525 -9.075 0.825
-29.175 -13.575 1.725
-29.175 -13.575 1.125
-29.175 -13.575 0.675
-27.975 -8.775 0.375
-30.525 -8.925 1.725
-27.075 -9.525 2.025
-29.325 -13.575 0.375
-28.875 -13.575 0.375
-31.275 -9.675 1.575
-29.475 -13.575 -0.375
-29.475 -13.575 2.025
-27.675 -8.925 0.975
-27.675 -8.925 -0.075
-27.675 -8.925 0.525
-27.675 -8.925 0.225
-27.675 -8.925 0.675
-26.775 -12.075 0.675
-30.375 -13.275 1.425
-30.375 -13.275 2.025
-30.375 -13.275 0.825
-29.175 -8.475 2.925
-29.175 -8.475 1.125
-29.175 -8.475 1.425
-29.025 -8.475 2.025
-30.075 -13.425 1.725
-29.325 -8.475 -0.825
-29.325 -8.475 2.475
-29.325 -8.475 3.525
-28.875 -8.475 0.075
-30.825 -12.975 2.025
-27.825 -13.275 1.275
-28.125 -13.425 1.275
-28.125 -13.425 0.825
-28.125 -13.425 1.425
-28.125 -13.425 0.975
-29.625 -13.575 2.025
-31.125 -12.675 1.875
-31.125 -12.675 1.725
-29.475 -8.475 0.975
-29.475 -8.475 1.725
-30.375 -8.775 1.575
-31.425 -12.225 3.375
-28.725 -8.475 2.325
-30.075 -8.625 2.175
-30.075 -8.625 1.875
-30.075 -8.625 1.425
-27.825 -8.775 1.125
-27.825 -8.775 1.875
-27.825 -8.775 0.975
-31.425 -9.825 -1.275
-28.125 -8.625 2.175
-28.125 -8.625 2.325
-28.125 -8.625 0.525
-29.625 -8.475 1.275
-29.625 -8.475 1.875
-31.275 -12.525 1.725
-28.575 -8.475 1.125
-28.575 -8.475 0.825
-28.575 -8.475 2.325
-31.725 -11.325 0.975
-31.725 -11.325 1.875
-30.675 -8.925 1.275
-28.425 -13.575 1.125
-30.225 -13.425 0.975
-30.225 -13.425 1.125
-30.225 -13.425 1.725
-30.225 -13.425 0.075
-26.775 -9.825 0.825
-30.525 -13.275 0.975
-30.525 -13.275 1.425
-30.525 -13.275 4.125
-27.975 -13.425 1.725
-27.975 -13.425 1.275
-27.525 -8.925 0.525
-27.525 -8.925 0.975
-27.525 -8.925 1.275
-27.525 -8.925 0.225
-26.925 -12.525 1.425
-29.775 -8.475 1.275
-29.775 -8.475 2.475
-29.775 -8.475 1.575
-28.425 -8.475 1.275
-28.425 -8.475 2.025
-30.225 -8.625 1.425
-27.675 -13.275 1.425
-29.925 -13.575 3.525
-29.925 -13.575 1.575
-29.925 -13.575 1.725
-31.425 -12.375 2.025
-31.575 -12.075 -3.225
-31.575 -12.075 -2.325
-30.525 -8.775 -0.225
-28.275 -13.575 -0.075
-28.275 -13.575 1.125
-28.275 -13.575 1.275
-31.725 -10.425 2.775
-30.975 -12.975 2.025
-30.975 -12.975 2.325
-29.175 -13.725 1.875
-29.175 -13.725 1.275
-29.175 -13.725 2.325
-27.675 -8.775 0.975
-27.675 -8.775 2.325
-29.025 -13.725 0.675
-29.025 -13.725 1.275
-31.125 -12.825 1.875
-30.825 -13.125 2.025
-28.875 -13.725 -0.525
-28.875 -13.725 0.675
-30.375 -13.425 1.425
-30.375 -13.425 1.875
-30.375 -13.425 0.675
-28.275 -8.475 0.675
-28.275 -8.475 0.825
-28.275 -8.475 1.725
-26.475 -11.625 0.675
-31.275 -12.675 -1.125
-30.075 -13.575 1.425
-30.075 -13.575 -0.825
-30.075 -13.575 1.275
-27.825 -13.425 1.425
-28.725 -13.725 0.075
-29.175 -8.325 5.025
-29.175 -8.325 0.525
-27.375 -13.125 1.575
-29.025 -8.325 1.725
-29.025 -8.325 2.325
-28.125 -13.575 1.125
-28.125 -13.575 0.675
-28.125 -13.575 -0.675
-30.375 -8.625 1.875
-30.375 -8.625 2.175
-30.375 -8.625 1.575
-30.375 -8.625 2.775
-29.325 -8.325 2.325
-30.675 -13.275 2.475
-30.675 -13.275 1.875
-30.675 -13.275 1.575
-30.675 -13.275 1.275
-28.875 -8.325 -1.275
-27.075 -9.225 0.375
-30.075 -8.475 1.275
-29.475 -8.325 1.875
-28.575 -13.725 1.575
-27.825 -8.625 2.475
-27.825 -8.625 1.875
-27.825 -8.625 1.575
-27.825 -8.625 1.125
-27.375 -8.925 -0.225
-27.375 -8.925 0.825
-28.725 -8.325 1.575
-28.725 -8.325 2.475
-31.425 -12.525 1.575
-30.675 -8.775 1.875
-28.125 -8.475 2.475
-28.125 -8.475 0.225
-29.625 -8.325 0.975
-29.775 -13.725 1.575
-30.225 -13.575 1.425
-30.225 -13.575 1.875
-30.225 -13.575 1.125
-27.525 -8.775 1.275
-27.525 -8.775 0.075
-27.525 -8.775 0.825
-28.575 -8.325 2.925
-30.525 -13.425 2.025
-30.525 -13.425 1.425
-28.425 -13.725 1.125
-27.975 -13.575 1.425
-31.125 -12.975 2.025
-30.975 -13.125 2.025
-29.775 -8.325 1.275
-29.775 -8.325 2.625
-29.775 -8.325 -0.975
-30.225 -8.475 2.175
-30.225 -8.475 1.875
-26.325 -10.875 0.225
-26.325 -10.875 2.625
-31.275 -12.825 2.175
-31.275 -12.825 -0.525
-28.425 -8.325 1.275
-28.425 -8.325 0.825
-29.925 -13.725 0.375
-29.925 -13.725 1.725
-27.975 -8.475 2.325
-30.825 -13.275 1.725
-30.825 -13.275 2.175
-27.675 -8.625 0.075
-27.675 -8.625 1.125
-28.275 -13.725 1.425
-28.275 -13.725 1.125
-28.275 -13.725 1.275
-28.275 -13.725 1.725
-28.275 -13.725 0.675
-31.875 -10.425 -1.875
-30.375 -13.575 2.325
-30.375 -13.575 1.425
-30.375 -13.575 1.875
-30.375 -13.575 0.375
-30.375 -13.575 1.275
-29.925 -8.325 2.625
-29.175 -13.875 1.125
-29.175 -13.875 4.725
-29.025 -13.875 0.675
-29.025 -13.875 0.975
-30.825 -8.775 2.625
-27.225 -8.925 0.375
-27.225 -8.925 1.275
-29.325 -13.875 0.825
-28.275 -8.325 0.675
-28.875 -13.875 0.975
-27.825 -13.575 1.425
-27.825 -13.575 1.125
-30.675 -13.425 1.575
-30.075 -13.725 1.275
-30.075 -13.725 0.825
-29.475 -13.875 0.825
-27.375 -8.775 1.875
-27.375 -8.775 0.375
-27.375 -8.775 1.125
-28.125 -13.725 0.525
-28.125 -13.725 -1.575
-28.125 -13.725 1.425
-28.125 -13.725 0.375
-29.175 -8.175 2.025
-29.025 -8.175 3.525
-29.025 -8.175 2.025
-31.575 -12.525 1.725
-27.825 -8.475 1.425
-27.825 -8.475 1.125
-27.825 -8.475 -0.975
-29.325 -8.175 0.675
-29.325 -8.175 1.875
-29.325 -8.175 1.425
-26.775 -9.375 0.375
-30.675 -8.625 -3.225
-30.675 -8.625 0.525
-28.875 -8.175 2.625
-29.475 -8.175 1.875
-28.125 -8.325 2.325
-28.125 -8.325 1.875
-28.725 -8.175 2.625
-27.525 -8.625 1.275
-27.525 -8.625 -0.375
-27.525 -8.625 0.225
-27.525 -8.625 1.125
-27.525 -8.625 0.825
-31.125 -13.125 1.725
-31.275 -12.975 1.725
-30.225 -13.725 1.275
-30.225 -13.725 3.375
-30.975 -13.275 2.325
-32.025 -11.025 2.175
-29.625 -8.175 1.125
-29.775 -13.875 1.575
-29.775 -13.875 -0.075
-32.025 -10.875 2.775
-28.575 -8.175 0.825
-28.575 -8.175 0.525
-31.425 -12.825 1.575
-31.425 -12.825 2.325
-27.975 -13.725 1.275
-28.425 -13.875 1.275
-28.425 -13.875 0.375
-31.275 -9.075 2.925
-27.225 -13.275 1.425
-30.225 -8.325 2.025
-30.225 -8.325 1.275
-29.775 -8.175 2.025
-27.675 -8.475 1.275
-27.975 -8.325 2.325
-27.975 -8.325 1.725
-27.975 -8.325 1.575
-28.425 -8.175 1.575
-28.425 -8.175 2.175
-31.575 -12.675 2.025
-31.575 -12.675 0.675
-27.375 -13.425 1.275
-28.275 -13.875 0.375
-28.275 -13.875 0.675
-30.825 -8.625 1.575
-30.375 -13.725 1.575
-30.375 -13.725 1.125
-30.675 -13.575 0.975
-30.675 -13.575 1.275
-29.925 -8.175 2.325
-27.375 -8.625 1.875
-27.375 -8.625 2.325
-27.375 -8.625 0.225
-27.375 -8.625 0.975
-29.175 -14.025 2.175
-29.175 -14.025 0.825
-28.275 -8.175 0.825
-28.275 -8.175 2.175
-28.275 -8.175 0.225
-28.275 -8.175 -0.075
-29.325 -14.025 1.275
-29.325 -14.025 2.025
-29.325 -14.025 0.825
-30.075 -13.875 2.175
-30.075 -13.875 1.425
-30.075 -13.875 1.275
-30.675 -8.475 1.725
-30.675 -8.475 2.775
-28.125 -13.875 0.375
-28.125 -13.875 1.125
-28.125 -13.875 0.525
-28.125 -13.875 1.425
-31.125 -13.275 2.325
-29.475 -14.025 3.075
-29.475 -14.025 0.525
-29.475 -14.025 0.975
-27.825 -8.325 1.275
-27.825 -8.325 1.425
-28.725 -14.025 -1.125
-28.725 -14.025 0.525
-31.425 -12.975 2.475
-29.175 -8.025 1.425
-29.175 -8.025 1.575
-27.525 -8.475 1.125
-27.525 -8.475 2.475
-27.525 -8.475 0.375
-27.525 -8.475 0.975
-30.075 -8.175 1.275
-31.275 -8.925 0.675
-29.325 -8.025 1.575
-29.325 -8.025 1.275
-31.125 -8.775 -0.675
-29.625 -14.025 0.225
-29.625 -14.025 1.275
-29.625 -14.025 0.675
-30.525 -13.725 2.475
-26.175 -11.775 0.375
-29.475 -8.025 1.275
-29.475 -8.025 1.425
-31.575 -12.825 2.025
-31.575 -12.825 0.675
-28.725 -8.025 0.975
-30.225 -13.875 1.425
-30.225 -13.875 0.975
-30.225 -13.875 -0.075
-30.225 -13.875 1.275
-27.225 -13.425 1.275
-27.675 -13.725 1.875
-30.525 -8.325 -0.225
-28.575 -8.025 2.775
-28.425 -14.025 -0.075
-30.225 -8.175 1.125
-26.175 -11.925 0.375
-27.675 -8.325 1.125
-26.625 -9.225 0.525
-27.975 -8.175 1.575
-27.975 -8.175 2.025
-27.975 -8.175 2.175
-29.925 -14.025 2.025
-29.925 -14.025 1.575
-27.375 -8.475 1.425
-27.375 -8.475 -0.375
-30.375 -13.875 1.275
-30.375 -13.875 0.225
-30.375 -13.875 0.675
-30.375 -13.875 1.125
-30.375 -13.875 1.425
-30.375 -13.875 0.975
-28.275 -14.025 0.525
-28.275 -14.025 -2.475
-31.425 -13.125 1.875
-27.825 -13.875 1.425
-31.125 -13.425 -0.375
-29.925 -8.025 2.475
-29.925 -8.025 2.625
-30.375 -8.175 1.425
-30.675 -8.325 4.125
-30.075 -14.025 1.125
-30.075 -14.025 0.675
-29.175 -14.175 1.875
-29.175 -14.175 1.425
-29.175 -14.175 -0.525
-29.175 -14.175 0.675
-32.025 -12.225 3.075
-29.325 -14.175 1.425
-30.975 -13.575 3.525
-30.975 -13.575 2.325
-30.975 -13.575 2.475
-27.825 -8.175 1.725
-27.825 -8.175 2.025
-28.125 -14.025 0.825
-28.125 -14.025 1.725
-28.125 -14.025 1.875
-28.125 -14.025 1.425
-28.125 -14.025 0.375
-28.125 -14.025 -0.225
-27.525 -8.325 1.125
-27.525 -8.325 2.475
-30.075 -8.025 -0.525
-30.075 -8.025 1.425
-30.525 -13.875 0.975
-29.175 -7.875 -1.875
-29.175 -7.875 1.575
-29.325 -7.875 1.275
-29.325 -7.875 1.575
-29.325 -7.875 0.975
-28.125 -8.025 0.525
-28.875 -7.875 1.275
-29.625 -14.175 0.075
-30.825 -13.725 1.275
-30.225 -14.025 1.425
-30.225 -14.025 1.275
-29.475 -7.875 1.275
-27.225 -8.475 1.425
-28.725 -7.875 3.375
-28.725 -7.875 2.775
-28.725 -7.875 -1.575
-29.775 -14.175 -0.525
-29.775 -14.175 0.075
-29.775 -14.175 0.525
-29.775 -14.175 1.275
-29.775 -14.175 1.125
-29.625 -7.875 1.275
-30.825 -8.325 4.425
-27.675 -8.175 2.325
-27.675 -8.175 1.725
-27.675 -8.175 1.875
-27.675 -8.175 1.125
-28.575 -7.875 1.275
-30.225 -8.025 1.575
-31.275 -13.425 2.475
-27.975 -8.025 2.175
-27.975 -8.025 -1.725
-27.975 -8.025 1.575
-27.975 -8.025 0.675
-27.375 -8.325 1.425
-27.375 -8.325 1.125
-27.375 -8.325 0.375
-27.375 -8.325 -0.225
-27.375 -8.325 2.175
-29.775 -7.875 2.625
-31.125 -13.575 2.175
-31.425 -8.775 0.975
-30.675 -13.875 0.975
-30.675 -13.875 0.675
-30.675 -13.875 -0.225
-30.675 -13.875 1.725
-29.925 -14.175 -0.225
-29.925 -14.175 -0.825
-29.925 -14.175 0.375
-29.925 -14.175 0.225
-29.925 -14.175 0.675
-29.925 -14.175 1.575
-30.375 -14.025 1.275
-30.375 -14.025 1.425
-30.375 -14.025 1.125
-31.575 -8.925 2.325
-28.275 -14.175 -0.075
-28.275 -14.175 0.825
-28.275 -14.175 0.375
-25.875 -10.725 -0.075
-26.925 -8.625 1.575
-29.925 -7.875 2.475
-30.375 -8.025 -1.125
-28.275 -7.875 -0.075
-28.275 -7.875 0.225
-28.275 -7.875 1.125
-28.275 -7.875 0.075
-25.875 -10.575 -1.575
-30.075 -14.175 1.275
-27.525 -8.175 1.125
-27.525 -8.175 1.425
-27.825 -8.025 1.575
-27.825 -8.025 0.675
-29.175 -14.325 0.675
-29.175 -14.325 2.025
-29.025 -14.325 0.675
-28.125 -14.175 0.225
-28.125 -14.175 0.075
-28.125 -14.175 -0.675
-28.125 -14.175 0.375
-28.125 -14.175 0.825
-29.325 -14.325 0.975
-29.325 -14.325 2.175
-25.875 -11.625 -0.225
-30.525 -14.025 0.525
-29.475 -14.325 -0.375
-30.075 -7.875 2.025
-30.075 -7.875 2.475
-28.725 -14.325 1.875
-30.825 -13.875 2.175
-27.225 -8.325 0.825
-29.175 -7.725 1.575
-29.175 -7.725 1.425
-29.025 -7.725 3.225
-29.025 -7.725 0.975
-28.125 -7.875 1.275
-28.125 -7.875 -0.675
-28.125 -7.875 0.675
-28.125 -7.875 2.325
-31.425 -13.425 2.475
-29.325 -7.725 1.575
-29.625 -14.325 1.875
-29.625 -14.325 1.275
-28.875 -7.725 0.675
-30.225 -14.175 0.975
-30.225 -14.175 1.575
-30.225 -14.175 1.425
-29.475 -7.725 1.875
-29.475 -7.725 1.575
-29.475 -7.725 1.275
-29.475 -7.725 1.725
-27.975 -14.175 0.375
-27.675 -8.025 0.375
-27.675 -8.025 1.875
-32.175 -9.675 2.025
-29.775 -14.325 0.225
-31.125 -13.725 2.625
-27.375 -8.175 1.725
-27.375 -8.175 1.125
-27.375 -8.175 3.075
-27.375 -8.175 0.975
-27.375 -8.175 1.425
-30.225 -7.875 1.575
-29.625 -7.725 1.275
-28.575 -7.725 0.225
-28.575 -7.725 2.175
-27.975 -7.875 1.725
-27.975 -7.875 0.525
-27.975 -7.875 1.875
-30.675 -14.025 1.575
-30.675 -14.025 1.125
-26.625 -8.775 0.525
-26.925 -8.475 0.675
-26.925 -8.475 2.325
-30.375 -14.175 1.275
-30.375 -14.175 1.875
-29.925 -14.325 0.675
-28.425 -7.725 2.475
-30.975 -13.875 -0.075
-30.975 -13.875 2.025
-28.275 -14.325 0.975
-30.375 -7.875 2.775
-27.525 -8.025 1.575
-27.525 -8.025 0.975
-27.525 -8.025 1.125
-29.925 -7.725 0.375
-29.925 -7.725 1.425
-29.925 -7.725 0.525
-30.975 -8.175 2.625
-27.825 -7.875 1.875
-27.825 -7.875 2.175
-27.825 -7.875 1.125
-28.275 -7.725 0.525
-28.275 -7.725 0.825
-28.125 -14.325 0.975
-28.125 -14.325 0.675
-27.225 -8.175 0.675
-27.225 -8.175 1.275
-27.225 -8.175 0.825
-29.175 -14.475 1.875
-29.025 -14.475 0.525
-30.525 -14.175 2.025
-30.525 -14.175 1.575
-30.525 -14.175 2.175
-30.525 -14.175 0.675
-30.825 -14.025 1.725
-30.825 -14.025 2.325
-30.825 -14.025 2.025
-29.325 -14.475 1.275
-29.325 -14.475 2.025
-25.875 -12.225 0.375
-29.475 -14.475 1.875
-29.475 -14.475 0.825
-29.475 -14.475 0.525
-31.725 -8.775 3.825
-28.725 -14.475 0.525
-28.125 -7.725 0.225
-28.125 -7.725 0.825
-29.175 -7.575 1.725
-29.175 -7.575 -0.675
-30.225 -14.325 1.125
-30.225 -14.325 1.425
-29.025 -7.575 3.225
-29.025 -7.575 -0.525
-26.775 -8.475 0.225
-28.875 -7.575 0.675
-28.875 -7.575 0.975
-27.975 -14.325 0.675
-27.975 -14.325 -0.075
-27.675 -7.875 1.125
-27.375 -8.025 2.175
-27.375 -8.025 0.675
-27.375 -8.025 0.975
-29.475 -7.575 1.875
-28.725 -7.575 -0.075
-26.925 -8.325 0.375
-30.225 -7.725 0.975
-29.775 -14.475 -1.425
-29.775 -14.475 2.475
-29.775 -14.475 0.975
-30.675 -14.175 0.975
-30.675 -14.175 1.725
-30.675 -14.175 1.425
-30.675 -14.175 2.475
-29.625 -7.575 1.275
-29.625 -7.575 -0.975
-29.625 -7.575 0.525
-28.425 -14.475 0.675
-27.975 -7.725 1.575
-27.975 -7.725 0.675
-28.575 -7.575 -0.075
-28.575 -7.575 3.075
-28.575 -7.575 1.575
-28.575 -7.575 2.925
-28.575 -7.575 0.075
-30.375 -14.325 1.125
-30.375 -14.325 1.275
-30.375 -14.325 1.575
-30.375 -14.325 0.975
-30.675 -7.875 1.425
-30.675 -7.875 2.025
-29.925 -14.475 2.625
-28.425 -7.575 3.225
-28.275 -14.475 0.825
-28.275 -14.475 1.125
-28.275 -14.475 0.375
-26.175 -9.075 0.675
-27.525 -7.875 1.275
-27.525 -7.875 1.575
-27.525 -7.875 2.175
-27.525 -7.875 0.975
-30.375 -7.725 2.175
-30.375 -7.725 1.275
-29.925 -7.575 2.625
-27.825 -7.725 2.175
-27.225 -8.025 0.525
-27.225 -8.025 1.575
-27.225 -8.025 1.275
-30.075 -14.475 1.725
-30.075 -14.475 -0.225
-28.275 -7.575 0.825
-25.575 -11.475 -0.675
-30.825 -14.175 1.725
-30.825 -14.175 2.325
-30.825 -14.175 2.025
-30.525 -14.325 0.675
-30.525 -14.325 1.575
-30.525 -14.325 1.275
-28.125 -14.475 -0.075
-28.125 -14.475 0.675
-28.125 -14.475 -0.675
-29.175 -14.625 0.825
-29.175 -14.625 1.875
-29.025 -14.625 0.525
-29.325 -14.625 1.425
-29.325 -14.625 2.325
-29.325 -14.625 -3.825
-29.325 -14.625 0.825
-29.325 -14.625 0.525
-29.325 -14.625 -1.725
-29.325 -14.625 1.875
-28.875 -14.625 0.375
-30.075 -7.575 1.425
-30.075 -7.575 1.725
-31.125 -14.025 2.925
-31.125 -14.025 1.875
-29.475 -14.625 2.175
-29.475 -14.625 1.275
-28.125 -7.575 0.825
-28.125 -7.575 -0.075
-28.125 -7.575 1.575
-28.125 -7.575 0.075
-30.225 -14.475 0.225
-30.225 -14.475 1.275
-30.225 -14.475 1.125
-27.375 -7.875 0.825
-27.375 -7.875 1.125
-27.375 -7.875 0.675
-29.175 -7.425 2.025
-29.025 -7.425 3.525
-29.025 -7.425 0.825
-29.325 -7.425 1.575
-28.875 -7.425 0.525
-28.875 -7.425 3.075
-28.575 -14.625 1.575
-29.475 -7.425 -2.025
-30.675 -14.325 1.725
-28.725 -7.425 2.925
-30.225 -7.575 1.575
-30.225 -7.575 2.475
-27.075 -8.025 2.175
-29.775 -14.625 2.775
-29.775 -14.625 2.325
-29.775 -14.625 3.075
-29.775 -14.625 1.125
-27.975 -7.575 1.425
-27.975 -7.575 0.675
-28.425 -14.625 0.975
-28.575 -7.425 1.725
-28.575 -7.425 2.925
-28.575 -7.425 1.575
-30.375 -14.475 1.275
-30.375 -14.475 1.125
-29.925 -14.625 -0.075
-29.925 -14.625 2.475
-29.925 -14.625 1.875
-29.775 -7.425 1.275
-29.775 -7.425 2.625
-28.275 -14.625 -0.525
-31.275 -14.025 1.575
-31.275 -14.025 1.875
-26.625 -8.325 -0.675
-30.375 -7.575 1.275
-27.225 -7.875 1.125
-27.225 -7.875 0.825
-27.825 -7.575 1.575
-27.825 -7.575 0.525
-30.825 -14.325 1.725
-30.825 -14.325 2.325
-30.825 -14.325 2.625
-29.925 -7.425 1.425
-30.075 -14.625 2.025
-30.525 -14.475 1.575
-30.525 -14.475 0.975
-28.275 -7.425 2.175
-32.175 -8.925 -2.775
-28.125 -14.625 0.975
-28.125 -14.625 1.275
-31.125 -14.175 4.575
-31.125 -14.175 1.875
-27.675 -14.475 2.325
-27.675 -14.475 3.225
-29.175 -14.775 1.275
-29.175 -14.775 0.825
-30.075 -7.425 1.875
-30.075 -7.425 1.425
-30.075 -7.425 1.575
-29.325 -14.775 2.175
-29.325 -14.775 0.975
-29.325 -14.775 1.875
-27.375 -7.725 1.725
-27.375 -7.725 0.225
-27.375 -7.725 0.975
-27.375 -7.725 0.675
-27.375 -7.725 -0.375
-28.125 -7.425 0.825
-28.125 -7.425 1.125
-29.475 -14.775 0.825
-29.475 -14.775 0.525
-29.475 -14.775 2.925
-30.225 -14.625 0.975
-30.225 -14.625 1.425
-30.225 -14.625 1.725
-28.725 -14.775 1.575
-27.975 -14.625 0.825
-27.975 -14.625 0.375
-27.975 -14.625 -1.425
-27.075 -7.875 0.675
-27.075 -7.875 0.975
-29.625 -14.775 -0.075
-29.325 -7.275 2.475
-30.675 -14.475 1.725
-31.425 -14.025 2.025
-28.875 -7.275 1.575
-28.575 -14.775 0.975
-32.025 -8.625 1.875
-30.225 -7.425 2.025
-29.475 -7.275 -0.975
-28.725 -7.275 1.725
-28.725 -7.275 1.575
-28.725 -7.275 1.425
-28.725 -7.275 2.175
-26.475 -8.325 0.225
-29.775 -14.775 2.625
-29.775 -14.775 2.475
-28.425 -14.775 1.275
-28.425 -14.775 0.975
-30.375 -14.625 1.125
-30.375 -14.625 0.675
-30.375 -14.625 1.425
-30.375 -14.625 -0.825
-30.375 -14.625 1.275
-29.625 -7.275 0.975
-29.625 -7.275 0.825
-28.575 -7.275 -0.825
-28.575 -7.275 2.025
-31.275 -14.175 1.725
-27.525 -7.575 0.675
-27.525 -7.575 0.525
-27.225 -7.725 -1.575
-27.225 -7.725 -0.075
-27.225 -7.725 0.225
-27.225 -7.725 0.675
-27.225 -7.725 0.825
-29.925 -14.775 3.525
-28.425 -7.275 3.975
-28.425 -7.275 1.725
-28.275 -14.775 0.825
-31.275 -7.875 2.175
-30.825 -14.475 0.675
-25.725 -9.225 1.875
-31.125 -14.325 1.875
-31.125 -14.325 2.025
-26.925 -7.875 2.175
-26.925 -7.875 0.225
-26.925 -7.875 1.275
-29.925 -7.275 1.425
-30.525 -14.625 0.225
-30.525 -14.625 1.425
-31.725 -13.875 1.725
-30.075 -14.775 -2.325
-28.275 -7.275 -0.075
-28.275 -7.275 0.825
-28.275 -7.275 0.525
-28.125 -14.775 0.975
-31.125 -7.725 2.025
-27.375 -7.575 1.125
-27.375 -7.575 0.825
-29.175 -14.925 1.275
-29.175 -14.925 1.875
-29.175 -14.925 1.125
-30.075 -7.275 0.525
-30.075 -7.275 0.675
-30.075 -7.275 1.425
-29.025 -14.925 0.825
-29.025 -14.925 0.675
-29.025 -14.925 2.025
-29.325 -14.925 1.275
-29.325 -14.925 0.825
-32.475 -9.075 2.925
-28.875 -14.925 1.875
-27.075 -7.725 0.825
-27.075 -7.725 0.525
-28.125 -7.275 1.875
-28.125 -7.275 0.825
-28.125 -7.275 0.075
-28.125 -7.275 2.325
-30.225 -14.775 1.425
-30.225 -14.775 1.575
-29.475 -14.925 -0.675
-29.475 -14.925 0.825
-30.975 -14.475 2.025
-30.975 -14.475 2.325
-27.975 -14.775 1.275
-27.975 -14.775 0.975
-26.625 -8.025 3.225
-29.175 -7.125 1.425
-29.175 -7.125 1.125
-29.325 -7.125 1.275
-28.875 -7.125 2.925
-28.875 -7.125 -0.975
-28.875 -7.125 1.425
-29.475 -7.125 0.675
-27.975 -7.275 -2.475
-27.975 -7.275 1.875
-29.775 -14.925 -0.225
-30.375 -14.775 1.425
-30.375 -14.775 1.575
-28.425 -14.925 1.125
-28.425 -14.925 0.825
-28.425 -14.925 0.975
-29.625 -7.125 0.225
-27.225 -7.575 0.525
-27.825 -14.775 6.825
-28.575 -7.125 1.425
-29.925 -14.925 0.825
