# .PCD v0.7 - Point Cloud Data file format
VERSION 0.7
FIELDS x y z
SIZE 4 4 4
TYPE F F F
COUNT 1 1 1
WIDTH 2048
HEIGHT 1
VIEWPOINT 0 0 0 1 0 0 0
POINTS 2048
DATA ascii
-6.975 -13.725 2.175
-6.975 -14.025 2.925
-7.125 -13.725 2.475
-7.125 -13.425 1.125
-7.125 -14.475 3.825
-7.425 -13.725 4.425
-6.825 -14.925 1.725
-5.475 -14.175 1.875
-7.725 -14.025 1.275
-7.875 -13.275 3.975
-8.025 -14.175 -2.475
-7.875 -12.975 2.025
-8.175 -14.025 1.275
-8.025 -13.125 1.425
-6.675 -15.675 3.825
-8.325 -14.175 0.975
-6.825 -15.675 4.125
-8.025 -12.825 1.875
-7.875 -15.225 3.075
-7.875 -15.225 -2.775
-8.025 -15.075 -3.075
-8.325 -14.625 2.625
-8.475 -13.875 -0.075
-7.425 -15.675 2.325
-7.725 -15.525 -3.675
-7.275 -15.825 2.325
-5.625 -15.825 2.325
-8.625 -13.425 2.775
-7.575 -15.825 2.175
-8.175 -15.375 3.375
-6.525 -16.125 4.275
-8.775 -14.325 2.025
-8.925 -13.575 2.925
-8.925 -14.175 1.725
-8.025 -15.825 2.325
-5.925 -16.275 2.325
-8.325 -15.675 3.375
-9.075 -14.025 -2.475
-6.825 -16.425 -1.425
-8.175 -15.975 2.475
-9.075 -12.975 2.625
-5.025 -16.125 1.425
-8.775 -15.375 1.425
-5.025 -16.275 2.175
-8.925 -15.525 1.725
-5.625 -16.725 2.775
-5.625 -16.725 2.925
-6.675 -16.875 -0.675
-9.075 -15.525 1.875
-8.025 -16.575 2.025
-8.475 -16.275 2.325
-9.375 -15.075 2.625
-8.925 -15.825 -1.275
-9.525 -13.125 2.025
-7.275 -16.875 2.025
-5.325 -16.725 1.875
-6.525 -17.025 -2.925
-4.875 -16.575 2.475
-9.675 -14.325 2.025
-5.925 -17.025 3.375
-8.475 -16.425 -3.375
-5.325 -16.875 1.875
-8.325 -16.575 -2.325
-9.225 -15.675 2.025
-9.225 -15.675 1.575
-6.525 -17.175 -0.975
-6.525 -17.175 2.625
-6.825 -17.175 -1.875
-8.325 -16.725 3.075
-9.825 -13.125 2.325
-4.875 -16.875 1.875
-8.175 -16.875 -2.025
-5.175 -17.025 1.275
-5.175 -17.025 1.125
-9.375 -15.825 1.425
-4.575 -16.725 2.925
-5.475 -17.175 1.575
-9.675 -15.375 2.025
-8.925 -16.425 2.175
-5.325 -17.175 1.575
-9.225 -16.125 1.275
-4.875 -17.025 2.775
-9.975 -14.775 2.175
-6.525 -17.475 3.075
-9.975 -14.925 2.475
-9.075 -16.425 2.325
-9.225 -16.275 2.175
-9.225 -16.275 0.975
-4.725 -17.025 1.875
-10.125 -14.325 0.975
-8.625 -16.875 1.425
-9.975 -15.225 2.475
-9.975 -15.225 0.375
-10.125 -14.775 2.025
-10.125 -14.775 1.725
-9.075 -16.575 2.175
-8.925 -16.725 2.625
-8.025 -17.325 -2.175
-9.975 -15.375 1.275
-6.825 -17.625 1.725
-6.825 -17.625 -1.125
-8.625 -17.025 -1.575
-8.625 -17.025 1.425
-9.675 -15.975 6.975
-7.125 -17.625 1.575
-9.225 -16.575 1.275
-8.475 -17.175 -1.275
-8.475 -17.175 1.425
-5.625 -17.625 4.425
-8.775 -17.025 -1.275
-4.275 -17.025 0.825
-9.975 -15.675 2.025
-6.525 -17.775 2.475
-6.825 -17.775 -2.325
-6.825 -17.775 1.725
-9.825 -15.975 2.025
-9.375 -16.575 1.575
-9.075 -16.875 1.125
-9.075 -16.875 2.025
-7.125 -17.775 1.725
-8.925 -17.025 1.725
-10.125 -15.525 2.025
-10.125 -15.525 0.225
-8.475 -17.325 1.425
-8.475 -17.325 1.275
-9.825 -16.125 2.775
-10.125 -15.675 1.725
-4.725 -17.475 -0.225
-9.225 -16.875 -0.825
-9.225 -16.875 2.175
-8.625 -17.325 1.875
-10.275 -15.375 3.075
-10.275 -15.375 2.775
-6.525 -17.925 1.875
-9.075 -17.025 1.575
-9.075 -17.025 1.725
-9.075 -17.025 1.275
-9.075 -17.025 2.025
-6.375 -17.925 1.875
-6.675 -17.925 1.875
-6.375 -17.925 1.425
-6.975 -17.925 1.725
-8.925 -17.175 1.425
-8.925 -17.175 2.475
-8.925 -17.175 1.725
-10.125 -15.825 1.575
-10.275 -15.525 2.625
-8.775 -17.325 1.275
-8.775 -17.325 1.575
-8.775 -17.325 2.175
-7.275 -17.925 1.725
-10.425 -15.225 1.725
-9.225 -17.025 1.875
-9.225 -17.025 1.575
-8.625 -17.475 1.725
-9.075 -17.175 1.575
-9.075 -17.175 3.075
-9.075 -17.175 1.275
-9.075 -17.175 2.175
-10.425 -15.375 1.575
-6.525 -18.075 1.125
-8.925 -17.325 1.425
-8.925 -17.325 -2.475
-6.375 -18.075 1.125
-6.825 -18.075 2.025
-6.825 -18.075 1.425
-6.225 -18.075 1.425
-10.425 -15.525 1.275
-7.125 -18.075 2.025
-9.525 -16.875 1.875
-8.775 -17.475 1.425
-9.675 -16.725 1.125
-9.825 -16.575 4.125
-9.225 -17.175 1.875
-5.175 -17.925 3.375
-9.075 -17.325 2.025
-9.075 -17.325 1.425
-10.425 -15.675 1.725
-10.275 -15.975 1.275
-10.575 -15.375 1.575
-10.575 -15.375 1.275
-8.925 -17.475 1.125
-8.925 -17.475 2.025
-8.925 -17.475 2.175
-10.725 -14.925 2.775
-6.675 -18.225 1.275
-10.425 -15.825 2.475
-10.425 -15.825 1.725
-10.425 -15.825 2.025
-9.825 -16.725 2.175
-9.375 -17.175 2.625
-6.825 -18.225 2.025
-5.325 -18.075 -4.275
-10.575 -15.525 1.125
-8.775 -17.625 1.425
-6.975 -18.225 2.325
-9.225 -17.325 2.025
-7.125 -18.225 2.175
-7.125 -18.225 3.975
-5.925 -18.225 -4.575
-9.075 -17.475 2.175
-5.775 -18.225 -4.275
-10.575 -15.675 0.675
-10.725 -15.375 2.025
-8.025 -18.075 1.125
-9.375 -17.325 0.075
-9.975 -16.725 1.275
-10.575 -15.825 1.875
-4.575 -17.925 2.625
-9.225 -17.475 2.625
-6.375 -18.375 2.175
-6.975 -18.375 0.375
-6.975 -18.375 2.775
-7.125 -18.375 2.475
-7.125 -18.375 3.075
-10.875 -15.225 1.725
-10.575 -15.975 2.175
-9.675 -17.175 1.575
-10.725 -15.675 1.575
-9.975 -16.875 0.825
-4.125 -17.775 1.725
-7.425 -18.375 2.625
-9.375 -17.475 -1.275
-10.875 -15.375 2.175
-10.875 -15.375 1.725
-8.025 -18.225 2.325
-7.575 -18.375 0.525
-6.675 -18.525 1.875
-6.375 -18.525 1.725
-6.375 -18.525 2.475
-8.175 -18.225 2.475
-8.175 -18.225 5.475
-8.175 -18.225 1.725
-7.725 -18.375 -2.925
-9.075 -17.775 3.375
-6.225 -18.525 1.875
-3.975 -17.775 1.575
-9.825 -17.175 1.875
-6.975 -18.525 2.475
-6.975 -18.525 2.325
-9.675 -17.325 1.725
-10.125 -16.875 1.125
-7.125 -18.525 2.025
-5.925 -18.525 1.725
-10.725 -15.975 2.925
-7.875 -18.375 2.325
-7.275 -18.525 2.925
-7.275 -18.525 2.325
-10.275 -16.725 0.675
-9.225 -17.775 2.325
-10.725 -16.125 1.575
-10.125 -17.025 1.125
-10.125 -17.025 2.175
-9.675 -17.475 2.325
-11.025 -15.525 1.725
-6.525 -18.675 2.325
-6.525 -18.675 1.725
-7.725 -18.525 2.325
-10.275 -16.875 0.975
-6.375 -18.675 1.725
-6.675 -18.675 2.625
-6.375 -18.675 2.325
-6.675 -18.675 1.725
-6.225 -18.675 1.725
-6.825 -18.675 1.875
-6.075 -18.675 1.875
-6.075 -18.675 1.725
-9.375 -17.775 1.425
-7.125 -18.675 2.025
-7.125 -18.675 0.075
-7.875 -18.525 -3.225
-11.325 -14.625 1.425
-7.275 -18.675 3.075
-7.275 -18.675 0.225
-5.775 -18.675 5.925
-7.275 -18.675 2.925
-5.775 -18.675 1.725
-9.225 -17.925 1.725
-9.975 -17.325 2.475
-11.325 -14.775 1.275
-8.475 -18.375 0.825
-9.075 -18.075 1.275
-11.325 -14.925 1.575
-7.575 -18.675 0.375
-8.175 -18.525 -3.675
-8.175 -18.525 0.525
-11.175 -15.525 2.025
-6.525 -18.825 1.725
-6.675 -18.825 1.875
-6.675 -18.825 3.225
-10.575 -16.725 1.575
-9.375 -17.925 2.625
-9.375 -17.925 1.575
-9.375 -17.925 2.325
-3.675 -17.925 2.775
-3.675 -17.925 1.875
-6.225 -18.825 1.575
-6.825 -18.825 1.725
-6.225 -18.825 2.625
-8.625 -18.375 -2.775
-6.075 -18.825 2.025
-5.925 -18.825 1.875
-9.225 -18.075 2.175
-9.225 -18.075 2.325
-9.225 -18.075 1.575
-9.225 -18.075 2.475
-9.825 -17.625 3.225
-10.275 -17.175 2.325
-9.675 -17.775 0.975
-9.675 -17.775 1.275
-7.425 -18.825 0.075
-5.625 -18.825 -3.675
-9.525 -17.925 2.025
-9.525 -17.925 1.275
-10.875 -16.425 0.975
-9.075 -18.225 1.275
-9.075 -18.225 4.875
-7.575 -18.825 3.225
-11.325 -15.525 2.325
-9.375 -18.075 2.325
-9.375 -18.075 2.025
-9.375 -18.075 2.625
-9.375 -18.075 2.175
-10.125 -17.475 1.425
-10.125 -17.475 1.575
-10.125 -17.475 2.775
-6.525 -18.975 1.575
-6.525 -18.975 2.325
-6.375 -18.975 2.175
-9.825 -17.775 1.725
-6.225 -18.975 2.025
-6.225 -18.975 2.175
-6.225 -18.975 1.875
-9.225 -18.225 1.575
-6.975 -18.975 1.575
-6.975 -18.975 1.725
-6.075 -18.975 2.025
-6.075 -18.975 1.875
-8.325 -18.675 -0.525
-10.575 -17.025 -3.375
-11.475 -15.225 1.275
-7.125 -18.975 3.075
-5.925 -18.975 1.725
-5.925 -18.975 2.175
-5.775 -18.975 0.375
-10.725 -16.875 1.725
-10.725 -16.875 2.025
-10.725 -16.875 1.575
-8.775 -18.525 -2.475
-8.775 -18.525 1.575
-10.275 -17.475 3.225
-10.275 -17.475 -1.575
-10.875 -16.725 1.425
-10.425 -17.325 2.475
-11.475 -15.525 2.175
-9.825 -17.925 0.975
-9.825 -17.925 1.425
-9.825 -17.925 1.575
-9.825 -17.925 1.725
-10.725 -17.025 1.875
-9.675 -18.075 2.625
-9.675 -18.075 2.925
-6.525 -19.125 1.725
-6.375 -19.125 1.875
-6.675 -19.125 1.725
-6.375 -19.125 2.175
-6.225 -19.125 1.725
-6.225 -19.125 -3.375
-7.875 -18.975 -0.075
-5.925 -19.125 1.875
-5.925 -19.125 1.425
-7.125 -19.125 2.475
-5.925 -19.125 2.025
-9.525 -18.225 1.725
-9.525 -18.225 1.575
-8.775 -18.675 -2.625
-10.275 -17.625 2.475
-7.275 -19.125 0.675
-10.425 -17.475 2.475
-8.025 -18.975 2.625
-8.475 -18.825 0.825
-8.475 -18.825 1.125
-9.375 -18.375 1.725
-11.025 -16.725 1.125
-10.725 -17.175 1.725
-11.325 -16.275 1.425
-8.925 -18.675 0.975
-9.675 -18.225 2.325
-9.675 -18.225 2.175
-8.625 -18.825 1.575
-8.625 -18.825 2.775
-8.625 -18.825 0.975
-8.625 -18.825 3.225
-6.525 -19.275 1.125
-6.675 -19.275 2.475
-6.675 -19.275 1.725
-6.675 -19.275 1.425
-6.375 -19.275 1.275
-6.825 -19.275 -3.375
-6.825 -19.275 2.325
-6.225 -19.275 1.725
-6.225 -19.275 0.975
-11.025 -16.875 1.125
-9.525 -18.375 2.625
-9.525 -18.375 2.325
-6.975 -19.275 2.175
-6.075 -19.275 1.725
-10.125 -17.925 1.875
-11.775 -15.225 2.325
-5.925 -19.275 1.425
-7.125 -19.275 2.625
-9.975 -18.075 1.125
-9.975 -18.075 2.025
-9.075 -18.675 0.975
-9.075 -18.675 0.825
-8.775 -18.825 6.225
-8.775 -18.825 0.975
-9.375 -18.525 1.575
-11.175 -16.725 1.575
-9.825 -18.225 6.675
-8.475 -18.975 1.125
-5.625 -19.275 -3.825
-9.675 -18.375 2.025
-9.675 -18.375 2.475
-11.775 -15.525 2.175
-8.175 -19.125 -0.225
-9.225 -18.675 0.525
-9.225 -18.675 0.825
-11.625 -15.975 1.575
-10.575 -17.625 4.725
-10.275 -17.925 1.125
-10.125 -18.075 1.125
-9.525 -18.525 2.025
-9.525 -18.525 1.575
-3.525 -18.525 3.375
-11.175 -16.875 1.875
-11.175 -16.875 1.125
-6.525 -19.425 1.275
-6.525 -19.425 1.125
-10.875 -17.325 2.025
-9.975 -18.225 1.575
-6.675 -19.425 2.175
-6.375 -19.425 0.975
-6.225 -19.425 2.175
-9.075 -18.825 0.975
-9.075 -18.825 2.475
-11.475 -16.425 1.575
-6.075 -19.425 1.725
-6.975 -19.425 0.075
-6.075 -19.425 1.425
-9.825 -18.375 0.975
-8.025 -19.275 1.125
-8.025 -19.275 0.225
-11.175 -17.025 2.925
-7.425 -19.425 0.825
-10.425 -17.925 1.125
-10.425 -17.925 2.775
-10.275 -18.075 2.025
-8.925 -18.975 0.525
-8.925 -18.975 -3.975
-9.225 -18.825 1.275
-9.225 -18.825 0.825
-10.125 -18.225 0.525
-11.325 -16.875 2.625
-11.325 -16.875 1.575
-11.025 -17.325 2.175
-11.025 -17.325 2.925
-11.025 -17.325 -0.675
-9.975 -18.375 -1.425
-7.725 -19.425 1.725
-6.525 -19.575 2.175
-6.525 -19.575 2.325
-6.525 -19.575 1.725
-6.675 -19.575 1.875
-6.375 -19.575 2.025
-9.075 -18.975 0.225
-6.825 -19.575 2.475
-9.375 -18.825 0.825
-7.875 -19.425 1.575
-7.875 -19.425 -0.225
-6.075 -19.575 1.425
-6.075 -19.575 1.575
-6.975 -19.575 2.475
-6.075 -19.575 1.875
-6.975 -19.575 2.025
-10.575 -17.925 0.975
-10.725 -17.775 2.625
-10.425 -18.075 1.575
-11.925 -15.825 1.275
-10.275 -18.225 1.125
-10.275 -18.225 0.825
-12.075 -15.375 2.175
-8.025 -19.425 1.125
-7.425 -19.575 0.225
-12.225 -14.775 1.875
-8.925 -19.125 0.675
-9.525 -18.825 -2.625
-11.475 -16.875 1.425
-12.075 -15.525 2.775
-11.925 -15.975 1.425
-12.225 -14.925 2.025
-7.725 -19.575 1.125
-7.725 -19.575 4.125
-7.725 -19.575 0.825
-12.075 -15.675 3.075
-10.575 -18.075 1.275
-9.075 -19.125 0.525
-10.875 -17.775 2.925
-10.425 -18.225 1.875
-10.425 -18.225 1.425
-6.375 -19.725 2.025
-12.225 -15.225 2.025
-7.875 -19.575 1.125
-7.875 -19.575 0.825
-7.875 -19.575 1.575
-6.225 -19.725 2.175
-6.225 -19.725 -3.975
-6.825 -19.725 2.475
-6.225 -19.725 0.525
-6.075 -19.725 2.625
-6.075 -19.725 1.575
-6.975 -19.725 2.325
-6.975 -19.725 2.775
-10.125 -18.525 1.875
-11.175 -17.475 -0.075
-8.025 -19.575 -0.075
-8.025 -19.575 1.725
-7.275 -19.725 2.775
-7.275 -19.725 0.225
-7.275 -19.725 1.875
-5.775 -19.725 1.425
-8.925 -19.275 0.525
-11.325 -17.325 1.575
-9.975 -18.675 -0.975
-9.975 -18.675 2.025
-7.425 -19.725 0.225
-5.625 -19.725 1.575
-9.825 -18.825 0.975
-10.425 -18.375 0.975
-12.375 -15.075 2.475
-7.725 -19.725 1.125
-10.275 -18.525 1.575
-8.325 -19.575 3.225
-8.775 -19.425 0.825
-11.625 -17.025 1.125
-10.125 -18.675 1.875
-10.125 -18.675 -1.725
-12.525 -14.025 -1.275
-7.875 -19.725 -0.225
-7.875 -19.725 1.275
-7.875 -19.725 1.125
-6.225 -19.875 0.825
-6.225 -19.875 1.275
-6.075 -19.875 1.575
-5.925 -19.875 2.625
-9.975 -18.825 1.725
-12.375 -15.375 1.725
-8.025 -19.725 -0.075
-10.875 -18.075 2.325
-5.775 -19.875 2.325
-7.275 -19.875 2.325
-10.575 -18.375 1.425
-10.575 -18.375 1.125
-7.425 -19.875 2.775
-7.425 -19.875 -0.075
-9.825 -18.975 5.025
-12.375 -15.525 2.025
-8.175 -19.725 1.875
-7.575 -19.875 1.875
-7.725 -19.875 0.375
-12.525 -15.225 2.925
-7.875 -19.875 -0.075
-6.675 -20.025 -3.975
-11.025 -18.075 2.175
-11.025 -18.075 2.325
-6.825 -20.025 2.475
-9.975 -18.975 1.575
-6.075 -20.025 2.925
-6.975 -20.025 2.775
-12.375 -15.825 2.175
-11.175 -17.925 2.325
-11.175 -17.925 3.825
-11.175 -17.925 1.275
-9.525 -19.275 6.975
-5.925 -20.025 1.425
-7.125 -20.025 -0.375
-5.925 -20.025 2.175
-5.925 -20.025 1.575
-11.325 -17.775 1.725
-12.525 -15.375 1.725
-10.425 -18.675 -1.725
-10.425 -18.675 -1.875
-10.425 -18.675 1.425
-10.425 -18.675 1.875
-7.275 -20.025 -0.225
-7.275 -20.025 2.325
-5.775 -20.025 2.025
-5.775 -20.025 1.725
-7.425 -20.025 0.075
-8.175 -19.875 0.675
-8.175 -19.875 0.225
-11.625 -17.475 1.875
-10.125 -18.975 1.425
-10.125 -18.975 1.725
-9.675 -19.275 2.325
-11.025 -18.225 2.325
-11.025 -18.225 0.675
-11.025 -18.225 2.175
-8.325 -19.875 0.525
-5.325 -20.025 -3.975
-10.575 -18.675 1.575
-9.975 -19.125 1.725
-11.775 -17.325 2.475
-7.875 -20.025 3.075
-10.425 -18.825 1.875
-10.425 -18.825 1.575
-6.375 -20.175 3.375
-8.475 -19.875 0.375
-6.975 -20.175 2.325
-6.975 -20.175 -0.225
-6.975 -20.175 3.225
-8.925 -19.725 -4.725
-11.925 -17.175 1.425
-8.025 -20.025 1.125
-11.625 -17.625 2.175
-12.675 -15.375 1.575
-10.275 -18.975 1.725
-10.275 -18.975 2.025
-10.275 -18.975 1.125
-7.275 -20.175 -0.075
-7.275 -20.175 -0.225
-12.525 -15.975 2.625
-5.625 -20.175 2.325
-7.425 -20.175 0.225
-10.125 -19.125 1.875
-10.125 -19.125 2.025
-11.775 -17.475 1.575
-8.175 -20.025 0.375
-10.875 -18.525 2.775
-9.375 -19.575 1.125
-10.725 -18.675 1.725
-10.725 -18.675 2.325
-9.675 -19.425 1.575
-7.575 -20.175 0.225
-7.575 -20.175 2.475
-7.575 -20.175 0.075
-8.325 -20.025 1.125
-9.975 -19.275 2.175
-8.325 -20.025 0.525
-8.325 -20.025 0.975
-8.325 -20.025 -0.075
-9.975 -19.275 0.825
-8.775 -19.875 0.525
-11.925 -17.325 1.275
-11.925 -17.325 2.775
-7.725 -20.175 1.725
-11.625 -17.775 3.525
-11.625 -17.775 -3.225
-10.425 -18.975 1.125
-10.425 -18.975 2.025
-9.525 -19.575 1.575
-7.875 -20.175 1.125
-7.875 -20.175 0.525
-7.875 -20.175 -0.675
-9.225 -19.725 -4.275
-8.475 -20.025 1.425
-11.775 -17.625 -0.675
-11.775 -17.625 -0.975
-6.825 -20.325 3.375
-6.225 -20.325 -4.425
-11.025 -18.525 1.875
-11.175 -18.375 3.675
-12.825 -15.375 1.425
-5.025 -20.175 0.975
-7.125 -20.325 1.575
-5.925 -20.325 6.225
-5.925 -20.325 2.475
-10.875 -18.675 1.125
-10.125 -19.275 0.825
-11.925 -17.475 1.125
-10.725 -18.825 1.875
-10.725 -18.825 2.175
-11.475 -18.075 2.475
-7.275 -20.325 -0.075
-7.275 -20.325 0.075
-8.625 -20.025 0.075
-12.825 -15.525 3.075
-7.425 -20.325 3.075
-5.625 -20.325 2.475
-10.575 -18.975 0.975
-10.575 -18.975 2.175
-12.525 -16.425 0.525
-12.525 -16.425 0.075
-12.075 -17.325 2.925
-7.575 -20.325 0.825
-7.575 -20.325 1.125
-7.575 -20.325 -1.425
-5.475 -20.325 1.875
-5.475 -20.325 2.175
-9.975 -19.425 1.725
-9.975 -19.425 1.575
-9.975 -19.425 2.175
-10.425 -19.125 1.725
-10.425 -19.125 1.425
-10.425 -19.125 2.325
-8.325 -20.175 0.525
-7.725 -20.325 0.375
-5.325 -20.325 2.325
-5.325 -20.325 -4.275
-7.725 -20.325 1.575
-7.725 -20.325 1.125
-10.275 -19.275 0.825
-10.275 -19.275 3.225
-9.525 -19.725 1.575
-9.525 -19.725 1.875
-11.025 -18.675 2.325
-11.025 -18.675 2.475
-9.825 -19.575 1.875
-12.225 -17.175 3.075
-12.225 -17.175 2.775
-10.875 -18.825 1.875
-7.875 -20.325 0.525
-7.875 -20.325 -0.075
-6.525 -20.475 3.675
-6.525 -20.475 3.525
-6.375 -20.475 2.625
-10.725 -18.975 0.975
-6.225 -20.475 2.625
-6.825 -20.475 0.525
-10.125 -19.425 1.875
-10.125 -19.425 1.725
-10.125 -19.425 2.025
-6.975 -20.475 0.375
-5.925 -20.475 2.475
-10.575 -19.125 0.975
-10.575 -19.125 1.275
-8.625 -20.175 0.375
-7.275 -20.475 -0.075
-7.275 -20.475 3.225
-5.775 -20.475 2.625
-5.775 -20.475 2.475
-9.675 -19.725 0.975
-8.175 -20.325 0.525
-10.425 -19.275 1.425
-10.425 -19.275 2.625
-5.625 -20.475 2.025
-7.575 -20.475 1.875
-7.575 -20.475 3.525
-5.475 -20.475 2.625
-11.025 -18.825 1.725
-11.025 -18.825 1.575
-11.475 -18.375 1.875
-8.775 -20.175 0.675
-8.775 -20.175 0.225
-12.075 -17.625 2.025
-10.275 -19.425 1.575
-10.275 -19.425 2.325
-10.275 -19.425 0.975
-10.275 -19.425 2.625
-10.875 -18.975 1.575
-10.875 -18.975 2.625
-10.875 -18.975 1.125
-7.725 -20.475 1.125
-9.825 -19.725 1.875
-10.725 -19.125 1.275
-10.725 -19.125 0.825
-7.875 -20.475 2.775
-10.125 -19.575 1.125
-10.125 -19.575 1.725
-12.225 -17.475 2.625
-6.525 -20.625 3.225
-6.525 -20.625 3.375
-6.975 -20.625 -0.075
-8.025 -20.475 2.775
-8.025 -20.475 0.975
-7.125 -20.625 3.225
-9.675 -19.875 1.875
-7.125 -20.625 1.575
-9.675 -19.875 1.425
-12.675 -16.725 0.825
-12.075 -17.775 2.325
-10.425 -19.425 1.275
-10.425 -19.425 1.425
-10.425 -19.425 0.975
-10.425 -19.425 1.125
-11.325 -18.675 2.625
-5.775 -20.625 2.625
-11.175 -18.825 2.475
-7.275 -20.625 -0.525
-9.975 -19.725 1.875
-9.975 -19.725 2.175
-9.075 -20.175 -1.275
-11.025 -18.975 1.875
-11.025 -18.975 2.025
-11.025 -18.975 1.725
-8.175 -20.475 3.225
-8.175 -20.475 0.825
-5.625 -20.625 2.625
-7.425 -20.625 3.075
-10.875 -19.125 2.625
-10.875 -19.125 1.275
-10.875 -19.125 1.875
-10.275 -19.575 1.575
-10.275 -19.575 0.825
-10.275 -19.575 1.425
-10.275 -19.575 1.275
-10.275 -19.575 2.625
-8.775 -20.325 0.375
-4.725 -20.475 0.975
-9.225 -20.175 2.325
-7.725 -20.625 -0.975
-5.325 -20.625 2.325
-12.375 -17.475 2.475
-10.125 -19.725 1.425
-10.575 -19.425 1.575
-10.575 -19.425 1.875
-12.075 -17.925 1.425
-13.125 -15.825 3.375
-8.475 -20.475 6.675
-8.475 -20.475 1.275
-8.475 -20.475 2.625
-8.475 -20.475 -0.525
-11.325 -18.825 0.975
-11.625 -18.525 0.825
-11.175 -18.975 1.425
-11.175 -18.975 2.625
-10.425 -19.575 1.425
-10.425 -19.575 1.575
-10.425 -19.575 2.175
-6.075 -20.775 3.225
-8.025 -20.625 1.425
-8.025 -20.625 -0.825
-8.025 -20.625 1.275
-8.025 -20.625 3.225
-11.025 -19.125 2.025
-11.025 -19.125 1.575
-11.025 -19.125 1.425
-8.025 -20.625 0.825
-5.025 -20.625 2.025
-9.975 -19.875 2.175
-7.125 -20.775 3.075
-7.125 -20.775 -0.525
-10.875 -19.275 1.725
-10.875 -19.275 2.025
-10.875 -19.275 1.575
-7.275 -20.775 3.225
-8.175 -20.625 0.525
-8.175 -20.625 0.825
-13.275 -15.525 2.175
-10.275 -19.725 1.575
-10.275 -19.725 1.725
-7.425 -20.775 -0.375
-7.425 -20.775 3.075
-5.625 -20.775 2.925
-8.775 -20.475 0.975
-7.575 -20.775 -0.375
-7.575 -20.775 3.675
-10.575 -19.575 1.425
-9.225 -20.325 2.025
-9.225 -20.325 2.325
-12.225 -17.925 1.275
-11.475 -18.825 2.025
-7.725 -20.775 0.075
-11.175 -19.125 1.875
-8.925 -20.475 5.325
-8.475 -20.625 -0.525
-8.475 -20.625 2.475
-11.025 -19.275 1.125
-11.025 -19.275 0.225
-11.925 -18.375 2.025
-7.875 -20.775 -0.075
-7.875 -20.775 0.825
-12.375 -17.775 2.175
-10.425 -19.725 0.975
-10.425 -19.725 2.175
-10.425 -19.725 1.875
-9.675 -20.175 2.925
-10.875 -19.425 2.025
-10.875 -19.425 1.275
-8.025 -20.775 3.375
-8.025 -20.775 0.225
-5.025 -20.775 2.475
-8.025 -20.775 1.125
-6.975 -20.925 3.075
-8.625 -20.625 1.725
-8.625 -20.625 -0.375
-8.625 -20.625 0.525
-10.275 -19.875 1.125
-7.125 -20.925 2.775
-9.075 -20.475 -0.525
-10.725 -19.575 2.175
-8.175 -20.775 -0.675
-8.175 -20.775 3.075
-4.875 -20.775 2.175
-12.825 -17.175 -4.125
-9.525 -20.325 3.225
-8.775 -20.625 0.375
-10.575 -19.725 0.975
-12.675 -17.475 2.175
-9.225 -20.475 -0.525
-12.075 -18.375 2.175
-7.725 -20.925 1.725
-7.725 -20.925 0.825
-12.525 -17.775 2.475
-8.475 -20.775 0.075
-8.475 -20.775 -0.525
-10.875 -19.575 2.025
-13.425 -15.825 2.025
-13.575 -15.225 3.375
-7.875 -20.925 1.125
-6.675 -21.075 -0.075
-6.675 -21.075 -0.375
-10.725 -19.725 1.425
-10.725 -19.725 0.975
-10.275 -20.025 1.275
-10.275 -20.025 1.575
-6.825 -21.075 2.175
-6.825 -21.075 3.975
-8.025 -20.925 1.125
-8.025 -20.925 1.425
-11.775 -18.825 2.175
-7.125 -21.075 2.925
-7.275 -21.075 -0.375
-8.175 -20.925 -0.375
-11.175 -19.425 1.275
-12.825 -17.475 2.475
-7.425 -21.075 3.225
-11.025 -19.575 1.875
-5.475 -21.075 2.775
-7.575 -21.075 3.375
-13.575 -15.675 2.025
-10.425 -20.025 2.325
-12.675 -17.775 2.925
-10.875 -19.725 3.075
-7.725 -21.075 3.525
-7.725 -21.075 1.575
-7.725 -21.075 0.825
-7.725 -21.075 1.125
-5.325 -21.075 2.775
-8.925 -20.775 0.225
-8.925 -20.775 2.775
-10.725 -19.875 1.125
-10.725 -19.875 0.675
-11.475 -19.275 1.725
-7.875 -21.075 0.375
-13.725 -15.225 3.375
-5.175 -21.075 2.475
-7.875 -21.075 3.225
-7.875 -21.075 4.725
-10.275 -20.175 2.475
-10.275 -20.175 1.425
-11.325 -19.425 1.275
-11.325 -19.425 1.575
-6.525 -21.225 1.725
-6.525 -21.225 2.325
-5.025 -21.075 2.775
-12.225 -18.525 2.025
-13.575 -15.975 0.525
-6.825 -21.225 1.725
-6.825 -21.225 1.125
-6.225 -21.225 3.075
-10.575 -20.025 0.825
-6.975 -21.225 -0.375
-7.125 -21.225 -0.225
-7.125 -21.225 3.525
-13.725 -15.525 3.075
-4.875 -21.075 2.625
-8.175 -21.075 0.975
-7.425 -21.225 1.575
-10.425 -20.175 2.475
-8.325 -21.075 0.975
-4.725 -21.075 2.475
-11.475 -19.425 1.425
-11.475 -19.425 0.975
-7.725 -21.225 0.375
-7.725 -21.225 1.425
-11.325 -19.575 1.575
-4.575 -21.075 2.475
-4.575 -21.075 2.775
-4.575 -21.075 2.325
-9.375 -20.775 0.825
-7.875 -21.225 1.275
-10.575 -20.175 0.825
-6.675 -21.375 0.375
-13.275 -17.175 -3.525
-6.975 -21.375 2.925
-13.125 -17.475 -1.425
-7.125 -21.375 -0.225
-10.875 -20.025 0.825
-8.175 -21.225 0.825
-11.625 -19.425 5.175
-4.275 -21.075 0.525
-8.775 -21.075 0.525
-8.775 -21.075 -0.525
-11.325 -19.725 0.525
-8.325 -21.225 0.975
-8.325 -21.225 0.675
-4.725 -21.225 2.475
-10.725 -20.175 1.875
-7.575 -21.375 2.775
-7.575 -21.375 -1.125
-7.575 -21.375 1.125
-11.175 -19.875 0.825
-11.025 -20.025 1.575
-11.025 -20.025 2.175
-11.025 -20.025 0.825
-7.875 -21.375 3.375
-7.875 -21.375 0.375
-3.975 -21.075 1.425
-9.075 -21.075 3.675
-8.625 -21.225 2.175
-9.825 -20.775 2.925
-6.675 -21.525 3.225
-6.825 -21.525 -0.375
-10.875 -20.175 1.725
-9.525 -20.925 -0.675
-11.475 -19.725 1.425
-10.425 -20.475 1.275
-8.175 -21.375 -0.225
-8.175 -21.375 0.825
-8.175 -21.375 -0.075
-8.175 -21.375 1.425
-4.875 -21.375 2.775
-7.275 -21.525 3.525
-7.275 -21.525 3.375
-4.275 -21.225 1.425
-8.775 -21.225 0.525
-3.825 -21.075 2.025
-7.425 -21.525 0.075
-8.325 -21.375 1.275
-8.325 -21.375 0.975
-7.575 -21.525 -1.425
-4.125 -21.225 1.425
-7.725 -21.525 0.825
-10.575 -20.475 0.075
-8.475 -21.375 -0.525
-11.625 -19.725 1.275
-11.475 -19.875 1.725
-3.975 -21.225 1.125
-3.975 -21.225 1.875
-10.125 -20.775 0.075
-13.425 -17.475 -3.525
-8.025 -21.525 1.575
-8.025 -21.525 3.375
-8.025 -21.525 2.925
-8.025 -21.525 -0.075
-8.025 -21.525 0.825
-9.525 -21.075 1.425
-6.375 -21.675 2.025
-6.675 -21.675 3.375
-6.825 -21.675 3.675
-7.125 -21.675 3.225
-7.125 -21.675 2.325
-8.175 -21.525 1.425
-8.175 -21.525 3.375
-8.175 -21.525 1.125
-8.775 -21.375 0.375
-8.775 -21.375 -0.675
-11.175 -20.175 1.275
-9.225 -21.225 -0.675
-9.225 -21.225 -0.075
-7.425 -21.675 2.175
-8.325 -21.525 -0.225
-11.775 -19.725 1.575
-11.775 -19.725 0.825
-7.575 -21.675 0.075
-10.575 -20.625 0.525
-10.575 -20.625 -0.075
-11.625 -19.875 2.625
-9.375 -21.225 1.425
-7.725 -21.675 0.825
-8.475 -21.525 2.625
-11.475 -20.025 1.425
-11.475 -20.025 1.125
-13.125 -18.225 3.075
-7.875 -21.675 -0.075
-7.875 -21.675 0.825
-7.875 -21.675 1.575
-7.875 -21.675 1.125
-9.075 -21.375 2.925
-10.425 -20.775 0.375
-8.625 -21.525 2.475
-14.325 -15.375 2.475
-8.025 -21.675 0.975
-8.025 -21.675 1.125
-8.025 -21.675 1.575
-8.025 -21.675 -0.075
-8.025 -21.675 0.825
-6.375 -21.825 1.875
-11.925 -19.725 1.425
-11.925 -19.725 0.525
-9.225 -21.375 0.525
-7.125 -21.825 0.075
-8.175 -21.675 3.675
-8.175 -21.675 -0.675
-8.775 -21.525 -0.375
-8.775 -21.525 -0.225
-9.975 -21.075 3.225
-11.625 -20.025 2.475
-11.625 -20.025 2.025
-8.325 -21.675 -1.275
-8.325 -21.675 -0.975
-9.375 -21.375 -0.075
-9.375 -21.375 0.675
-7.725 -21.825 1.125
-11.325 -20.325 3.525
-5.325 -21.825 2.625
-8.475 -21.675 2.325
-9.075 -21.525 0.225
-9.075 -21.525 3.075
-7.875 -21.825 1.125
-12.075 -19.725 1.125
-10.725 -20.775 1.425
-8.625 -21.675 2.625
-4.425 -21.675 3.225
-6.525 -21.975 3.075
-11.625 -20.175 1.125
-11.625 -20.175 1.425
-11.625 -20.175 2.475
-6.225 -21.975 2.475
-9.225 -21.525 0.525
-9.225 -21.525 -0.825
-9.225 -21.525 2.175
-8.175 -21.825 3.975
-8.175 -21.825 -0.375
-4.875 -21.825 2.475
-7.125 -21.975 0.075
-5.925 -21.975 3.375
-11.475 -20.325 0.675
-10.575 -20.925 -0.225
-9.675 -21.375 -0.075
-7.275 -21.975 0.075
-7.425 -21.975 2.325
-8.325 -21.825 0.075
-8.325 -21.825 -0.225
-8.925 -21.675 2.925
-9.375 -21.525 -0.375
-12.225 -19.725 1.575
-7.575 -21.975 3.225
-7.575 -21.975 -0.075
-11.925 -20.025 1.425
-8.475 -21.825 -0.675
-4.575 -21.825 2.475
-7.725 -21.975 -0.525
-7.725 -21.975 5.025
-11.175 -20.625 1.275
-9.075 -21.675 -0.075
-10.725 -20.925 1.425
-7.875 -21.975 1.575
-9.525 -21.525 1.725
-8.625 -21.825 0.075
-8.625 -21.825 4.575
-11.625 -20.325 1.725
-11.625 -20.325 2.475
-8.025 -21.975 -0.225
-8.025 -21.975 0.225
-5.025 -21.975 2.325
-6.525 -22.125 2.925
-6.525 -22.125 2.775
-6.375 -22.125 0.825
-9.225 -21.675 -0.075
-6.225 -22.125 2.775
-10.575 -21.075 2.625
-10.575 -21.075 -0.225
-10.575 -21.075 1.575
-6.075 -22.125 2.925
-6.975 -22.125 1.425
-8.175 -21.975 -0.075
-4.875 -21.975 2.325
-8.175 -21.975 -0.525
-8.175 -21.975 -0.375
-8.175 -21.975 1.125
-4.875 -21.975 2.475
-5.925 -22.125 2.925
-7.275 -22.125 3.075
-7.275 -22.125 0.075
-7.275 -22.125 0.525
-7.275 -22.125 1.425
-7.275 -22.125 1.275
-8.325 -21.975 2.775
-8.325 -21.975 0.975
-8.325 -21.975 0.225
-8.925 -21.825 2.775
-8.925 -21.825 3.525
-8.925 -21.825 0.975
-9.375 -21.675 -0.525
-7.575 -22.125 -0.525
-8.475 -21.975 -0.225
-8.475 -21.975 3.525
-8.475 -21.975 0.975
-4.575 -21.975 1.725
-7.725 -22.125 0.825
-11.625 -20.475 0.825
-9.075 -21.825 3.225
-7.875 -22.125 1.725
-11.025 -20.925 1.425
-8.625 -21.975 0.675
-5.025 -22.125 2.475
-8.025 -22.125 -0.825
-8.025 -22.125 1.125
-8.025 -22.125 -0.225
-9.975 -21.525 0.525
-9.225 -21.825 2.925
-6.825 -22.275 1.575
-6.225 -22.275 2.775
-6.975 -22.275 1.725
-6.075 -22.275 2.775
-11.925 -20.325 1.275
-8.175 -22.125 1.125
-8.175 -22.125 0.825
-8.175 -22.125 1.425
-7.125 -22.275 4.125
-5.925 -22.275 2.775
-11.775 -20.475 1.875
-8.325 -22.125 0.825
-8.325 -22.125 1.275
-8.325 -22.125 -0.525
-14.775 -15.675 1.725
-4.725 -22.125 1.575
-4.725 -22.125 2.325
-4.725 -22.125 2.475
-9.375 -21.825 -0.375
-7.425 -22.275 0.975
-8.925 -21.975 -0.075
-8.925 -21.975 0.225
-8.925 -21.975 3.975
-8.925 -21.975 2.325
-11.625 -20.625 0.975
-11.625 -20.625 2.775
-7.575 -22.275 0.225
-10.725 -21.225 1.575
-10.725 -21.225 -0.075
-8.475 -22.125 2.775
-8.475 -22.125 0.675
-7.725 -22.275 0.825
-7.725 -22.275 2.625
-9.075 -21.975 2.625
-9.075 -21.975 2.775
-9.075 -21.975 -0.225
-7.875 -22.275 3.375
-7.875 -22.275 3.225
-7.875 -22.275 1.575
-7.875 -22.275 1.125
-7.875 -22.275 3.525
-12.075 -20.325 1.275
-8.625 -22.125 0.075
-10.275 -21.525 0.525
-11.325 -20.925 1.425
-11.325 -20.925 1.275
-9.975 -21.675 2.925
-9.975 -21.675 3.525
-8.025 -22.275 1.125
-8.025 -22.275 0.825
-14.925 -15.375 0.825
-13.275 -19.125 1.275
-8.775 -22.125 0.975
-6.825 -22.425 -0.075
-8.175 -22.275 -0.375
-8.175 -22.275 3.675
-4.875 -22.275 2.475
-13.425 -18.975 3.525
-3.675 -21.975 3.825
-8.325 -22.275 -0.075
-8.325 -22.275 3.975
-8.925 -22.125 2.925
-8.925 -22.125 3.225
-8.925 -22.125 2.775
-7.425 -22.425 0.675
-11.475 -20.925 0.225
-11.475 -20.925 1.725
-7.575 -22.425 1.575
-8.475 -22.275 -0.375
-7.725 -22.425 1.125
-9.075 -22.125 -0.225
-9.525 -21.975 1.275
-7.875 -22.425 1.275
-8.625 -22.275 3.075
-11.775 -20.775 1.425
-10.875 -21.375 -3.375
-10.875 -21.375 1.425
-9.225 -22.125 3.225
-8.025 -22.425 2.925
-8.025 -22.425 2.775
-8.775 -22.275 0.225
-11.625 -20.925 0.375
-11.625 -20.925 1.575
-8.175 -22.425 1.425
-10.425 -21.675 0.375
-10.125 -21.825 2.775
-7.275 -22.575 0.975
-8.325 -22.425 -0.075
-7.425 -22.575 -0.075
-11.025 -21.375 1.275
-11.925 -20.775 0.525
-11.925 -20.775 0.675
-8.475 -22.425 -0.525
-8.475 -22.425 3.225
-8.475 -22.425 0.375
-9.075 -22.275 1.125
-10.275 -21.825 2.925
-8.625 -22.425 0.975
-12.525 -20.325 2.175
-9.225 -22.275 0.225
-11.625 -21.075 1.875
-11.625 -21.075 0.225
-11.175 -21.375 1.275
-8.025 -22.575 1.875
-12.225 -20.625 2.625
-8.775 -22.425 0.975
-8.775 -22.425 0.075
-10.425 -21.825 2.025
-6.825 -22.725 3.225
-10.125 -21.975 3.075
-7.275 -22.725 0.675
-8.325 -22.575 -0.975
-11.325 -21.375 1.725
-13.725 -19.125 3.375
-7.575 -22.725 -0.375
-7.575 -22.725 0.075
-8.475 -22.575 0.975
-10.575 -21.825 2.775
-9.075 -22.425 0.525
-10.275 -21.975 3.075
-7.725 -22.725 0.075
-7.725 -22.725 0.525
-9.975 -22.125 3.225
-11.625 -21.225 1.425
-8.625 -22.575 -0.075
-8.625 -22.575 0.225
-8.625 -22.575 0.975
-11.175 -21.525 0.675
-9.225 -22.425 0.525
-9.225 -22.425 0.375
-9.675 -22.275 3.075
-12.075 -20.925 2.925
-8.025 -22.725 2.925
-8.025 -22.725 1.125
-8.775 -22.575 0.375
-11.475 -21.375 1.125
-8.175 -22.725 1.875
-8.175 -22.725 0.375
-4.875 -22.725 2.175
-7.125 -22.875 0.825
-8.925 -22.575 -0.525
-7.275 -22.875 -0.975
-8.325 -22.725 1.125
-8.325 -22.725 2.175
-12.375 -20.775 1.275
-10.575 -21.975 3.675
-7.575 -22.875 -0.975
-9.525 -22.425 3.675
-9.525 -22.425 3.075
-11.625 -21.375 0.825
-11.625 -21.375 1.725
-8.625 -22.725 -0.525
-9.225 -22.575 0.375
-11.475 -21.525 1.575
-9.675 -22.425 3.225
-9.675 -22.425 4.275
-8.025 -22.875 1.875
-8.025 -22.875 0.975
-8.025 -22.875 1.575
-8.025 -22.875 -0.075
-5.025 -22.875 1.725
-10.125 -22.275 3.225
-12.525 -20.775 1.275
-8.175 -22.875 3.225
-8.175 -22.875 0.975
-8.175 -22.875 -0.225
-8.175 -22.875 1.125
-6.675 -23.025 0.375
-9.375 -22.575 3.075
-9.375 -22.575 3.675
-9.375 -22.575 2.625
-9.375 -22.575 2.775
-11.775 -21.375 1.875
-12.375 -20.925 2.175
-12.375 -20.925 2.925
-9.825 -22.425 3.675
-7.125 -23.025 1.425
-8.925 -22.725 0.525
-8.325 -22.875 0.075
-8.325 -22.875 2.475
-4.725 -22.875 2.325
-12.225 -21.075 2.625
-12.225 -21.075 2.475
-5.625 -23.025 2.925
-10.875 -21.975 1.275
-10.275 -22.275 3.525
-9.525 -22.575 2.925
-8.475 -22.875 1.725
-4.575 -22.875 3.675
-7.575 -23.025 -0.075
-9.075 -22.725 -0.675
-9.075 -22.725 1.125
-9.075 -22.725 -0.225
-9.075 -22.725 0.225
-12.075 -21.225 0.975
-3.975 -22.725 4.125
-7.725 -23.025 1.125
-12.825 -20.625 1.125
-11.925 -21.375 0.225
-11.925 -21.375 2.175
-8.625 -22.875 -0.225
-7.875 -23.025 0.525
-7.875 -23.025 0.825
-7.875 -23.025 -0.075
-7.875 -23.025 1.125
-7.875 -23.025 0.975
-9.225 -22.725 -0.225
-11.025 -21.975 1.125
-8.025 -23.025 0.975
-8.025 -23.025 0.225
-8.025 -23.025 1.125
-8.025 -23.025 1.425
-8.025 -23.025 1.575
-12.375 -21.075 2.475
-8.775 -22.875 -0.225
-10.125 -22.425 3.375
-13.725 -19.725 2.175
-13.725 -19.725 2.325
-13.725 -19.725 2.025
-11.775 -21.525 2.175
-8.175 -23.025 0.675
-8.175 -23.025 1.875
-9.375 -22.725 2.775
-6.375 -23.175 -1.875
-6.675 -23.175 -0.075
-12.225 -21.225 1.275
-9.825 -22.575 3.825
-6.975 -23.175 1.875
-8.925 -22.875 2.175
-8.925 -22.875 -0.375
-8.325 -23.025 0.225
-4.725 -23.025 1.725
-7.275 -23.175 2.325
-7.275 -23.175 0.375
-7.425 -23.175 0.075
-13.425 -20.175 0.375
-9.525 -22.725 2.925
-9.075 -22.875 -0.375
-9.075 -22.875 -0.075
-3.975 -4.875 2.325
-8.475 -23.025 4.425
-8.475 -23.025 0.075
-4.575 -23.025 3.975
-11.925 -21.525 1.425
-7.725 -23.175 0.975
-10.725 -22.275 3.675
-14.775 -18.375 3.375
-11.025 -22.125 0.825
-7.875 -23.175 1.275
-7.875 -23.175 0.825
-10.425 -22.425 3.075
-5.175 -23.175 2.175
-11.775 -21.675 2.325
-8.025 -23.175 1.275
-8.025 -23.175 1.575
-8.775 -23.025 -0.075
-13.125 -20.625 1.125
-11.625 -21.825 1.575
-8.175 -23.175 -0.075
-6.675 -23.325 0.075
-10.875 -22.275 0.975
-10.875 -22.275 1.425
-10.575 -22.425 3.675
-7.125 -23.325 2.025
-14.775 -18.525 3.075
-11.175 -22.125 1.275
-8.325 -23.175 2.625
-4.725 -23.175 1.725
-10.275 -22.575 2.325
-11.925 -21.675 1.275
-11.475 -21.975 1.425
-9.075 -23.025 -0.225
-3.975 -4.725 2.475
-8.475 -23.175 2.475
-4.575 -23.175 1.875
-12.375 -21.375 1.725
-12.375 -21.375 1.575
-7.725 -23.325 -1.275
-11.775 -21.825 2.475
-8.625 -23.175 1.575
-12.225 -21.525 5.325
-11.325 -22.125 1.875
-13.275 -20.625 1.275
-8.025 -23.325 2.325
-8.025 -23.325 0.075
-8.775 -23.175 -0.525
-8.775 -23.175 1.275
-12.075 -21.675 2.175
-9.825 -22.875 0.075
-8.175 -23.325 0.375
-8.175 -23.325 0.225
-10.875 -22.425 0.225
-11.175 -22.275 1.125
-11.175 -22.275 1.275
-6.675 -23.475 2.025
-6.675 -23.475 2.175
-12.525 -21.375 1.725
-8.925 -23.175 -0.225
-8.925 -23.175 1.275
-8.925 -23.175 3.975
-11.925 -21.825 2.475
-6.075 -23.475 2.325
-6.975 -23.475 0.075
-10.275 -22.725 2.175
-7.125 -23.475 0.225
-8.325 -23.325 2.775
-7.275 -23.475 0.375
-3.075 -4.875 1.875
-3.075 -22.875 -0.375
-7.425 -23.475 1.275
-9.075 -23.175 -0.225
-9.075 -23.175 2.475
-8.475 -23.325 3.075
-8.475 -23.325 2.175
-13.275 -20.775 3.225
-7.575 -23.475 -0.525
-7.575 -23.475 3.525
-12.225 -21.675 1.575
-11.025 -22.425 1.275
-11.025 -22.425 0.975
-7.725 -23.475 0.525
-9.675 -23.025 -3.825
-8.625 -23.325 -0.525
-9.225 -23.175 2.625
-7.875 -23.475 1.275
-11.625 -22.125 2.325
-14.025 -20.025 2.025
-8.775 -23.325 1.425
-9.825 -23.025 -0.525
-15.075 -18.525 3.225
-11.175 -22.425 1.425
-11.175 -22.425 1.125
-11.925 -21.975 1.575
-11.925 -21.975 3.075
-11.925 -21.975 2.475
-11.925 -21.975 0.975
-8.175 -23.475 1.725
-8.175 -23.475 2.775
-8.175 -23.475 2.625
-10.275 -22.875 1.725
-6.825 -23.625 0.075
-13.425 -20.775 1.275
-8.325 -23.475 0.225
-5.925 -23.625 -0.075
-13.875 -20.325 0.975
-7.275 -23.625 1.275
-11.775 -22.125 2.625
-9.075 -23.325 0.825
-5.625 -23.625 2.475
-7.425 -23.625 0.825
-11.025 -22.575 1.125
-12.825 -21.375 2.625
-8.475 -23.475 -0.375
-8.475 -23.475 1.275
-8.475 -23.475 -0.225
-7.575 -23.625 0.675
-12.075 -21.975 2.325
-12.075 -21.975 1.875
-12.075 -21.975 2.175
-7.725 -23.625 1.125
-11.625 -22.275 0.675
-8.625 -23.475 1.275
-2.925 -23.025 0.225
-7.875 -23.625 2.775
-7.875 -23.625 0.975
-7.875 -23.625 1.125
-11.925 -22.125 3.075
-8.775 -23.475 3.075
-10.875 -22.725 1.575
-11.175 -22.575 0.825
-13.425 -20.925 1.275
-9.825 -23.175 0.075
-9.825 -23.175 0.225
-10.575 -22.875 2.175
-9.375 -23.325 -0.225
-4.875 -23.625 1.125
-14.025 -20.325 0.825
-6.375 -23.775 4.275
-6.675 -23.775 2.475
-6.825 -23.775 -0.075
-6.825 -23.775 2.625
-12.825 -21.525 3.525
-6.975 -23.775 -0.075
-14.175 -20.175 0.225
-8.325 -23.625 1.275
-7.125 -23.775 2.025
-7.275 -23.775 0.075
-7.275 -23.775 2.475
-11.025 -22.725 1.575
-10.725 -22.875 0.975
-14.325 -20.025 -0.225
-9.075 -23.475 0.975
-9.075 -23.475 1.125
-5.625 -23.775 0.975
-8.475 -23.625 -0.525
-10.425 -23.025 1.575
-7.575 -23.775 1.125
-7.575 -23.775 1.425
-7.575 -23.775 0.525
-12.525 -21.825 1.575
-12.525 -21.825 2.175
-7.725 -23.775 1.575
-7.725 -23.775 2.925
-7.725 -23.775 1.125
-13.425 -21.075 1.725
-13.425 -21.075 2.025
-9.225 -23.475 0.525
-3.825 -23.475 1.725
-7.875 -23.775 0.975
-7.875 -23.775 0.675
-7.875 -23.775 0.825
-7.875 -23.775 -1.275
-12.375 -21.975 2.325
-10.875 -22.875 1.575
-8.775 -23.625 -0.375
-8.775 -23.625 0.225
-8.775 -23.625 3.075
-9.825 -23.325 -0.375
-9.825 -23.325 2.775
-8.025 -23.775 0.975
-12.825 -21.675 3.675
-12.225 -22.125 2.475
-11.775 -22.425 3.075
-11.775 -22.425 0.825
-8.175 -23.775 0.975
-8.175 -23.775 1.275
-8.175 -23.775 1.875
-4.875 -23.775 0.825
-8.925 -23.625 0.975
-4.125 -23.625 1.875
-12.675 -21.825 3.075
-12.675 -21.825 1.425
-6.825 -23.925 3.075
-6.825 -23.925 3.375
-6.225 -23.925 2.625
-9.525 -23.475 2.175
-6.075 -23.925 2.475
-6.075 -23.925 1.725
-6.075 -23.925 -1.275
-6.075 -23.925 1.575
-4.725 -23.775 2.325
-4.725 -23.775 1.725
-4.725 -23.775 0.825
-7.125 -23.925 2.475
-9.075 -23.625 0.525
-3.975 -23.625 2.625
-7.275 -23.925 -0.075
-10.425 -23.175 0.825
-7.425 -23.925 1.125
-7.425 -23.925 3.075
-9.675 -23.475 2.475
-5.475 -23.925 1.125
-10.125 -23.325 -3.825
-12.375 -22.125 -0.075
-9.225 -23.625 0.975
-3.825 -23.625 1.425
-8.625 -23.775 3.525
-8.625 -23.775 0.075
-5.325 -23.925 1.125
-11.175 -22.875 1.575
-10.875 -23.025 2.175
-10.875 -23.025 1.725
-1.575 -5.025 3.225
-11.475 -22.725 0.825
-11.475 -22.725 1.875
-7.875 -23.925 2.775
-12.825 -21.825 1.725
-12.825 -21.825 2.925
-9.825 -23.475 1.575
-8.775 -23.775 -0.075
-8.775 -23.775 3.075
-8.775 -23.775 3.375
-8.775 -23.775 1.275
-8.775 -23.775 2.925
-9.375 -23.625 0.825
-8.025 -23.925 1.725
-8.025 -23.925 0.225
-8.025 -23.925 1.275
-5.025 -23.925 0.825
-5.025 -23.925 1.725
-8.175 -23.925 1.275
-8.175 -23.925 2.025
-8.175 -23.925 -0.375
-8.175 -23.925 -0.075
-4.875 -23.925 2.175
-13.575 -21.225 2.175
-12.075 -22.425 2.325
-0.975 -5.325 1.125
-0.975 -5.325 1.875
-11.025 -23.025 3.075
-6.525 -24.075 -0.225
-11.325 -22.875 1.725
-6.375 -24.075 3.225
-6.375 -24.075 3.375
-6.375 -24.075 2.775
-9.525 -23.625 1.725
-10.725 -23.175 0.825
-10.725 -23.175 1.575
-6.825 -24.075 -1.575
-6.825 -24.075 3.075
-6.825 -24.075 -1.425
-6.975 -24.075 -0.375
-1.425 -5.025 0.525
-7.125 -24.075 2.925
-13.125 -21.675 1.725
-13.125 -21.675 2.175
-9.075 -23.775 0.675
-12.375 -22.275 3.225
-12.975 -21.825 2.175
-12.975 -21.825 3.075
-7.425 -24.075 0.975
-11.925 -22.575 0.375
-5.625 -24.075 1.725
-5.625 -24.075 2.025
-5.625 -24.075 1.575
-9.675 -23.625 0.525
-3.375 -23.625 0.225
-3.375 -4.125 3.075
-5.475 -24.075 1.575
-7.575 -24.075 0.675
-11.175 -23.025 2.775
-10.875 -23.175 1.425
-7.725 -24.075 0.225
-11.475 -22.875 0.975
-7.875 -24.075 0.375
-7.875 -24.075 2.025
-9.825 -23.625 1.875
-9.825 -23.625 1.125
-9.825 -23.625 1.575
-8.775 -23.925 0.975
-9.375 -23.775 0.825
-10.275 -23.475 1.275
-12.075 -22.575 1.125
-12.075 -22.575 1.575
-12.525 -22.275 0.075
-11.025 -23.175 1.725
-11.025 -23.175 0.975
-11.025 -23.175 1.275
-8.175 -24.075 -0.225
-8.175 -24.075 -0.075
-8.925 -23.925 -0.225
-8.925 -23.925 0.675
-8.925 -23.925 0.225
-10.725 -23.325 2.775
-3.075 -23.625 0.225
-3.075 -4.125 3.225
-11.625 -22.875 3.075
-11.625 -22.875 2.175
-6.525 -24.225 0.825
-6.375 -24.225 2.775
-6.825 -24.225 1.125
-4.725 -24.075 2.025
-4.725 -24.075 1.125
-6.075 -24.225 2.175
-11.925 -22.725 3.225
-11.925 -22.725 1.425
-5.925 -24.225 2.625
-7.125 -24.225 3.225
-7.125 -24.225 0.825
-7.125 -24.225 3.075
-5.775 -24.225 2.175
-8.475 -24.075 1.125
-4.575 -24.075 2.025
-9.675 -23.775 1.725
-9.675 -23.775 7.575
-3.375 -3.975 3.525
-3.375 -3.975 2.775
-7.425 -24.225 3.225
-5.625 -24.225 2.025
-10.125 -23.625 1.425
-13.725 -21.375 1.875
-12.225 -22.575 0.525
-2.175 -4.425 1.875
-14.175 -20.925 3.675
-7.575 -24.225 3.075
-9.225 -23.925 0.525
-8.625 -24.075 0.675
-7.725 -24.225 0.075
-7.725 -24.225 -0.075
-7.725 -24.225 3.075
-7.725 -24.225 -0.375
-14.475 -20.625 2.325
-7.875 -24.225 3.075
-8.775 -24.075 -0.225
-8.775 -24.075 1.125
-10.275 -23.625 0.675
-11.025 -23.325 1.575
-11.625 -23.025 1.875
-11.625 -23.025 3.075
-4.125 -24.075 1.275
-8.175 -24.225 -0.075
-9.975 -23.775 0.825
-12.375 -22.575 0.675
-9.525 -23.925 0.975
-3.525 -3.825 2.925
-11.925 -22.875 2.025
-11.925 -22.875 2.175
-11.925 -22.875 2.475
-1.125 -4.875 2.775
-6.525 -24.375 1.875
-6.525 -24.375 0.675
-6.525 -24.375 -0.225
-6.675 -24.375 1.575
-6.675 -24.375 0.975
-6.675 -24.375 2.325
-6.825 -24.375 -0.675
-6.825 -24.375 1.125
-6.825 -24.375 1.575
-6.825 -24.375 1.725
-8.325 -24.225 1.725
-6.975 -24.375 -0.075
-6.975 -24.375 0.975
-5.775 -24.375 1.125
-7.275 -24.375 -1.575
-5.775 -24.375 2.025
-5.775 -24.375 0.525
-11.175 -23.325 0.825
-12.675 -22.425 1.875
-12.675 -22.425 2.475
-8.475 -24.225 2.025
-8.475 -24.225 1.125
-1.575 -4.575 2.625
-1.575 -4.575 2.775
-5.625 -24.375 2.325
-7.425 -24.375 2.175
-5.625 -24.375 1.725
-5.625 -24.375 1.575
-5.475 -24.375 1.425
-7.575 -24.375 -0.075
-7.575 -24.375 -0.375
-8.625 -24.225 3.675
-8.625 -24.225 1.125
-7.725 -24.375 1.275
-7.725 -24.375 0.075
-12.075 -22.875 1.875
-5.175 -24.375 1.125
-7.875 -24.375 0.225
-7.875 -24.375 1.425
-7.875 -24.375 1.875
-9.375 -24.075 1.575
-11.325 -23.325 1.125
-1.725 -4.425 2.175
-1.725 -4.425 2.775
-2.025 -4.275 3.075
-11.025 -23.475 1.575
-11.025 -23.475 1.875
-5.025 -24.375 1.125
-1.425 -4.575 2.325
-13.725 -21.675 2.025
-2.325 -4.125 3.075
-11.925 -23.025 2.475
-8.925 -24.225 0.975
-9.975 -23.925 2.025
-4.875 -24.375 0.975
-9.525 -24.075 0.975
-9.525 -24.075 0.225
-3.525 -3.675 2.025
-2.625 -3.975 2.775
-6.525 -24.525 3.075
-6.675 -24.525 0.825
-6.675 -24.525 0.075
-6.675 -24.525 1.725
-6.675 -24.525 0.675
-6.675 -24.525 1.275
-6.375 -24.525 3.375
-8.325 -24.375 1.125
-8.325 -24.375 1.725
-8.325 -24.375 0.075
-4.725 -24.375 1.275
-6.825 -24.525 1.875
-6.975 -24.525 0.975
-6.975 -24.525 1.125
-9.075 -24.225 0.675
-7.125 -24.525 1.725
-7.125 -24.525 -0.075
-9.675 -24.075 -0.075
-9.675 -24.075 -0.525
-9.675 -24.075 2.475
-5.775 -24.525 -0.075
-5.775 -24.525 3.225
-5.775 -24.525 2.175
-5.775 -24.525 2.025
-10.875 -23.625 1.725
-4.575 -24.375 2.175
-11.775 -23.175 2.925
-12.075 -23.025 2.025
-12.075 -23.025 3.225
-12.075 -23.025 2.325
-5.475 -24.525 0.825
-5.475 -24.525 1.425
-7.575 -24.525 0.225
-7.575 -24.525 3.225
-8.625 -24.375 0.225
-12.975 -22.425 1.575
-12.975 -22.425 2.325
-7.725 -24.525 1.125
-7.725 -24.525 0.225
-7.725 -24.525 1.725
-7.725 -24.525 1.575
-7.725 -24.525 -0.525
-12.375 -22.875 2.775
-5.175 -24.525 0.525
-7.875 -24.525 1.125
-7.875 -24.525 2.925
-7.875 -24.525 -0.525
-3.675 -3.525 4.575
-9.375 -24.225 1.275
-9.375 -24.225 0.825
-11.925 -23.175 2.025
-11.925 -23.175 2.475
-5.025 -24.525 1.125
-8.025 -24.525 2.475
-9.525 -24.225 0.825
-8.175 -24.525 0.975
-8.175 -24.525 1.725
-8.175 -24.525 1.275
-4.875 -24.525 2.175
-10.425 -23.925 1.125
-10.425 -23.925 0.525
-6.525 -24.675 -2.625
-8.325 -24.525 -0.075
-4.725 -24.525 1.875
-4.725 -24.525 2.025
-13.125 -22.425 1.575
-6.675 -24.675 2.925
-6.675 -24.675 1.125
-11.175 -23.625 2.325
-6.225 -24.675 -3.075
-6.825 -24.675 1.125
-6.825 -24.675 0.825
-9.075 -24.375 0.825
-6.075 -24.675 2.625
-6.975 -24.675 1.275
-10.875 -23.775 1.875
-10.125 -24.075 1.425
-0.525 -4.875 2.775
-7.125 -24.675 -0.225
-9.675 -24.225 0.825
-5.775 -24.675 0.225
-5.775 -24.675 0.375
-5.775 -24.675 0.825
-7.275 -24.675 0.375
-8.475 -24.525 0.075
-12.075 -23.175 2.475
-10.575 -23.925 2.475
-2.475 -3.825 3.075
-7.425 -24.675 -0.525
-9.225 -24.375 0.525
-9.225 -24.375 0.675
-3.825 -3.375 1.875
-3.825 -24.375 0.825
-7.575 -24.675 3.075
-5.475 -24.675 2.025
-7.575 -24.675 -0.225
-7.575 -24.675 1.125
-7.725 -24.675 0.225
-7.725 -24.675 0.975
-9.375 -24.375 3.825
-9.375 -24.375 0.525
-11.925 -23.325 2.325
-2.325 -3.825 3.225
-10.725 -23.925 2.325
-0.375 -4.875 2.475
-0.375 -4.875 2.175
-8.025 -24.675 0.225
-8.025 -24.675 -0.075
-0.825 -4.575 2.475
-8.925 -24.525 0.825
-8.925 -24.525 -0.075
-14.175 -21.675 1.125
-8.175 -24.675 1.275
-8.325 -24.675 1.275
-8.325 -24.675 2.775
-4.725 -24.675 2.175
-4.725 -24.675 2.325
-6.525 -24.825 2.775
-9.075 -24.525 0.675
-6.375 -24.825 0.225
-6.675 -24.825 1.875
-6.675 -24.825 2.175
-6.675 -24.825 0.525
-6.825 -24.825 0.975
-6.825 -24.825 1.125
-2.925 -3.525 3.225
-10.125 -24.225 1.275
-6.975 -24.825 0.075
-5.925 -24.825 0.525
-5.925 -24.825 2.625
-10.575 -24.075 2.025
-8.475 -24.675 0.675
-5.775 -24.825 0.825
-5.775 -24.825 1.425
-7.275 -24.825 1.125
-5.625 -24.825 0.525
-5.625 -24.825 0.675
-7.425 -24.825 1.275
-0.675 -4.575 2.175
-0.675 -4.575 2.775
-5.475 -24.825 1.575
-8.625 -24.675 2.025
-11.625 -23.625 2.475
-2.775 -3.525 3.225
-2.775 -3.525 3.075
-13.275 -22.575 0.675
-1.125 -4.275 2.625
-11.925 -23.475 4.125
-7.725 -24.825 0.225
-5.325 -24.825 0.375
-9.375 -24.525 0.525
-12.675 -23.025 2.325
-14.325 -21.675 1.575
-7.875 -24.825 2.475
-0.825 -4.425 2.475
-5.025 -24.825 2.325
-0.525 -4.575 2.775
-0.525 -4.575 2.025
-0.525 -4.575 2.625
-8.175 -24.825 2.925
-8.175 -24.825 0.375
-8.175 -24.825 0.675
-8.175 -24.825 0.825
-0.975 -4.275 2.475
-12.075 -23.475 2.625
-12.075 -23.475 2.325
-8.325 -24.825 0.975
-9.075 -24.675 1.275
-9.075 -24.675 -0.075
-10.125 -24.375 1.275
-6.525 -24.975 1.275
-6.375 -24.975 0.225
-13.425 -22.575 0.675
-6.825 -24.975 1.275
-6.825 -24.975 1.725
-0.225 -4.725 2.175
-7.125 -24.975 0.525
-8.475 -24.825 0.675
-8.475 -24.825 1.275
-8.475 -24.825 1.725
-8.475 -24.825 3.075
-5.775 -24.975 2.625
-7.275 -24.975 0.675
-7.275 -24.975 -0.075
-5.775 -24.975 1.125
-5.775 -24.975 0.825
-9.225 -24.675 1.275
