# .PCD v0.7 - Point Cloud Data file format
VERSION 0.7
FIELDS x y z
SIZE 4 4 4
TYPE F F F
COUNT 1 1 1
WIDTH 2048
HEIGHT 1
VIEWPOINT 0 0 0 1 0 0 0
POINTS 2048
DATA ascii
9.525 30.975 0.525
9.525 31.125 0.525
9.525 31.125 0.225
9.675 30.975 0.225
9.525 30.825 0.525
9.525 30.825 0.675
9.675 31.125 -0.225
9.375 30.825 0.375
9.375 30.825 0.525
9.525 31.275 0.075
9.525 30.675 0.375
9.225 30.975 0.675
9.225 30.975 0.375
9.225 30.975 0.525
9.375 31.275 -0.075
9.825 31.125 0.525
9.825 31.125 0.225
9.825 31.125 1.425
9.825 31.125 0.075
9.375 30.675 0.525
9.225 30.825 0.225
9.225 30.825 0.375
9.225 30.825 -0.825
9.825 31.275 0.675
9.825 31.275 0.075
9.225 31.275 1.275
9.225 31.275 -0.075
9.225 31.275 0.075
9.225 30.675 0.225
9.225 30.675 0.375
9.975 30.975 1.725
9.075 30.975 0.525
9.075 30.975 0.375
9.525 30.525 0.675
9.975 31.125 0.525
9.975 31.125 0.225
9.375 31.425 -0.375
9.675 31.425 0.675
9.975 30.825 -0.225
9.075 31.125 0.525
9.075 31.125 0.375
9.075 30.825 0.675
9.075 30.825 0.375
9.075 30.825 -0.375
9.075 30.825 0.225
9.675 30.525 1.425
9.975 31.275 0.225
9.975 31.275 0.525
9.975 31.275 0.375
9.825 31.425 0.675
9.825 31.425 0.525
9.075 31.275 -0.075
9.075 31.275 0.225
9.075 31.275 -5.325
9.225 31.425 -0.075
9.975 30.675 -0.975
9.225 31.425 0.375
9.075 30.675 0.375
9.075 30.675 0.525
9.825 30.525 -0.825
9.825 30.525 -1.125
9.225 30.525 0.525
9.225 30.525 0.375
9.525 31.575 -1.425
8.925 30.975 -0.675
8.925 30.975 0.675
8.925 30.975 0.525
9.675 31.575 -0.375
9.675 31.575 0.675
9.675 31.575 4.275
8.925 31.125 0.675
10.125 31.125 0.075
8.925 31.125 0.525
8.925 31.125 0.975
10.125 30.825 -1.275
8.925 30.825 0.675
9.375 30.375 0.075
9.375 30.375 0.525
9.975 31.425 0.225
9.975 31.425 0.675
9.075 31.425 0.825
9.075 31.425 0.525
9.975 30.525 -0.075
9.075 30.525 0.525
9.825 31.575 0.525
9.825 31.575 0.675
9.825 31.575 0.225
9.225 31.575 -0.525
9.225 31.575 0.825
9.225 31.575 -0.225
10.125 31.275 0.225
10.125 31.275 0.075
8.925 31.275 0.225
8.925 31.275 0.825
8.925 30.675 0.525
9.225 30.375 0.375
9.975 31.575 0.825
9.975 31.575 0.975
9.975 31.575 0.375
9.075 31.575 0.375
8.925 31.425 0.675
10.125 31.425 0.375
10.125 31.425 0.225
8.925 31.425 0.525
10.125 31.425 -0.075
8.925 31.425 -0.075
8.775 30.975 0.375
8.775 30.975 0.975
8.775 30.975 1.125
9.525 31.725 -1.575
8.775 30.975 0.825
8.775 30.975 0.675
8.775 30.975 0.525
10.275 30.975 -1.125
10.125 30.525 0.075
8.925 30.525 0.675
8.925 30.525 0.375
10.125 30.525 -0.225
8.925 30.525 0.525
9.075 30.375 0.375
9.075 30.375 0.675
9.075 30.375 0.225
9.075 30.375 -0.975
8.775 31.125 0.225
8.775 31.125 0.825
10.275 31.125 1.275
9.375 31.725 0.675
9.675 31.725 0.525
9.375 30.225 -0.975
8.775 30.825 0.375
10.275 30.825 1.425
8.775 30.825 0.675
8.775 31.275 0.525
8.775 31.275 -0.375
8.775 31.275 0.825
10.275 31.275 -0.075
8.775 31.275 0.675
8.775 31.275 0.225
10.275 31.275 0.225
10.275 31.275 0.075
9.825 31.725 1.125
9.825 31.725 -2.025
9.825 31.725 0.825
9.825 30.225 0.075
8.775 30.675 0.375
9.225 31.725 1.275
8.775 30.675 1.125
10.125 31.575 0.075
10.125 31.575 0.675
8.925 31.575 0.525
8.925 31.575 0.075
10.125 31.575 -0.225
10.125 31.575 -0.075
8.925 30.375 0.975
8.925 30.375 0.225
8.925 30.375 0.375
8.925 30.375 0.525
10.125 30.375 0.075
9.975 31.725 -0.525
9.975 31.725 -1.125
10.275 31.425 0.225
9.975 31.725 0.825
8.775 31.425 -0.225
8.775 31.425 -0.525
9.975 31.725 0.975
8.775 31.425 0.375
9.975 31.725 0.525
9.975 30.225 0.075
9.975 30.225 -0.975
10.275 31.425 0.075
8.775 31.425 0.825
9.075 31.725 0.375
9.075 30.225 0.225
9.075 31.725 0.075
9.075 31.725 1.275
8.775 30.525 0.225
10.275 30.525 -4.725
9.525 31.875 0.225
9.525 31.875 0.675
9.525 31.875 0.375
9.525 31.875 0.525
8.625 30.975 -5.775
9.675 31.875 -1.275
8.625 31.125 0.825
10.425 31.125 -0.075
8.625 31.125 0.375
8.625 30.825 2.325
8.625 30.825 0.675
9.375 30.075 -0.825
9.825 31.875 0.825
9.825 31.875 -0.825
8.625 31.275 0.225
8.625 31.275 0.375
8.625 31.275 -0.525
8.625 31.275 0.525
10.425 31.275 0.075
8.625 30.675 1.275
8.625 30.675 0.225
9.825 30.075 0.075
8.775 31.575 -0.225
8.775 31.575 -0.375
8.775 31.575 0.675
8.775 31.575 0.525
10.275 31.575 0.375
10.275 31.575 0.075
10.275 31.575 0.525
8.775 31.575 -0.525
10.275 31.575 0.225
8.925 31.725 -0.225
8.925 30.225 0.975
10.125 31.725 0.675
10.125 31.725 0.375
10.125 31.725 0.975
10.275 30.375 0.675
10.275 30.375 0.825
9.975 31.875 0.975
9.975 31.875 0.825
9.975 31.875 0.225
9.975 31.875 -0.675
9.075 31.875 -4.575
10.425 31.425 0.375
8.625 31.425 1.275
8.625 31.425 0.225
10.425 31.425 0.225
8.625 31.425 0.375
8.625 31.425 0.675
9.975 30.075 -0.825
8.625 30.525 0.825
8.625 30.525 -2.775
8.625 30.525 0.375
9.975 30.075 0.675
10.425 30.525 0.975
10.425 30.525 0.075
9.975 30.075 0.525
9.525 32.025 -0.075
9.525 32.025 0.375
10.575 30.975 -0.075
8.475 30.975 0.825
8.475 30.975 -0.075
9.675 32.025 0.975
9.375 32.025 0.225
9.375 32.025 0.825
9.375 32.025 0.675
10.575 30.825 -0.075
10.275 31.725 0.375
10.275 31.725 0.525
10.275 30.225 0.525
10.275 30.225 0.075
8.775 31.725 0.525
8.775 31.725 -0.675
8.775 30.225 0.375
10.275 31.725 0.225
10.275 31.725 0.825
8.775 31.725 -0.825
8.775 31.725 -3.825
8.775 31.725 -0.075
10.275 30.225 -0.225
8.475 31.125 0.675
8.475 31.125 1.725
8.475 31.125 0.075
9.375 29.925 0.075
9.375 29.925 0.825
8.475 30.825 0.975
8.475 30.825 -4.875
8.475 30.825 1.275
10.125 31.875 0.975
10.125 31.875 -0.375
10.125 31.875 0.525
10.125 31.875 0.375
8.925 31.875 0.675
8.625 31.575 0.975
8.625 31.575 1.425
8.625 31.575 -0.075
10.425 31.575 0.375
8.625 30.375 0.675
8.625 30.375 0.375
10.125 30.075 0.225
9.825 32.025 0.675
9.825 32.025 1.125
9.225 32.025 0.225
9.225 32.025 0.675
10.575 30.675 0.075
10.575 30.675 -0.825
10.575 30.675 0.525
8.475 31.275 1.125
8.475 31.275 0.675
8.475 31.275 -0.525
8.475 31.275 -0.075
9.825 29.925 0.225
9.975 32.025 0.825
10.575 31.425 -0.075
10.575 30.525 0.075
10.575 30.525 1.425
10.575 30.525 -0.225
8.475 31.425 1.425
9.975 29.925 -0.225
9.975 29.925 0.075
8.475 30.525 0.675
8.775 31.875 1.125
8.775 31.875 0.525
8.775 31.875 -1.125
10.275 31.875 0.825
10.275 31.875 0.675
8.775 31.875 -0.225
8.625 30.225 0.225
8.625 30.225 0.075
10.425 31.725 0.375
8.625 31.725 0.375
8.625 31.725 1.725
8.625 31.725 0.225
8.625 30.225 -0.375
8.775 30.075 -5.925
10.275 30.075 0.075
9.525 32.175 0.675
9.525 32.175 -0.525
10.725 30.975 -0.075
8.325 30.975 0.075
8.325 30.975 0.525
8.325 30.975 0.675
8.325 30.975 0.825
9.375 32.175 0.675
9.675 32.175 0.225
9.375 32.175 1.125
9.675 32.175 0.825
9.675 32.175 0.375
10.125 32.025 0.675
10.125 32.025 0.975
10.125 32.025 0.825
8.925 32.025 -0.975
10.575 31.575 1.125
10.725 31.125 -0.075
10.725 30.825 0.375
8.475 31.575 0.525
10.725 30.825 0.075
10.725 30.825 0.675
8.475 31.575 0.825
10.575 30.375 0.975
8.925 29.925 -1.125
10.125 29.925 -1.125
8.325 31.125 0.825
8.325 31.125 0.525
8.475 30.375 0.525
8.325 30.825 0.525
8.325 30.825 -0.075
8.325 30.825 6.225
9.375 29.775 0.075
9.825 32.175 0.225
9.225 32.175 -4.575
9.225 32.175 0.675
9.225 32.175 0.075
9.225 32.175 -3.225
10.725 30.675 0.075
8.325 31.275 -0.075
8.325 30.675 0.525
10.425 31.875 0.675
10.425 31.875 0.375
8.625 30.075 -0.375
10.425 30.075 1.275
9.975 32.175 0.675
8.325 31.425 0.675
8.325 30.525 -0.375
9.975 29.775 0.075
10.275 32.025 0.675
10.575 31.725 0.225
10.575 31.725 4.125
10.575 30.225 0.975
8.475 31.725 0.375
8.775 29.925 0.075
8.475 30.225 -2.925
8.475 30.225 0.525
8.775 29.925 1.575
10.125 32.175 0.825
8.925 29.775 -0.675
8.925 29.775 -0.825
8.175 30.975 0.525
8.175 30.975 0.825
9.525 32.325 0.075
9.525 29.625 0.525
9.525 32.325 0.825
10.875 31.125 -0.825
8.175 31.125 -0.225
10.875 31.125 -0.525
8.175 30.825 0.825
8.175 30.825 -4.575
9.375 32.325 1.125
9.375 32.325 0.525
9.675 32.325 0.225
9.375 32.325 0.825
9.375 29.625 0.075
9.675 32.325 0.525
9.375 32.325 -0.075
9.675 32.325 -0.375
9.375 29.625 0.675
9.375 29.625 1.125
10.425 32.025 0.525
10.575 31.875 0.225
8.175 31.275 -0.825
8.175 31.275 0.825
8.175 31.275 1.125
8.175 31.275 -0.375
8.175 31.275 0.075
8.475 31.875 0.375
8.475 31.875 0.525
8.475 31.875 0.225
8.175 30.675 1.275
10.875 30.675 -0.225
10.575 30.075 0.675
10.425 29.925 1.575
10.425 29.925 0.525
9.825 32.325 0.525
9.825 32.325 0.375
9.825 29.625 -3.675
9.825 32.325 1.125
9.225 32.325 0.975
10.275 32.175 0.825
10.725 30.225 0.675
10.725 31.725 -0.075
8.325 30.225 0.675
8.325 30.225 0.375
10.875 31.425 -0.675
8.175 31.425 -5.175
8.175 30.525 1.125
8.175 30.525 0.375
8.175 30.525 0.075
9.975 29.625 0.075
9.075 29.625 0.225
9.075 32.325 -3.675
8.175 30.375 -0.075
8.175 30.375 -2.325
10.125 29.625 0.225
10.125 29.625 1.125
8.925 29.625 0.225
10.575 32.025 0.225
10.575 32.025 0.375
10.575 29.925 1.125
10.425 32.175 0.825
10.425 32.175 0.525
10.725 31.875 0.225
8.025 30.975 -1.725
11.025 30.975 0.075
9.525 32.475 0.975
9.525 32.475 1.125
8.325 31.875 1.875
10.725 30.075 0.675
8.325 30.075 0.225
10.425 29.775 0.525
11.025 31.125 -0.675
8.025 31.125 0.375
8.025 31.125 0.225
8.025 31.125 -0.075
9.375 32.475 0.375
9.375 29.475 -0.075
9.375 29.475 0.225
9.375 29.475 -0.375
9.375 32.475 0.675
9.675 32.475 1.125
9.675 32.475 0.675
9.675 32.475 -2.925
9.675 32.475 -3.825
9.375 32.475 0.825
8.025 30.825 1.425
11.025 31.275 -0.075
11.025 31.275 0.075
9.825 29.475 -5.475
9.825 32.475 1.275
9.825 32.475 0.675
9.825 32.475 -0.075
8.025 30.675 0.675
8.025 30.675 0.075
8.025 30.675 -2.325
9.225 29.475 0.225
8.025 30.675 1.125
8.025 30.675 -0.075
9.225 32.475 -4.275
10.875 30.225 0.825
8.175 30.225 0.375
10.875 30.225 -4.575
8.175 30.225 0.675
8.175 30.225 -0.075
8.775 29.625 -0.525
8.775 29.625 1.575
8.775 32.325 1.125
11.025 31.425 -0.075
9.975 29.475 0.375
8.025 30.525 0.075
8.025 30.525 -0.525
8.025 30.525 0.675
10.725 32.025 0.075
10.725 29.925 0.375
10.725 29.925 -4.725
10.725 29.925 0.975
10.725 29.925 0.825
8.325 29.925 0.375
8.325 29.925 -2.925
10.575 29.775 0.075
10.575 29.775 0.675
8.475 29.775 -3.075
10.125 29.475 1.125
8.925 29.475 0.225
8.925 32.475 1.725
8.025 30.375 0.075
8.025 30.375 -5.175
8.025 30.375 -0.525
10.875 31.875 -0.525
10.875 31.875 -0.225
8.175 30.075 0.525
8.175 30.075 0.225
7.875 30.975 -0.225
11.175 30.975 0.075
11.175 30.975 -0.225
9.525 29.325 1.125
9.525 29.325 0.375
7.875 31.125 -5.175
7.875 31.125 0.075
11.175 31.125 0.075
11.175 31.125 0.525
7.875 30.825 0.825
7.875 30.825 1.125
9.375 29.325 1.125
9.375 29.325 0.225
9.675 29.325 -1.575
11.175 31.275 -0.825
11.175 31.275 0.525
8.775 29.475 0.225
11.025 31.725 -0.075
11.025 30.225 0.375
8.025 30.225 0.525
8.025 30.225 0.225
8.025 30.225 0.375
8.025 30.225 -0.525
8.775 32.475 1.575
7.875 30.675 0.975
11.175 30.675 0.525
11.175 30.675 0.675
9.225 29.325 0.675
10.725 32.175 0.075
10.725 29.775 -0.075
10.725 29.775 -0.225
8.325 29.775 0.375
9.975 32.625 -3.375
9.975 32.625 0.825
11.175 31.425 0.075
8.175 29.925 0.225
8.175 29.925 0.525
10.575 29.625 -0.075
7.875 30.525 0.825
8.475 32.325 1.725
9.975 29.325 -0.525
9.975 29.325 0.225
9.075 29.325 1.275
9.075 29.325 0.825
9.075 29.325 0.675
11.025 30.075 0.375
8.025 30.075 0.375
8.025 30.075 0.525
8.025 30.075 0.675
10.125 32.625 0.225
7.875 30.375 1.425
7.875 30.375 0.675
10.125 29.325 0.375
8.925 29.325 -0.225
8.925 29.325 0.225
8.925 29.325 -0.825
7.725 30.975 1.125
7.725 30.975 -0.225
7.725 30.975 0.375
7.725 30.975 0.675
9.375 32.775 0.675
11.325 31.125 0.525
11.325 30.825 0.525
10.725 32.325 0.225
10.725 29.625 -0.075
9.675 29.175 0.825
9.375 29.175 1.275
7.725 30.825 0.375
7.725 30.825 0.225
10.875 29.775 -0.075
8.175 29.775 0.075
8.175 29.775 0.525
10.275 32.625 0.225
7.875 30.225 0.975
10.275 29.325 0.375
8.775 29.325 0.225
9.825 32.775 0.825
11.325 31.275 0.075
7.725 31.275 0.825
9.825 29.175 2.175
7.725 30.675 0.375
7.725 30.675 0.975
7.725 30.675 -0.525
10.575 29.475 0.675
10.575 29.475 0.225
10.575 29.475 0.525
11.025 29.925 0.525
8.475 29.475 0.225
8.025 29.925 0.525
8.025 29.925 0.675
9.975 32.775 0.075
9.975 32.775 2.025
11.325 31.425 0.075
9.975 29.175 0.525
9.075 29.175 2.325
9.075 29.175 -0.075
9.075 29.175 0.225
7.725 30.525 0.975
7.725 30.525 1.575
11.175 31.875 0.075
7.875 30.075 0.525
7.875 30.075 0.375
11.175 30.075 -0.225
11.175 30.075 0.525
10.425 29.325 0.375
10.425 29.325 0.075
10.425 29.325 -1.125
10.125 32.775 0.525
10.125 32.775 0.075
10.125 32.775 -0.075
11.325 31.575 0.075
11.325 30.375 0.675
11.325 30.375 0.225
8.925 29.175 0.675
10.125 29.175 0.525
10.125 29.175 0.375
10.125 29.175 0.825
8.925 29.175 0.825
8.925 29.175 0.375
10.125 29.175 -0.075
7.725 30.375 1.425
7.725 30.375 0.975
8.175 29.625 0.375
10.875 29.625 0.075
8.175 29.625 0.525
10.725 29.475 0.675
10.725 29.475 0.525
10.725 29.475 0.075
10.725 32.475 -2.775
10.725 29.475 0.375
8.325 29.475 -0.525
11.025 29.775 0.225
8.025 29.775 0.225
8.025 29.775 0.675
8.025 29.775 0.525
10.275 32.775 0.375
10.275 32.775 -0.225
10.275 32.775 1.125
11.325 31.725 -0.075
7.575 30.975 1.125
7.575 30.975 1.275
7.575 30.975 -1.425
7.575 30.975 -5.775
10.275 29.175 0.375
7.725 30.225 0.675
7.725 30.225 2.025
7.725 30.225 0.975
7.725 30.225 1.125
8.775 29.175 0.225
9.525 29.025 0.975
9.675 32.925 0.825
7.575 31.125 1.125
7.575 30.825 1.725
7.575 30.825 -0.225
7.575 30.825 0.825
11.175 29.925 0.675
7.875 29.925 0.525
7.875 29.925 -0.975
7.875 29.925 0.375
7.875 29.925 0.675
10.575 29.325 0.525
10.575 29.325 -0.075
8.475 29.325 0.225
9.675 29.025 0.825
9.825 32.925 0.975
9.825 32.925 0.525
9.225 32.925 -1.425
7.575 30.675 0.675
7.575 30.675 1.125
9.825 29.025 1.125
9.825 29.025 -5.025
9.825 29.025 0.525
9.975 32.925 1.575
9.975 32.925 0.825
9.975 32.925 0.075
11.475 31.425 -0.225
11.475 30.525 0.675
11.475 30.525 5.025
7.575 30.525 1.275
7.575 30.525 0.825
9.975 29.025 0.525
9.975 29.025 0.375
9.075 29.025 0.225
10.425 32.775 0.075
10.425 32.775 0.375
11.325 31.875 -0.075
7.725 30.075 0.375
10.875 32.475 0.375
10.875 29.475 0.225
10.875 29.475 0.075
8.175 29.475 0.525
8.025 29.625 0.375
11.025 29.625 0.225
11.025 29.625 0.075
8.025 32.325 -0.075
11.025 32.325 0.375
10.725 32.625 2.175
11.475 31.575 0.525
7.575 30.375 0.825
7.575 30.375 0.675
7.575 30.375 0.525
7.575 30.375 1.125
10.725 29.325 0.075
11.175 29.775 -0.825
11.175 29.775 0.225
11.175 29.775 0.675
11.175 29.775 0.525
7.875 29.775 0.525
7.875 29.775 0.375
10.125 29.025 0.375
10.125 29.025 -0.075
10.125 29.025 0.225
11.325 29.925 -0.075
11.325 29.925 0.075
11.325 29.925 0.375
10.575 29.175 0.375
8.475 29.175 0.825
7.725 29.925 1.125
8.475 29.175 0.225
10.275 32.925 0.525
10.275 32.925 -0.525
11.475 31.725 -0.675
11.475 30.225 -0.225
11.475 30.225 0.075
7.575 30.225 0.975
7.575 30.225 0.075
7.575 30.225 0.675
10.275 29.025 0.525
8.775 29.025 0.225
8.775 29.025 -0.075
7.425 30.975 -0.375
7.425 30.825 0.525
7.425 30.825 0.675
9.375 33.075 -3.825
9.375 28.875 1.275
9.375 28.875 -0.525
9.675 28.875 0.675
9.375 28.875 -3.525
11.625 30.675 0.975
8.025 29.475 0.225
8.025 29.475 0.375
11.025 32.475 0.525
11.025 32.475 0.375
9.825 28.875 0.525
9.825 28.875 0.225
9.825 28.875 0.375
9.825 28.875 0.825
9.825 33.075 0.225
9.825 33.075 0.675
9.225 28.875 1.125
10.875 32.625 1.725
10.875 32.625 0.375
7.875 29.625 0.375
7.875 29.625 0.225
11.175 32.325 0.375
8.175 29.325 0.225
10.875 29.325 0.675
10.425 32.925 1.275
10.425 32.925 2.475
10.425 32.925 0.375
10.425 32.925 0.075
10.425 32.925 1.725
11.475 31.875 -0.525
11.625 30.525 0.825
7.425 30.525 0.675
7.425 30.525 1.275
7.425 30.525 0.825
7.575 30.075 0.525
7.575 30.075 0.675
7.575 30.075 0.375
7.575 30.075 0.225
9.975 28.875 0.225
9.975 28.875 0.375
9.975 28.875 0.075
9.075 28.875 1.125
9.075 28.875 -0.375
8.625 29.025 0.675
8.625 29.025 0.225
8.625 29.025 0.375
8.625 29.025 0.825
10.725 32.775 0.525
10.725 32.775 0.225
11.325 29.775 0.525
8.325 29.175 -0.525
7.725 29.775 0.525
7.725 29.775 0.075
11.625 31.575 -0.825
7.425 30.375 0.675
8.925 28.875 1.125
10.575 32.925 1.575
10.575 32.925 0.825
10.575 32.925 0.525
11.475 32.025 -0.525
7.575 29.925 0.525
7.575 29.925 0.675
7.575 29.925 0.225
7.575 29.925 0.825
8.475 29.025 -1.275
8.475 29.025 0.225
8.475 29.025 0.825
11.025 32.625 0.525
11.025 32.625 0.375
11.025 32.625 0.075
11.625 31.725 -0.525
11.625 31.725 0.075
11.625 30.225 -0.225
7.875 29.475 0.225
11.175 32.475 0.375
11.175 32.475 -0.225
10.275 33.075 -0.225
10.275 33.075 -0.675
10.275 33.075 0.075
10.275 33.075 1.425
10.275 33.075 0.675
10.275 33.075 0.975
10.275 33.075 0.375
10.875 32.775 0.825
10.875 32.775 0.525
11.325 29.625 0.225
8.175 29.175 0.225
7.725 29.625 0.375
7.725 29.625 0.675
7.725 29.625 0.225
7.725 29.625 0.075
7.275 31.125 1.575
9.375 28.725 0.975
9.375 33.225 -4.275
11.775 30.825 4.125
11.775 31.275 0.225
9.825 28.725 0.675
9.825 28.725 0.225
9.825 28.725 0.375
9.225 28.725 1.275
11.775 30.675 0.675
10.425 33.075 0.225
10.425 33.075 0.375
10.425 33.075 2.775
8.625 28.875 -0.075
10.425 33.075 0.675
10.425 33.075 1.875
10.725 32.925 0.675
10.725 32.925 1.275
10.725 32.925 0.225
10.725 32.925 0.375
11.475 29.775 0.375
7.575 29.775 0.675
9.975 33.225 1.425
9.975 28.725 0.375
9.975 28.725 0.225
9.975 28.725 0.075
7.275 30.525 0.975
7.275 30.525 0.225
10.125 33.225 2.475
10.125 33.225 0.825
8.925 28.725 -0.375
7.275 30.375 0.975
7.275 30.375 0.825
11.175 32.625 0.375
11.025 32.775 0.225
7.725 29.475 0.375
7.725 29.475 0.525
7.425 29.925 0.375
7.425 29.925 0.675
10.575 33.075 0.675
10.575 33.075 1.275
10.575 33.075 -0.525
8.475 28.875 0.225
8.475 28.875 0.375
10.275 33.225 0.225
11.775 31.725 -0.225
11.775 31.725 0.075
7.275 30.225 -0.225
8.775 33.225 3.525
7.575 29.625 0.675
7.575 29.625 0.525
8.175 29.025 0.225
11.925 30.975 0.825
9.525 28.575 0.675
11.925 31.125 3.975
7.125 30.825 1.125
7.125 30.825 1.425
7.125 30.825 2.325
9.675 28.575 0.525
9.675 28.575 0.825
9.825 33.375 0.675
11.925 31.275 0.225
11.925 31.275 -0.825
7.125 30.675 0.675
7.125 30.675 -0.075
7.125 30.675 1.275
7.125 30.675 1.125
7.125 30.675 0.525
10.725 33.075 0.975
10.725 33.075 0.825
10.725 33.075 1.275
10.725 33.075 0.225
8.325 28.875 0.225
8.325 28.875 0.675
8.325 28.875 -0.075
9.825 28.575 0.075
11.775 31.875 0.075
11.775 31.875 0.375
10.425 33.225 2.625
10.425 33.225 -0.225
10.425 33.225 0.375
10.425 33.225 1.575
10.425 33.225 1.125
10.425 33.225 0.975
10.425 33.225 0.525
7.275 30.075 0.225
7.275 30.075 0.075
7.125 30.525 2.925
7.125 30.525 2.175
7.125 30.525 0.075
11.325 29.325 0.375
11.925 30.525 0.075
9.975 28.575 0.075
9.975 28.575 0.375
9.075 28.575 0.075
11.475 32.475 0.525
11.475 32.475 0.375
7.575 29.475 0.525
7.575 29.475 0.675
7.575 29.475 0.375
11.025 29.025 -5.775
10.125 33.375 1.125
10.125 33.375 2.325
7.125 30.375 -0.075
7.125 30.375 0.375
10.125 28.575 0.075
10.125 28.575 0.225
11.775 32.025 0.075
11.775 32.025 0.525
11.775 32.025 -0.075
7.275 32.025 1.575
10.575 33.225 1.425
10.575 33.225 1.125
10.575 33.225 0.975
10.575 33.225 0.675
10.575 33.225 2.025
7.275 29.925 0.675
10.875 33.075 0.525
7.425 32.325 0.375
10.275 33.375 0.675
10.275 33.375 1.425
10.275 33.375 0.525
7.125 30.225 0.375
7.125 30.225 -0.075
7.125 30.225 1.275
11.775 32.175 -0.075
12.075 30.975 0.825
12.075 30.975 1.275
10.725 33.225 2.175
8.325 28.725 0.225
6.975 30.975 1.275
7.275 29.775 0.675
7.275 29.775 1.275
7.275 29.775 1.125
9.675 33.525 0.525
9.375 33.525 1.275
9.375 33.525 -3.375
9.675 28.425 0.375
9.375 28.425 0.225
9.375 28.425 0.825
6.975 30.825 1.125
6.975 30.825 1.725
7.575 29.325 0.375
11.175 29.025 5.775
7.875 29.025 -1.725
10.425 33.375 0.375
10.425 33.375 1.875
10.425 33.375 1.725
10.425 33.375 2.625
10.425 33.375 -0.375
11.925 31.875 0.075
11.925 31.875 -0.225
8.625 28.575 -0.525
12.075 30.675 0.375
9.225 28.425 0.375
9.075 33.525 1.275
12.075 31.425 0.225
6.975 30.525 0.375
6.975 30.525 -0.225
6.975 30.525 0.075
10.125 33.525 1.125
12.075 31.575 -0.825
10.575 33.375 0.225
10.575 33.375 0.825
10.575 33.375 -0.375
7.125 32.025 1.875
11.925 32.025 0.525
11.925 32.025 -0.525
11.925 32.025 0.075
12.075 30.375 -4.125
10.125 28.425 -0.075
11.925 29.925 -4.575
6.975 30.375 0.375
6.975 30.375 -0.075
8.175 28.725 0.375
10.875 33.225 0.525
7.275 29.625 1.125
11.775 32.325 -0.075
7.575 29.175 0.375
8.775 33.525 0.075
12.075 30.225 4.125
6.975 30.225 -0.225
6.975 30.225 0.825
7.425 29.325 0.375
11.925 32.175 -0.075
11.925 32.175 0.525
10.725 33.375 0.525
10.725 33.375 0.675
7.125 29.775 0.975
12.225 30.975 0.675
6.825 30.975 0.975
9.525 28.275 0.075
10.425 33.525 0.675
10.425 33.525 0.975
10.425 33.525 1.575
12.225 31.125 0.825
12.225 31.125 0.975
12.225 30.825 0.225
11.775 32.475 -1.725
7.275 29.475 0.075
7.275 29.475 -2.475
7.275 32.475 -0.525
6.825 31.125 -0.075
6.825 30.825 0.675
9.375 28.275 0.075
9.825 33.675 2.025
9.825 33.675 0.225
12.225 31.275 -6.075
12.225 30.675 0.525
6.825 30.675 0.675
9.825 28.275 1.875
9.975 33.675 -3.075
12.225 30.525 0.375
12.225 30.525 -0.525
12.225 30.525 0.225
6.825 30.525 0.825
6.825 30.525 0.075
6.825 30.525 0.675
10.875 33.375 2.175
7.125 29.625 0.375
11.925 32.325 -0.075
11.925 32.325 0.825
10.575 33.525 0.525
10.575 33.525 1.125
10.575 33.525 0.675
10.575 33.525 1.275
10.575 33.525 -0.225
10.125 33.675 1.125
7.425 32.775 -2.325
6.825 30.375 0.825
7.725 28.875 0.225
10.275 33.675 0.525
10.275 33.675 0.375
10.275 33.675 1.275
12.225 31.725 0.825
6.825 30.225 1.275
10.725 33.525 0.525
10.725 33.525 -0.675
12.075 32.175 0.525
6.975 32.175 0.825
6.975 29.775 0.375
6.975 29.775 0.675
6.975 29.775 0.825
6.975 29.775 0.525
7.125 29.475 0.225
11.925 32.475 -0.075
7.125 29.475 -0.075
7.125 29.475 0.525
10.425 33.675 0.375
10.425 33.675 0.525
10.425 33.675 0.825
6.825 30.075 1.725
6.825 30.075 0.975
8.625 28.275 0.525
8.625 28.275 0.225
12.375 30.975 0.075
12.375 30.975 2.175
9.525 33.825 0.375
12.375 31.125 0.225
12.375 31.125 0.375
12.375 30.825 0.075
12.375 30.825 0.225
12.375 30.825 0.525
9.675 33.825 0.225
12.375 31.275 0.525
6.675 30.675 1.725
9.825 33.825 0.525
9.225 33.825 0.375
7.275 32.775 -0.525
7.725 28.725 0.225
7.725 33.225 3.825
10.875 33.525 0.675
10.875 33.525 -0.075
10.875 33.525 -0.375
12.075 32.325 -3.675
12.075 32.325 0.375
12.075 32.325 0.075
12.375 31.425 0.825
12.375 31.425 -0.525
12.375 30.525 0.375
6.675 30.525 0.975
9.975 33.825 0.225
6.975 29.625 0.375
6.975 29.625 0.825
6.975 29.625 0.525
10.575 33.675 0.525
8.475 33.675 0.375
6.825 29.925 0.525
6.825 29.925 0.225
6.825 29.925 0.675
6.825 29.925 0.075
11.925 32.625 0.975
11.925 32.625 -0.075
12.375 31.575 1.425
6.675 30.375 0.375
10.125 33.825 2.925
7.125 29.325 0.225
7.125 29.325 0.375
7.125 29.325 0.075
7.125 29.325 -0.225
7.875 28.575 0.825
7.875 28.575 -0.075
7.875 28.575 0.225
7.875 28.575 0.675
12.375 31.725 0.975
12.375 30.225 0.825
6.675 30.225 0.225
6.675 30.225 0.975
8.775 28.125 -0.675
8.775 28.125 0.225
8.775 28.125 1.125
10.275 33.825 -0.075
10.275 33.825 -4.125
10.275 33.825 0.225
10.725 33.675 0.375
6.825 32.175 -2.925
6.825 29.775 0.675
6.825 29.775 0.525
6.825 29.775 0.225
10.725 28.275 0.375
8.025 28.425 6.975
6.975 29.475 -0.075
6.975 29.475 0.225
7.575 33.225 3.225
6.675 30.075 0.975
6.675 30.075 0.825
10.425 33.825 1.125
10.425 33.825 0.525
10.425 33.825 0.075
8.625 33.825 -1.125
8.625 33.825 0.825
12.525 30.975 0.525
7.125 29.175 0.075
7.725 28.575 -1.875
12.525 31.125 0.375
12.525 31.125 -0.075
12.525 30.825 0.075
9.675 33.975 -0.075
12.525 30.825 0.525
12.525 31.275 0.525
12.525 31.275 1.425
12.525 31.275 -0.675
12.525 31.275 1.575
12.525 30.675 0.375
12.525 30.675 0.825
12.525 30.675 0.225
9.825 27.975 2.025
10.875 33.675 0.675
12.225 32.325 -0.225
12.225 32.325 0.075
12.225 32.325 1.275
6.825 29.625 0.525
6.825 29.625 0.075
6.825 29.625 0.225
6.825 29.625 0.375
12.525 31.425 0.225
12.525 31.425 0.525
6.675 29.925 0.975
6.675 29.925 0.375
6.675 29.925 0.825
6.675 29.925 0.525
10.575 33.825 0.075
10.575 33.825 -0.075
7.875 28.425 0.225
8.475 28.125 0.675
6.975 29.325 0.375
6.975 29.325 0.225
12.525 31.575 0.375
12.525 31.575 0.525
6.525 30.375 0.975
11.025 33.675 -0.525
11.025 33.675 1.575
12.225 32.475 0.375
12.225 32.475 -0.075
6.825 29.475 0.675
10.275 33.975 0.675
12.525 31.725 0.225
12.525 31.725 0.975
12.525 31.725 -0.525
12.525 31.725 0.825
12.525 31.725 1.275
12.525 31.725 -1.275
12.525 31.725 0.675
6.525 30.225 0.975
10.725 33.825 1.575
10.725 33.825 0.975
10.725 33.825 0.825
6.675 29.775 0.975
6.675 29.775 0.525
6.675 29.775 -0.075
6.675 29.775 0.375
6.675 29.775 1.275
6.675 29.775 -0.525
7.725 28.425 0.375
6.975 29.175 0.075
6.975 29.175 -0.075
6.975 29.175 0.225
12.525 31.875 1.125
12.525 31.875 0.975
6.525 31.875 -2.775
6.525 30.075 0.825
6.525 30.075 -0.225
6.525 30.075 0.975
6.525 30.075 0.075
12.675 30.975 0.525
12.675 30.975 0.375
12.675 30.975 -0.075
12.675 30.975 0.225
12.675 31.125 -1.275
12.675 31.125 0.375
12.675 31.125 0.525
12.375 32.325 -0.525
12.675 30.825 0.225
12.675 30.825 0.075
6.675 29.625 0.975
6.675 29.625 0.525
6.675 29.625 -0.525
6.675 29.625 0.375
10.875 28.125 0.375
7.875 33.675 -3.375
9.825 34.125 1.575
12.225 32.625 -0.075
12.225 32.625 0.525
12.225 32.625 1.425
12.675 31.275 1.425
12.675 31.275 0.225
6.825 29.325 0.375
6.825 29.325 -0.075
12.525 32.025 -1.125
12.525 32.025 1.275
10.575 33.975 -3.675
6.525 29.925 0.075
6.525 29.925 0.525
6.525 29.925 0.675
6.525 29.925 0.975
6.525 29.925 0.225
8.475 27.975 0.975
9.975 34.125 0.975
12.675 31.425 0.675
12.675 31.425 0.525
12.675 31.425 0.375
6.375 30.525 0.825
11.925 33.075 -1.575
7.125 28.875 0.375
7.425 28.575 0.225
12.675 31.575 0.525
12.675 31.575 0.375
12.675 31.575 -0.675
6.375 30.375 0.975
6.375 30.375 -3.075
11.475 33.525 0.975
6.975 32.925 -2.475
7.575 28.425 0.675
6.975 29.025 -2.175
6.675 29.475 -0.075
6.675 29.475 0.375
8.025 33.825 2.475
11.025 33.825 0.075
11.025 33.825 -0.225
10.725 33.975 0.225
10.725 33.975 0.375
10.725 33.975 1.125
8.325 27.975 0.225
8.325 27.975 0.975
6.525 29.775 0.375
6.525 29.775 -2.625
6.525 29.775 -0.075
6.525 29.775 0.225
10.275 34.125 2.175
12.675 31.725 0.825
12.675 31.725 -0.675
12.675 31.725 0.525
6.375 30.225 0.975
12.225 32.775 -0.075
6.825 29.175 0.525
6.825 29.175 0.075
11.325 28.275 -1.125
10.425 34.125 1.575
8.625 34.125 2.175
8.625 34.125 1.575
12.675 31.875 0.075
6.375 30.075 0.975
6.375 30.075 1.125
6.375 30.075 -0.225
6.375 30.075 0.825
6.375 30.075 0.075
8.625 27.825 0.075
10.875 33.975 0.375
10.875 33.975 0.825
8.175 27.975 2.925
12.525 32.325 -0.675
12.525 32.325 1.425
12.525 32.325 1.125
12.525 32.325 0.825
12.375 32.625 -1.725
6.675 29.325 0.225
6.675 29.325 -0.675
11.175 33.825 1.725
7.875 28.125 0.825
9.675 34.275 1.275
12.825 31.125 0.075
12.075 33.075 -0.225
7.425 28.425 0.225
7.425 28.425 -2.025
12.825 31.275 0.225
12.825 31.275 -0.225
12.825 31.275 0.075
12.825 31.275 0.375
12.675 32.025 0.825
12.675 32.025 0.075
12.675 32.025 0.225
6.375 29.925 -0.075
6.375 29.925 -0.225
6.375 29.925 0.975
6.375 29.925 0.225
12.225 32.925 -0.075
12.825 31.425 1.575
12.825 31.425 1.725
12.825 31.425 -0.075
12.825 31.425 0.375
6.825 29.025 0.225
10.125 34.275 2.175
12.825 31.575 0.525
12.825 31.575 0.375
12.525 32.475 1.425
11.025 33.975 -0.075
6.525 29.475 1.875
6.525 29.475 0.975
6.525 29.475 0.075
8.925 27.675 1.575
6.225 30.375 0.975
12.375 32.775 0.525
12.675 32.175 0.975
8.325 34.125 0.525
6.675 29.175 0.375
6.375 29.775 0.225
6.375 29.775 -0.225
6.375 29.775 0.075
6.375 29.775 0.825
6.375 29.775 -0.375
6.375 29.775 0.375
6.375 29.775 1.125
8.325 27.825 1.425
8.325 27.825 1.125
10.275 34.275 0.675
12.825 31.725 0.525
6.225 30.225 -2.175
6.225 30.225 1.275
6.975 28.725 -0.825
12.825 31.875 0.675
12.825 31.875 0.825
12.825 31.875 1.125
6.225 31.875 -4.875
12.225 33.075 -0.225
8.625 27.675 0.825
6.825 28.875 0.225
6.225 30.075 0.075
7.425 28.275 0.225
7.425 28.275 -0.075
12.525 32.625 -0.825
11.175 33.975 -0.225
6.525 29.325 0.375
6.375 29.625 0.525
6.375 29.625 0.075
8.175 27.825 1.275
8.175 27.825 0.975
12.975 31.125 0.825
6.675 29.025 0.675
9.825 34.425 1.425
8.475 34.275 0.975
12.825 32.025 0.375
12.975 31.275 0.375
12.975 31.275 0.225
12.975 31.275 0.075
12.975 31.275 0.675
6.225 29.925 -0.075
6.225 29.925 0.975
8.475 27.675 0.675
8.475 27.675 0.825
12.975 31.425 0.375
12.975 31.425 0.225
11.025 34.125 0.525
11.025 34.125 -0.225
12.675 32.475 -0.375
12.675 32.475 1.725
8.025 27.825 1.275
8.025 27.825 1.425
12.525 32.775 0.075
11.325 33.975 0.825
11.325 33.975 -0.975
11.325 33.975 1.125
6.525 29.175 1.125
6.525 29.175 0.375
6.525 29.175 0.075
12.975 31.575 0.075
12.975 31.575 0.675
12.975 31.575 0.225
12.975 30.375 0.375
10.725 34.275 1.875
8.325 27.675 0.975
6.225 29.775 -0.075
6.225 29.775 0.675
6.825 28.725 0.225
7.275 28.275 0.375
12.975 31.725 0.525
12.975 31.725 1.275
12.975 31.725 0.375
6.675 28.875 2.175
6.675 28.875 0.225
11.175 34.125 0.675
12.675 32.625 -0.825
6.375 29.325 0.525
7.875 27.825 1.275
7.875 27.825 -1.725
7.875 27.825 1.425
10.875 34.275 -0.075
10.875 34.275 -0.675
12.975 31.875 0.525
8.175 27.675 1.125
6.075 30.075 -0.225
12.525 32.925 -0.075
12.525 32.925 -0.825
6.525 32.925 -4.275
6.525 29.025 0.375
6.525 29.025 0.825
6.525 29.025 0.225
5.925 30.975 -0.675
13.125 31.125 0.675
13.125 31.125 0.225
13.125 31.125 1.875
9.375 34.575 0.675
12.975 32.025 2.475
13.125 31.275 0.375
13.125 31.275 0.225
13.125 31.275 -0.375
9.225 34.575 5.025
11.025 34.275 0.675
6.225 29.475 0.525
8.025 27.675 1.275
8.025 27.675 0.975
8.025 27.675 1.425
11.025 27.675 -5.475
11.325 34.125 -0.375
12.675 32.775 -0.375
12.675 32.775 -0.075
5.925 31.425 -5.325
6.375 29.175 0.525
6.375 29.175 0.375
6.375 29.175 0.225
6.675 28.725 0.225
13.125 31.575 0.375
13.125 31.575 0.075
13.125 31.575 0.225
12.975 32.175 0.975
6.075 29.775 0.825
11.625 33.975 0.825
12.525 33.075 -0.075
6.525 28.875 0.375
6.525 28.875 0.225
6.525 28.875 0.075
13.125 31.725 0.075
13.125 31.725 0.525
13.125 31.725 0.675
13.125 31.725 0.375
6.225 32.625 -3.225
7.875 27.675 1.575
6.225 29.325 0.525
12.675 32.925 0.375
12.675 32.925 0.525
7.575 34.125 2.025
12.975 32.325 0.825
6.075 29.625 0.525
6.375 29.025 0.375
6.375 29.025 0.525
6.375 29.025 1.125
6.375 29.025 0.225
13.125 31.875 0.675
13.125 31.875 0.375
13.125 31.875 1.875
13.125 31.875 0.225
13.125 30.075 -1.725
6.975 33.675 -2.025
13.125 32.025 -0.075
12.525 33.225 -0.225
6.525 28.725 0.075
6.525 28.725 0.225
7.275 27.975 -2.475
11.325 34.275 0.675
12.825 32.775 -2.625
6.225 29.175 -1.725
6.225 29.175 0.225
6.225 29.175 -2.925
6.225 29.175 0.525
6.225 29.175 0.825
11.025 34.425 -1.125
11.025 34.425 -0.225
11.025 34.425 1.425
13.275 30.675 2.475
8.025 27.525 0.975
13.275 31.425 -0.825
5.775 31.425 -5.475
9.075 27.225 0.975
11.625 34.125 0.675
12.675 33.075 -0.975
6.375 28.875 0.525
6.375 28.875 0.375
6.375 28.875 0.225
13.275 31.575 -1.275
13.275 31.575 0.375
6.825 28.275 0.225
11.175 34.425 -0.375
7.875 34.425 2.325
12.375 33.525 -0.375
12.975 32.625 0.525
13.275 31.725 0.225
13.275 31.725 0.375
13.275 31.725 0.675
13.275 31.725 0.075
13.275 31.725 0.525
8.775 34.725 0.225
12.075 33.825 -0.525
6.075 29.325 0.825
6.075 29.325 1.275
6.975 28.125 0.675
6.225 29.025 0.375
6.225 29.025 0.225
6.225 29.025 0.525
12.525 33.375 -0.225
12.525 33.375 -0.075
11.925 33.975 -0.525
6.525 28.575 -0.075
13.275 31.875 0.375
13.275 31.875 0.825
11.775 34.125 -0.525
12.675 33.225 0.675
6.375 28.725 0.075
6.375 28.725 0.375
6.375 28.725 0.225
6.375 28.725 0.825
6.375 28.725 -0.075
11.325 34.425 0.375
6.075 29.175 0.675
6.075 29.175 0.825
6.075 29.175 -2.625
13.275 32.025 1.575
13.275 32.025 0.375
13.275 32.025 1.875
8.475 34.725 0.075
13.125 32.475 0.825
5.625 30.975 0.825
5.925 29.475 -3.675
11.025 34.575 1.425
13.425 31.125 -0.075
11.625 34.275 0.375
12.825 33.075 -0.075
6.225 28.875 0.525
6.225 28.875 0.375
13.425 31.425 1.425
13.425 31.425 -0.225
13.425 31.425 2.325
12.225 33.825 -1.875
12.225 33.825 -0.825
6.825 28.125 0.225
12.525 33.525 -0.225
13.275 32.175 0.825
13.275 32.175 0.525
13.275 32.175 0.675
12.075 33.975 -0.675
6.975 27.975 -0.075
6.975 27.975 0.225
13.425 31.575 1.425
13.425 31.575 0.375
5.625 30.375 0.675
12.675 33.375 0.525
5.925 29.325 0.675
5.925 29.325 -1.575
5.925 29.325 0.525
7.875 27.375 0.825
6.375 28.575 0.075
7.575 34.425 -0.825
12.975 32.925 -0.375
12.975 32.925 -0.075
6.075 29.025 0.525
6.075 29.025 0.375
6.075 29.025 0.225
6.075 29.025 0.675
7.575 27.525 2.175
7.575 27.525 0.825
13.425 31.725 0.075
13.425 31.725 0.525
13.425 31.725 0.375
10.875 34.725 -0.525
13.275 32.325 0.675
12.825 33.225 -0.075
12.825 33.225 0.375
6.225 28.725 0.075
6.225 28.725 0.225
6.225 28.725 -2.625
6.225 28.725 0.525
6.225 28.725 0.375
13.425 31.875 0.825
13.425 31.875 0.375
13.425 31.875 0.525
13.425 31.875 0.225
5.925 29.175 0.525
5.925 29.175 0.825
11.325 34.575 0.525
7.725 27.375 1.275
6.675 28.125 0.225
6.825 27.975 0.375
6.825 27.975 0.675
11.625 34.425 0.525
13.425 32.025 0.825
13.425 32.025 0.525
13.425 32.025 0.375
12.975 33.075 -0.825
12.975 33.075 -0.075
6.075 28.875 0.525
6.075 28.875 0.375
6.075 28.875 0.225
13.575 30.975 1.425
13.575 30.975 1.875
6.375 28.425 -0.075
5.475 30.825 1.125
6.975 27.825 -2.925
6.975 27.825 0.225
5.475 30.675 1.875
13.575 31.425 0.225
13.575 30.525 -2.175
12.825 33.375 -1.425
12.825 33.375 -0.525
13.425 32.175 2.475
13.425 32.175 0.375
6.225 28.575 0.075
6.225 28.575 0.225
6.225 28.575 0.375
8.325 27.075 0.675
13.575 31.575 0.225
5.475 30.375 0.825
7.575 34.575 0.075
5.925 29.025 0.525
13.275 32.625 -1.425
13.275 32.625 -1.275
11.175 34.725 -0.075
7.875 27.225 0.525
5.775 29.325 0.825
5.775 29.325 0.225
5.775 29.325 0.075
5.775 29.325 0.675
13.575 31.725 0.525
12.975 33.225 0.375
5.475 30.225 -0.225
5.475 30.225 1.125
10.875 34.875 -0.375
13.425 32.325 0.525
13.425 32.325 -0.375
13.425 32.325 0.375
8.175 27.075 0.675
6.675 27.975 0.225
12.525 33.825 -0.825
13.575 31.875 0.525
13.575 31.875 0.225
6.825 34.125 -1.875
6.825 27.825 -0.075
6.825 27.825 0.225
13.275 32.775 0.975
11.325 34.725 -0.375
5.775 29.175 0.675
5.775 29.175 0.975
5.775 29.175 0.075
11.625 34.575 -0.525
5.925 28.875 0.975
12.825 33.525 -0.825
6.975 34.275 -1.125
6.225 28.425 -0.225
6.225 28.425 0.225
6.225 28.425 1.275
11.025 34.875 0.075
11.025 34.875 0.375
8.025 27.075 0.825
8.025 27.075 0.525
13.575 32.025 0.525
5.475 32.025 -3.225
5.475 29.925 1.275
12.975 33.375 -1.125
12.975 33.375 -0.225
5.325 30.825 0.975
6.075 28.575 0.075
7.125 27.525 1.275
13.575 32.175 0.375
13.575 32.175 0.525
5.325 30.525 1.125
5.325 30.525 0.375
11.475 34.725 0.675
11.475 34.725 0.825
11.475 34.725 0.225
5.775 29.025 0.075
5.775 29.025 0.225
5.775 29.025 0.675
5.775 29.025 1.725
13.425 32.625 0.525
13.425 32.625 -1.125
5.625 29.325 0.675
5.625 29.325 1.125
5.625 29.325 0.525
7.875 27.075 0.525
7.875 27.075 0.825
7.875 27.075 0.675
5.325 30.375 0.975
5.925 28.725 0.975
7.275 34.575 1.125
6.675 27.825 0.375
12.825 33.675 -0.975
6.825 27.675 0.225
13.725 31.725 1.125
5.325 30.225 0.525
13.575 32.325 0.225
13.575 32.325 -0.075
13.575 32.325 0.375
13.575 32.325 0.075
12.975 33.525 1.725
12.975 33.525 -0.225
6.075 28.425 0.075
6.975 27.525 0.975
11.325 34.875 0.225
11.325 34.875 -0.525
13.725 31.875 0.225
13.425 32.775 0.975
13.425 32.775 -1.125
5.325 30.075 1.275
5.625 29.175 0.675
7.725 27.075 0.375
5.775 28.875 0.225
5.775 28.875 1.275
5.775 28.875 0.375
5.775 28.875 0.075
13.575 32.475 0.375
13.575 32.475 -1.275
13.575 32.475 0.225
13.125 33.375 -0.075
13.125 33.375 0.375
5.925 28.575 1.125
5.325 29.925 0.975
13.875 30.975 1.125
12.675 33.975 0.075
13.875 30.825 0.825
11.475 34.875 -0.075
11.475 34.875 -0.225
13.425 32.925 1.125
13.425 32.925 0.975
12.825 33.825 -0.375
12.825 33.825 -0.825
5.175 30.675 0.675
5.625 29.025 0.825
5.625 29.025 0.675
5.625 29.025 0.525
5.625 29.025 0.375
5.625 29.025 0.075
7.575 27.075 -0.075
13.725 32.175 0.675
13.725 32.175 0.525
13.725 32.175 0.075
5.325 29.775 0.825
13.575 32.625 -1.125
11.775 34.725 -1.125
11.775 34.725 2.325
5.775 28.725 1.125
7.875 26.925 0.375
7.875 26.925 1.125
7.875 26.925 1.575
7.875 26.925 0.225
5.475 29.325 -2.775
5.475 29.325 0.675
12.975 33.675 -0.225
6.075 28.275 0.375
13.125 33.525 -0.075
13.725 32.325 0.375
5.925 28.425 -3.375
6.975 27.375 1.275
6.975 27.375 1.125
6.975 27.375 0.825
6.975 34.575 2.175
5.625 28.875 0.825
5.625 28.875 0.375
13.425 33.075 1.125
7.425 27.075 0.075
7.425 27.075 0.225
11.325 35.025 0.225
11.325 35.025 2.625
7.725 26.925 1.425
5.475 29.175 0.825
13.875 31.875 0.225
13.275 33.375 -0.075
13.275 33.375 -0.375
5.775 28.575 1.125
6.375 27.825 0.075
6.375 27.825 1.275
12.525 34.275 0.675
12.825 33.975 -0.675
13.725 32.475 0.675
13.725 32.475 1.575
6.225 27.975 -0.825
6.225 27.975 -0.375
6.525 27.675 0.825
8.025 26.775 0.225
8.025 26.775 1.125
8.025 26.775 0.675
12.975 33.825 -0.525
6.075 28.125 -0.375
6.075 28.125 0.675
6.075 28.125 1.575
8.475 35.325 1.725
11.475 35.025 -0.225
7.575 26.925 1.275
7.575 26.925 0.525
5.475 29.025 0.225
5.475 29.025 1.125
5.475 29.025 0.825
5.475 29.025 0.675
13.125 33.675 -0.525
5.025 30.975 1.425
6.825 27.375 1.425
6.825 27.375 1.125
5.925 28.275 -0.825
5.925 28.275 1.875
11.775 34.875 0.075
7.275 27.075 0.675
13.875 32.175 0.225
5.175 29.775 1.275
5.175 29.775 1.425
5.025 30.525 -0.225
13.275 33.525 0.225
13.275 33.525 -0.225
13.275 33.525 -5.775
13.275 33.525 -0.075
5.775 28.425 1.125
5.025 30.375 1.125
13.875 32.325 0.375
13.875 32.325 0.675
13.875 32.325 0.525
8.175 26.625 1.125
11.625 35.025 0.225
13.575 33.075 -0.825
6.375 27.675 0.825
5.475 28.875 0.675
5.475 28.875 0.375
5.475 28.875 0.975
6.225 27.825 0.225
11.325 35.175 -0.675
13.725 32.775 -0.825
5.325 29.175 0.825
7.725 26.775 0.075
12.525 34.425 -0.525
6.075 27.975 -0.525
6.075 27.975 0.375
13.425 33.375 -0.075
13.425 33.375 1.425
5.625 28.575 -0.075
13.125 33.825 1.875
13.875 32.475 0.525
8.025 26.625 0.825
8.025 26.625 0.525
8.025 26.625 0.675
13.275 33.675 -0.225
13.275 33.675 0.375
6.825 27.225 1.125
5.775 28.275 0.225
5.775 28.275 0.975
11.475 35.175 -0.375
11.475 35.175 -0.225
13.725 32.925 -0.975
5.325 29.025 1.125
5.325 29.025 0.825
5.475 28.725 0.525
5.475 28.725 0.225
5.475 28.725 1.125
13.875 32.625 0.675
13.875 32.625 1.275
4.875 31.125 -2.475
11.175 35.325 1.875
7.875 26.625 0.675
7.875 26.625 0.825
7.875 26.625 0.225
10.725 35.475 0.675
5.625 28.425 0.675
5.625 28.425 -0.375
5.625 28.425 0.525
9.225 26.325 -1.425
6.225 27.675 0.225
4.875 31.425 1.125
6.075 27.825 -0.975
6.075 27.825 0.375
6.375 27.525 0.225
6.375 27.525 0.675
13.125 33.975 -0.225
13.125 33.975 -0.375
5.925 27.975 -0.525
6.525 27.375 1.425
6.525 27.375 1.575
4.875 31.575 0.375
4.875 31.575 0.075
11.625 35.175 0.825
11.625 35.175 -0.225
11.625 35.175 0.225
11.625 35.175 0.375
13.725 33.075 -0.975
13.725 33.075 -1.125
14.025 32.325 0.675
14.025 32.325 1.275
11.925 35.025 1.575
11.925 35.025 0.075
11.325 35.325 0.675
11.325 35.325 0.375
5.475 28.575 0.375
5.475 28.575 -0.225
5.475 28.575 0.675
7.725 26.625 0.975
13.275 33.825 0.525
13.275 33.825 -0.225
5.775 28.125 -1.425
5.775 28.125 0.375
4.875 30.075 0.225
14.025 32.475 0.975
14.025 32.475 1.425
11.025 35.475 0.825
5.625 28.275 0.375
5.625 28.275 -0.075
5.625 28.275 0.975
5.625 28.275 0.825
5.625 28.275 0.675
11.775 35.175 -0.225
11.775 35.175 0.075
13.725 33.225 -0.825
7.275 26.775 0.375
14.175 32.025 2.175
11.475 35.325 0.825
11.475 35.325 0.375
5.175 29.025 -0.075
6.075 27.675 -0.825
6.075 27.675 -0.675
6.375 27.375 0.375
6.375 27.375 0.075
6.375 27.375 -0.225
13.575 33.525 1.275
13.575 33.525 -1.275
5.475 28.425 1.575
5.475 28.425 0.225
5.475 28.425 1.125
5.475 28.425 -0.375
14.025 32.625 0.375
14.025 32.625 1.275
9.375 35.775 0.825
5.775 27.975 0.375
13.425 33.825 -0.075
5.625 28.125 0.825
5.625 28.125 0.225
5.625 28.125 1.125
5.175 28.875 0.075
11.625 35.325 0.825
11.925 35.175 -1.575
4.725 31.575 0.375
5.325 28.575 -3.675
5.325 28.575 -2.175
5.325 28.575 1.125
7.125 26.775 2.475
10.875 35.625 1.275
14.175 32.325 0.825
11.325 35.475 -0.675
5.025 29.175 0.525
5.025 29.175 -0.075
7.725 26.475 0.375
5.475 28.275 0.525
5.475 28.275 0.825
5.475 28.275 -0.225
5.475 28.275 1.275
5.475 28.275 0.675
5.475 28.275 0.975
12.825 34.575 2.925
5.925 27.675 4.125
5.925 27.675 -0.675
6.225 27.375 0.375
11.025 35.625 -0.225
11.025 35.625 1.275
14.175 32.475 0.075
14.175 32.475 1.425
13.875 33.225 -0.975
5.175 28.725 0.225
11.775 35.325 2.475
5.775 27.825 0.375
5.775 27.825 0.225
11.775 35.325 -0.375
11.775 35.325 0.825
14.025 32.925 1.575
14.025 32.925 -0.825
11.475 35.475 0.375
12.075 35.175 2.175
12.075 35.175 2.475
13.725 33.525 -1.125
13.725 33.525 0.075
13.725 33.525 -0.975
14.325 32.025 0.975
5.325 28.425 1.725
5.325 28.425 0.525
5.325 28.425 -0.375
5.325 28.425 0.675
5.625 27.975 0.225
13.425 33.975 -0.225
7.875 26.325 0.525
10.725 35.775 0.675
9.375 35.925 0.825
13.575 33.825 1.725
13.575 33.825 -0.075
13.575 33.825 -0.225
13.575 33.825 -0.375
6.675 26.925 0.225
5.475 28.125 -0.975
5.475 28.125 0.225
