# .PCD v0.7 - Point Cloud Data file format
VERSION 0.7
FIELDS x y z
SIZE 4 4 4
TYPE F F F
COUNT 1 1 1
WIDTH 2048
HEIGHT 1
VIEWPOINT 0 0 0 1 0 0 0
POINTS 2048
DATA ascii
-37.575 114.525 0.675
-37.875 114.225 0.975
-37.275 114.825 -0.075
-37.725 113.925 0.225
-37.875 113.775 0.675
-38.025 113.775 0.375
-37.425 113.775 1.425
-38.175 113.625 0.525
-37.575 113.475 1.275
-36.675 114.225 -2.925
-36.975 113.625 1.425
-36.525 114.675 2.625
-37.875 113.325 1.125
-38.025 113.325 0.675
-38.175 113.325 0.825
-36.375 114.525 2.475
-38.025 113.175 2.325
-36.975 113.325 2.475
-36.975 113.325 -2.025
-36.375 113.925 3.525
-38.325 113.175 1.725
-36.225 114.525 0.975
-37.875 113.025 0.525
-36.525 115.575 -0.675
-36.825 113.175 1.125
-36.225 115.275 1.575
-36.525 113.325 1.575
-36.375 113.475 2.025
-36.225 113.625 1.725
-36.075 113.925 0.975
-38.325 112.875 2.325
-38.325 112.875 1.275
-36.375 113.325 2.475
-36.675 113.025 1.875
-36.225 113.475 2.625
-35.925 113.925 1.875
-36.225 115.725 1.725
-36.525 113.025 2.925
-36.525 113.025 -3.075
-36.075 115.575 1.725
-38.775 112.875 1.275
-36.075 113.475 1.875
-35.775 114.225 4.425
-36.225 115.875 0.975
-36.225 115.875 1.425
-36.375 113.025 0.825
-36.075 113.325 1.725
-36.075 113.325 0.825
-37.125 112.575 1.575
-35.775 113.925 2.025
-37.575 112.425 1.275
-36.225 116.025 0.675
-36.375 116.175 0.525
-36.075 115.875 0.675
-36.375 112.875 0.675
-37.425 112.275 1.575
-38.625 112.425 1.725
-35.775 115.725 -0.975
-35.775 113.325 1.125
-36.075 112.875 0.675
-35.925 113.025 0.975
-38.775 112.425 1.425
-35.625 113.475 0.975
-35.775 113.175 0.675
-35.325 114.675 1.125
-35.475 113.625 0.525
-36.075 116.325 0.825
-35.925 112.875 1.425
-36.075 112.725 1.275
-35.475 113.475 0.525
-35.475 113.475 0.225
-35.625 113.175 0.825
-35.925 112.725 1.275
-36.525 112.275 1.275
-37.575 117.075 2.925
-36.075 112.575 1.425
-35.175 114.675 0.525
-36.225 116.625 1.575
-36.225 112.425 1.425
-35.175 114.075 0.975
-35.325 113.475 1.425
-36.375 112.275 1.425
-35.475 113.175 1.575
-35.925 116.475 1.725
-35.775 112.725 0.975
-36.975 111.975 0.525
-36.975 111.975 1.275
-36.075 116.625 1.275
-35.025 114.525 1.725
-36.225 112.275 0.075
-35.025 114.225 2.025
-35.025 114.075 1.575
-35.025 114.075 2.025
-35.325 113.175 1.575
-35.925 116.625 2.025
-35.025 113.925 1.575
-36.075 112.275 0.975
-35.025 113.775 1.275
-34.875 114.225 1.125
-35.925 112.275 1.575
-35.475 112.725 4.575
-37.275 117.375 3.675
-34.875 114.975 -1.425
-34.875 114.075 1.575
-34.875 114.075 1.725
-34.875 114.075 -0.075
-35.175 113.175 1.575
-36.075 116.925 1.125
-34.875 113.925 1.575
-38.325 111.675 -0.075
-34.875 113.775 1.125
-34.725 114.675 0.975
-34.725 114.225 1.425
-36.375 111.825 1.275
-37.275 117.525 3.075
-34.875 113.475 0.975
-34.875 113.475 0.675
-36.675 111.675 1.425
-34.725 113.925 1.575
-35.025 113.025 1.725
-34.725 113.775 1.425
-34.875 113.325 0.525
-34.725 115.425 -4.275
-34.575 114.525 -3.975
-34.575 114.525 -1.875
-34.875 113.175 1.725
-34.575 114.225 1.575
-35.025 112.875 1.125
-35.025 112.875 3.525
-34.725 115.575 3.825
-34.725 113.475 0.975
-34.725 113.475 1.425
-34.725 113.475 0.675
-34.725 113.475 0.225
-35.475 112.275 1.575
-35.475 112.275 1.425
-35.625 112.125 1.725
-34.875 113.025 1.425
-34.875 113.025 1.125
-34.725 113.325 -0.225
-34.575 113.775 1.425
-36.975 111.375 1.125
-35.025 112.725 1.725
-34.575 113.625 1.125
-34.575 113.625 1.425
-34.725 113.175 1.875
-34.875 112.875 1.575
-34.425 114.675 -0.825
-34.425 114.675 0.975
-34.425 114.675 1.875
-34.425 114.375 1.425
-35.175 112.425 0.675
-34.575 115.575 0.825
-34.575 113.475 0.525
-34.575 113.475 0.975
-34.575 113.475 2.025
-34.575 113.475 1.275
-36.675 111.375 1.425
-36.675 111.375 1.575
-34.725 113.025 1.125
-34.425 113.925 2.025
-34.425 113.925 1.725
-34.425 113.925 1.575
-34.575 113.325 0.975
-34.575 113.325 1.425
-34.875 112.725 1.725
-34.875 112.725 1.875
-34.425 115.425 0.525
-35.625 111.825 0.675
-36.825 111.225 1.125
-34.725 112.875 2.325
-34.575 113.175 2.475
-34.875 112.575 2.175
-34.275 114.375 -0.825
-34.275 114.225 1.425
-34.275 114.225 2.175
-34.425 113.475 0.825
-34.275 114.075 1.875
-34.725 112.725 1.875
-34.275 115.125 1.425
-34.275 113.925 1.875
-35.175 112.125 1.125
-35.325 111.975 0.525
-34.425 113.325 1.125
-34.425 113.325 0.825
-34.425 113.325 2.175
-35.475 111.825 1.425
-34.275 115.275 0.225
-34.875 112.425 2.325
-34.575 112.875 1.875
-34.575 112.875 0.975
-34.275 115.425 -3.675
-34.275 115.425 0.225
-34.425 115.875 1.425
-36.825 111.075 1.425
-36.825 111.075 1.875
-34.725 112.575 1.575
-34.725 112.575 1.875
-34.725 112.575 1.725
-34.275 115.575 0.675
-34.275 115.575 1.725
-34.275 115.575 1.125
-34.275 113.475 1.125
-35.025 112.125 1.275
-34.425 113.025 1.275
-34.125 114.075 1.725
-34.125 114.075 1.875
-34.575 112.725 1.575
-35.475 111.675 2.325
-34.125 115.125 0.975
-34.125 113.925 3.075
-34.275 115.725 2.325
-34.425 112.875 0.975
-34.575 112.575 1.125
-34.575 112.575 1.275
-34.275 115.875 1.575
-34.125 115.425 1.725
-34.125 115.425 0.975
-35.025 111.975 2.475
-34.875 112.125 1.275
-34.125 115.575 1.725
-34.125 115.575 1.125
-34.125 115.575 1.275
-34.425 112.725 1.575
-34.575 112.425 1.275
-34.575 112.425 2.175
-34.125 115.725 1.725
-34.125 115.725 1.425
-34.125 113.325 1.125
-36.525 110.925 2.625
-33.975 115.125 1.875
-35.325 111.525 6.225
-34.725 112.125 -1.575
-34.725 112.125 1.275
-34.725 112.125 2.475
-34.125 113.175 0.975
-34.125 113.175 1.275
-36.375 110.925 0.975
-33.975 115.425 1.725
-36.825 110.775 1.275
-33.975 113.625 0.825
-34.275 112.725 1.875
-34.125 116.025 1.575
-34.875 117.225 0.225
-33.825 114.975 1.725
-33.975 115.725 0.825
-33.975 115.725 2.175
-33.975 115.725 1.725
-33.975 113.325 1.725
-36.525 110.775 1.725
-34.725 111.975 1.125
-33.825 115.125 -0.525
-34.575 112.125 -1.875
-34.125 112.875 1.725
-34.125 112.875 1.125
-34.275 112.575 1.275
-33.825 115.275 0.075
-34.425 112.275 0.975
-33.825 115.425 1.425
-34.875 111.675 2.625
-33.975 116.025 0.975
-33.975 113.025 2.175
-36.225 110.775 2.325
-34.275 112.425 0.975
-34.275 112.425 2.775
-33.675 114.375 2.025
-33.675 114.375 1.875
-34.575 111.975 1.275
-34.575 111.975 0.525
-33.675 114.975 2.025
-33.825 115.725 0.675
-33.825 113.325 1.875
-34.425 112.125 1.275
-33.675 113.925 -1.425
-33.975 112.875 1.575
-33.975 112.875 1.125
-34.275 112.275 0.975
-33.825 113.175 1.275
-34.725 111.675 2.625
-33.675 115.425 1.425
-33.675 113.625 1.125
-33.975 116.325 1.575
-34.125 112.425 1.125
-34.125 112.425 2.175
-36.225 118.425 1.125
-33.825 116.025 0.825
-33.825 116.025 1.725
-33.675 115.575 1.275
-33.675 113.475 1.125
-33.525 114.525 2.175
-33.525 114.375 1.725
-33.525 114.375 1.875
-34.275 112.125 1.125
-33.525 114.225 1.725
-33.525 114.225 1.875
-33.675 115.725 1.575
-33.675 115.725 0.825
-33.525 114.975 2.025
-33.525 114.075 2.925
-33.675 113.325 1.575
-36.525 110.475 1.875
-33.975 112.575 1.575
-33.825 116.175 2.175
-33.825 116.175 1.425
-34.725 111.525 0.825
-33.525 115.125 -3.675
-34.125 112.275 0.675
-34.125 112.275 1.275
-35.475 110.925 1.425
-34.575 111.675 2.925
-34.575 111.675 0.825
-34.575 111.675 3.075
-34.875 111.375 0.825
-35.025 111.225 2.775
-33.525 115.275 1.275
-33.525 115.275 1.725
-33.525 113.775 0.975
-33.675 115.875 1.125
-33.675 115.875 1.725
-33.675 113.175 0.975
-33.825 112.725 0.975
-33.825 112.725 0.825
-33.975 112.425 0.975
-33.975 112.425 1.275
-33.675 113.025 0.975
-33.675 116.025 1.725
-33.675 113.025 1.425
-34.125 112.125 1.275
-33.525 113.475 1.425
-33.525 113.475 0.975
-33.375 114.375 -3.225
-33.375 114.375 1.125
-33.825 112.575 2.325
-33.825 112.575 0.825
-33.825 112.575 1.725
-33.375 114.825 2.025
-33.375 114.225 1.125
-34.425 111.675 0.825
-34.875 111.225 1.125
-34.875 111.225 2.175
-33.525 115.725 -0.075
-33.975 112.275 2.925
-33.375 114.075 1.125
-33.675 112.875 2.475
-35.025 111.075 1.125
-33.375 115.125 -0.825
-33.375 115.125 -0.675
-33.525 113.175 0.825
-33.525 113.175 -0.225
-33.375 115.275 1.725
-33.675 112.725 1.125
-35.325 110.775 1.425
-33.975 112.125 1.125
-33.975 112.125 2.925
-33.975 112.125 1.425
-34.575 111.375 1.125
-34.575 111.375 3.075
-34.425 111.525 1.125
-34.425 111.525 2.925
-34.425 111.525 3.075
-34.875 111.075 2.775
-33.225 114.525 1.875
-33.825 112.275 0.825
-33.225 114.225 0.975
-33.375 113.325 0.675
-33.525 112.875 0.675
-33.225 114.975 0.675
-33.225 114.975 1.725
-33.225 114.975 2.475
-33.225 114.075 0.525
-33.225 114.075 0.975
-35.175 110.775 1.425
-33.975 111.975 0.975
-33.225 115.125 1.425
-33.225 113.925 0.675
-33.225 113.925 0.825
-33.375 113.175 0.825
-33.375 113.175 0.675
-33.225 113.775 0.825
-33.225 115.275 2.625
-34.575 111.225 2.925
-33.675 112.425 0.525
-33.525 116.325 2.475
-33.525 112.725 0.375
-34.275 111.525 2.025
-34.725 111.075 2.175
-33.825 112.125 1.125
-33.225 115.425 1.575
-33.225 113.625 1.275
-34.875 110.925 2.925
-33.375 113.025 1.575
-33.375 113.025 1.125
-33.975 111.825 1.125
-33.975 111.825 2.325
-33.225 113.475 0.675
-33.525 116.475 1.425
-33.525 116.475 1.575
-33.525 112.575 0.375
-33.525 112.575 0.975
-33.675 112.275 0.825
-33.675 112.275 0.975
-33.375 116.175 1.425
-33.375 116.175 1.125
-33.225 115.725 1.725
-33.825 111.975 0.375
-33.825 111.975 1.125
-34.125 111.525 0.975
-33.075 113.925 0.975
-33.075 113.925 1.125
-33.075 113.925 0.675
-33.225 113.175 0.825
-33.375 116.325 1.725
-33.675 112.125 1.725
-33.675 112.125 1.275
-33.675 112.125 0.075
-33.075 115.275 1.425
-33.075 115.275 1.725
-33.075 113.775 0.675
-33.075 113.775 0.825
-33.075 113.775 2.925
-34.875 110.775 3.075
-33.075 113.625 1.575
-33.075 113.625 0.825
-33.225 116.025 1.425
-33.225 113.025 1.275
-33.225 113.025 1.425
-36.225 110.025 3.675
-33.525 112.275 0.825
-33.375 116.475 2.625
-33.375 112.575 0.975
-33.375 112.575 2.025
-34.275 111.225 -2.625
-34.125 111.375 1.125
-33.975 111.525 0.975
-32.925 114.075 2.475
-33.825 111.675 0.675
-33.825 111.675 1.125
-33.375 112.425 1.275
-33.375 112.425 2.025
-33.525 112.125 0.525
-33.075 115.875 1.425
-33.075 113.175 0.825
-33.225 116.325 2.175
-33.225 116.325 2.625
-32.925 113.775 0.975
-32.925 115.425 1.575
-34.125 111.225 3.075
-33.225 112.575 0.975
-32.925 115.575 -0.375
-32.925 115.725 1.275
-32.775 114.375 -0.675
-33.675 111.675 0.675
-32.775 114.825 2.475
-32.775 114.225 2.325
-32.775 114.225 2.175
-33.225 116.625 1.125
-33.225 116.625 1.875
-33.375 112.125 0.825
-33.375 112.125 0.375
-33.075 116.325 0.825
-33.075 116.325 2.025
-33.075 116.325 1.125
-32.775 115.125 2.175
-32.925 115.875 1.275
-32.775 113.925 0.525
-32.775 113.925 0.675
-32.925 113.175 2.175
-33.525 117.225 1.575
-35.025 110.325 0.675
-35.025 110.325 2.325
-32.925 113.025 0.525
-32.925 116.025 1.725
-33.225 116.775 1.725
-35.475 110.025 1.125
-32.775 113.625 1.425
-32.775 113.625 2.475
-33.075 116.475 0.975
-33.075 116.475 1.125
-33.075 116.475 2.025
-33.075 116.475 1.725
-35.175 110.175 1.275
-32.775 115.575 1.875
-32.775 113.475 2.325
-33.525 117.375 1.725
-33.525 117.375 2.175
-33.525 111.675 0.675
-32.775 115.725 1.875
-33.075 116.625 0.825
-33.075 116.625 1.275
-32.625 114.675 -0.675
-32.625 114.825 0.825
-32.625 114.225 3.075
-32.625 114.225 2.025
-33.825 111.225 0.975
-33.825 111.225 1.275
-32.625 114.975 0.825
-32.625 114.975 1.575
-33.375 111.825 0.075
-32.925 116.325 0.975
-33.675 117.675 2.325
-32.775 115.875 1.425
-32.775 115.875 1.875
-33.675 111.375 0.225
-32.625 113.775 0.675
-33.525 117.525 1.875
-33.525 111.525 0.825
-33.075 112.275 2.925
-33.075 116.775 1.425
-33.075 116.775 2.625
-32.775 113.025 0.525
-33.225 111.975 0.825
-33.225 111.975 4.575
-32.625 113.625 1.425
-32.925 116.475 0.825
-32.925 116.475 2.925
-32.925 112.575 -0.675
-34.125 110.775 0.525
-34.125 110.775 0.375
-33.375 111.675 3.675
-34.875 110.175 0.075
-33.825 111.075 1.125
-32.625 115.575 1.875
-34.275 110.625 0.225
-34.275 110.625 0.375
-32.775 116.175 -0.525
-32.625 115.725 1.275
-32.925 116.625 0.975
-32.475 114.525 2.625
-34.575 110.325 0.525
-33.525 111.375 0.075
-32.475 114.675 0.675
-32.775 116.325 2.925
-32.775 112.725 2.475
-32.475 114.975 2.025
-32.625 113.175 0.375
-32.475 115.125 2.175
-32.475 113.925 1.125
-33.375 111.525 -0.075
-32.925 112.275 -0.075
-32.925 116.775 1.275
-33.075 117.075 1.725
-32.475 113.775 -1.425
-32.475 113.775 2.025
-32.475 113.775 0.675
-32.475 113.775 -1.125
-32.475 113.775 0.375
-32.475 115.275 2.475
-33.825 110.925 0.825
-33.825 110.925 2.175
-33.825 110.925 1.875
-34.125 110.625 0.525
-32.625 113.025 0.225
-32.775 116.475 0.825
-34.275 110.475 0.225
-33.225 117.375 2.925
-32.475 113.625 1.875
-32.475 113.625 0.825
-34.875 110.025 2.025
-33.225 111.675 1.275
-34.425 110.325 0.375
-33.525 111.225 1.725
-32.625 112.875 2.625
-32.625 112.875 0.525
-32.925 116.925 1.425
-34.575 110.175 0.375
-33.075 117.225 2.925
-32.775 116.625 2.925
-32.775 116.625 1.725
-32.475 113.325 0.975
-32.475 113.325 1.275
-32.475 113.325 2.775
-32.325 114.525 0.375
-32.325 114.525 0.675
-32.325 114.375 0.825
-32.325 114.225 2.175
-33.225 111.525 -3.825
-32.625 112.725 -0.375
-32.625 112.725 0.375
-32.325 114.975 1.575
-33.675 118.125 -3.975
-32.475 113.175 0.675
-32.475 113.175 2.625
-32.475 113.175 0.975
-32.475 113.175 0.525
-32.325 115.125 -0.525
-34.275 110.325 0.675
-35.175 109.725 0.225
-32.775 116.775 1.575
-32.325 115.275 1.875
-32.325 113.775 0.675
-32.325 115.275 -0.525
-33.075 111.675 0.375
-34.875 109.875 -2.025
-32.475 113.025 0.975
-32.475 116.025 1.725
-32.475 116.025 2.025
-32.475 113.025 1.125
-32.475 116.025 -1.125
-32.475 116.025 1.425
-32.475 116.025 1.875
-33.375 111.225 1.575
-32.325 115.425 2.175
-32.325 113.625 0.975
-32.325 115.575 0.975
-32.325 115.575 2.175
-32.325 115.575 0.825
-32.775 116.925 2.625
-32.325 113.475 1.275
-32.325 113.475 -1.125
-32.325 113.475 1.125
-32.775 112.125 -0.225
-32.475 116.175 0.975
-32.475 116.175 0.525
-32.475 112.875 0.525
-32.475 112.875 0.225
-32.925 117.225 2.025
-32.925 111.825 -0.225
-33.825 110.625 -1.575
-32.325 115.725 2.175
-32.325 113.325 1.275
-33.075 111.525 -0.225
-32.475 116.325 0.675
-32.475 112.725 0.075
-32.475 112.725 3.825
-32.475 112.725 0.675
-32.175 114.525 0.675
-32.175 114.675 1.125
-32.175 114.675 1.275
-32.175 114.675 -0.525
-32.175 114.825 1.275
-32.175 114.225 -0.675
-32.175 114.225 1.425
-32.325 113.175 0.675
-32.775 117.075 1.725
-32.775 117.075 1.425
-32.775 117.075 1.275
-32.775 111.975 2.775
-32.775 111.975 2.625
-34.425 110.025 0.525
-34.425 110.025 0.675
-32.175 115.125 1.425
-32.175 115.125 0.825
-32.175 113.925 2.925
-32.925 111.675 0.375
-32.925 111.675 0.825
-34.875 109.725 1.575
-32.475 112.575 0.225
-32.175 115.275 0.825
-32.175 115.275 -1.125
-32.175 113.775 2.925
-32.325 113.025 2.775
-32.325 116.025 1.275
-32.175 115.425 0.825
-32.175 115.425 0.675
-33.825 110.475 3.375
-33.825 110.475 0.075
-33.825 110.475 0.675
-33.525 110.775 -3.825
-32.625 112.125 -0.675
-32.625 112.125 -0.825
-32.625 112.125 0.525
-32.775 117.225 1.875
-32.775 111.825 2.775
-32.325 116.175 0.675
-32.325 116.175 1.725
-32.325 116.175 0.825
-32.325 112.875 0.525
-33.375 110.925 1.575
-32.475 116.625 3.075
-32.475 116.625 2.025
-33.225 117.975 0.525
-34.275 110.025 0.525
-32.325 116.325 -1.575
-32.625 117.075 3.075
-32.025 114.825 -0.525
-32.025 114.225 3.075
-35.475 109.275 2.025
-32.475 112.275 0.975
-32.475 112.275 -0.525
-32.175 115.875 0.525
-33.675 110.475 1.275
-33.525 118.425 -4.275
-32.025 115.125 0.675
-32.025 115.125 0.375
-32.025 115.125 2.325
-32.325 112.575 -0.525
-32.325 112.575 2.325
-32.925 111.375 2.175
-32.025 115.275 2.025
-32.175 116.025 0.075
-34.125 110.025 0.675
-32.625 117.225 2.175
-32.475 116.925 1.875
-32.475 116.925 3.075
-35.325 109.275 2.025
-32.475 112.125 -0.975
-32.475 112.125 -0.525
-32.475 112.125 0.525
-32.775 111.525 0.375
-32.325 112.425 -0.375
-32.325 112.425 -0.075
-32.025 115.575 -0.375
-32.025 115.575 -1.275
-33.525 118.575 -4.275
-32.175 116.325 1.125
-32.475 111.975 -0.675
-32.325 116.775 3.525
-32.325 112.275 0.975
-31.875 114.525 -0.675
-31.875 114.675 2.775
-33.975 110.025 2.475
-33.975 110.025 0.975
-31.875 114.825 0.525
-31.875 114.825 1.875
-31.875 114.225 -0.675
-31.875 114.225 2.475
-31.875 114.075 0.975
-32.775 111.375 1.125
-31.875 115.125 3.075
-31.875 115.125 -1.575
-31.875 113.925 2.175
-31.875 113.925 -0.675
-31.875 113.925 2.325
-32.175 116.475 1.125
-32.175 112.575 -0.225
-32.025 113.025 3.375
-32.025 116.025 2.925
-31.875 115.275 1.275
-31.875 115.275 2.925
-31.875 115.275 2.775
-31.875 115.275 1.125
-31.875 113.775 3.675
-32.475 117.225 1.575
-32.325 116.925 2.025
-32.325 116.925 1.575
-32.325 112.125 0.525
-35.325 109.125 1.275
-35.325 109.125 0.975
-32.625 117.525 1.125
-32.625 117.525 0.675
-32.625 117.525 0.225
-31.875 115.425 1.275
-31.875 115.425 2.925
-31.875 113.625 3.825
-32.175 116.625 1.125
-32.025 112.875 3.525
-33.675 110.175 0.525
-32.775 111.225 -0.075
-32.325 117.075 1.575
-32.325 117.075 2.025
-32.475 117.375 1.425
-32.475 117.375 1.725
-32.025 116.325 2.025
-32.025 116.325 1.125
-32.025 116.325 2.625
-32.175 112.275 -0.525
-32.175 116.775 2.025
-32.175 116.775 1.275
-32.175 112.275 0.975
-32.175 112.275 -0.225
-32.625 111.375 -0.675
-31.725 114.525 -0.525
-34.125 109.725 1.425
-31.725 114.375 2.625
-31.725 114.675 -1.725
-31.725 114.825 -0.075
-31.725 114.825 -0.525
-31.725 114.825 2.475
-31.725 114.075 0.225
-32.025 116.475 1.425
-32.025 112.575 -0.825
-32.025 112.575 -0.375
-31.725 115.125 -1.875
-32.775 111.075 0.225
-34.275 109.575 2.025
-31.875 116.025 -0.225
-31.875 116.025 -0.075
-31.875 113.025 0.075
-31.875 113.025 2.325
-32.475 117.525 1.425
-31.725 113.775 3.975
-32.475 117.525 1.275
-32.475 111.525 0.075
-32.175 116.925 1.425
-32.175 116.925 1.125
-32.175 116.925 1.725
-32.175 112.125 0.525
-33.675 110.025 0.525
-31.725 115.425 -2.025
-31.725 115.425 -1.875
-31.725 113.625 2.625
-33.825 109.875 0.825
-33.825 109.875 0.525
-32.625 117.825 0.675
-32.025 116.625 1.275
-32.025 112.425 -0.375
-32.625 111.225 0.375
-34.425 109.425 0.975
-31.875 112.875 2.775
-31.725 115.575 2.925
-33.975 109.725 1.275
-32.325 111.675 0.225
-34.875 109.125 0.825
-32.175 117.075 1.275
-32.175 111.975 0.525
-34.125 109.575 1.275
-31.875 112.725 2.925
-32.475 117.675 1.575
-32.025 112.275 -0.525
-31.725 113.175 2.175
-33.525 110.025 0.825
-33.225 110.325 0.975
-32.625 117.975 0.375
-31.875 112.575 1.725
-33.675 109.875 0.825
-33.675 109.875 2.625
-32.325 111.525 0.525
-31.575 115.125 3.675
-32.025 116.925 1.875
-31.725 113.025 2.925
-31.725 113.025 0.975
-32.025 112.125 0.225
-32.025 112.125 0.525
-32.025 112.125 -0.375
-32.025 112.125 0.975
-33.825 109.725 0.675
-32.475 117.825 0.675
-32.475 111.225 -0.225
-33.975 109.575 1.575
-32.775 110.775 0.825
-31.725 112.875 -0.525
-32.175 111.675 0.375
-34.875 108.975 0.825
-34.125 109.425 1.275
-34.125 109.425 1.425
-33.375 110.025 0.825
-33.375 110.025 0.675
-33.225 110.175 0.675
-31.725 112.725 2.625
-31.575 115.725 0.375
-31.575 115.725 2.475
-31.575 115.725 0.825
-33.525 109.875 0.525
-31.575 113.175 -0.975
-32.025 117.225 0.375
-32.025 111.825 0.975
-31.725 112.575 2.025
-32.175 111.525 0.075
-32.175 117.525 1.425
-32.175 111.525 0.225
-31.425 114.075 0.375
-31.425 114.075 -1.125
-31.875 116.925 1.575
-31.875 112.125 0.975
-35.325 108.675 0.525
-32.325 117.825 1.425
-32.325 117.825 1.725
-32.325 111.225 1.425
-31.575 116.025 0.675
-31.575 113.025 2.625
-33.975 109.425 0.825
-33.975 109.425 1.425
-31.425 115.275 3.525
-31.425 113.775 2.925
-33.225 110.025 1.125
-34.125 109.275 1.125
-34.125 109.275 0.675
-34.125 109.275 1.575
-31.575 116.175 0.675
-33.075 110.175 1.275
-33.375 109.875 1.275
-32.025 117.375 1.275
-32.025 117.375 1.875
-32.025 117.375 1.125
-32.025 111.675 0.375
-32.925 110.325 -0.825
-32.925 110.325 1.125
-33.525 109.725 0.525
-33.525 109.725 0.975
-33.525 109.725 1.275
-32.175 117.675 -0.825
-31.875 117.075 2.025
-34.575 108.975 0.675
-31.425 115.575 -0.975
-31.425 113.475 -0.975
-31.425 113.475 -0.525
-32.325 117.975 0.525
-31.725 112.275 -0.675
-32.325 111.075 3.075
-31.575 116.325 0.675
-34.275 109.125 1.275
-31.425 115.725 -0.825
-31.425 115.725 0.675
-31.425 115.725 -0.525
-31.425 113.325 2.625
-32.625 110.625 -1.125
-32.625 110.625 2.925
-31.875 117.225 0.375
-31.875 117.225 0.975
-31.425 115.875 -0.075
-31.425 115.875 0.675
-31.425 113.175 2.775
-31.275 114.525 -3.225
-31.575 112.575 1.875
-31.275 114.675 -0.225
-31.275 114.675 0.675
-31.275 114.675 -1.725
-32.175 117.825 1.725
-32.175 117.825 1.275
-31.275 114.825 0.975
-31.275 114.225 -0.675
-32.175 111.225 -0.675
-34.425 108.975 0.675
-31.725 116.925 1.875
-31.725 116.925 1.725
-31.725 112.125 2.175
-33.075 110.025 1.275
-31.275 113.925 1.575
-34.125 109.125 2.775
-34.125 109.125 0.825
-34.125 109.125 0.975
-33.525 109.575 0.825
-32.775 110.325 -0.825
-32.775 110.325 2.925
-31.275 115.275 -0.825
-31.275 115.275 3.375
-31.575 116.625 -0.375
-31.575 112.425 2.775
-31.575 112.425 -0.525
-31.875 111.675 0.975
-31.275 115.425 0.225
-31.275 115.425 -1.125
-31.275 113.625 1.275
-32.025 111.375 1.575
-31.725 117.075 2.175
-35.175 108.525 0.525
-31.725 111.975 -0.525
-31.275 115.575 -0.825
-31.275 113.475 3.225
-34.275 108.975 2.175
-34.275 108.975 2.925
-31.425 116.325 -0.525
-31.425 116.325 -1.875
-31.425 112.725 1.275
-35.925 108.225 2.025
-31.275 115.725 -0.525
-31.275 113.325 3.075
-31.875 111.525 0.525
-31.875 117.525 -0.375
-31.875 117.525 1.725
-33.975 109.125 1.725
-33.975 109.125 0.825
-33.225 109.725 1.275
-33.225 109.725 0.675
-31.275 115.875 1.125
-31.275 115.875 0.975
-31.275 115.875 -0.075
-33.375 109.575 0.825
-31.425 112.575 2.175
-31.425 112.575 3.075
-31.425 112.575 3.675
-31.125 114.675 2.025
-31.575 112.125 2.175
-31.575 112.125 -0.525
-31.125 114.225 -0.375
-33.525 109.425 1.875
-32.175 118.125 1.425
-31.125 114.075 -0.525
-32.175 110.925 -0.075
-34.125 108.975 1.275
-34.125 108.975 0.975
-31.275 113.025 -0.825
-31.275 116.025 1.125
-33.675 109.275 2.325
-32.475 110.475 0.975
-31.425 116.625 -0.375
-31.425 116.625 -0.675
-31.425 112.425 1.275
-31.125 115.275 -1.425
-31.725 111.675 0.525
-31.875 117.675 1.125
-31.575 117.075 -0.225
-31.575 117.075 2.175
-31.275 112.875 0.675
-31.125 115.425 2.025
-31.125 113.625 -0.525
-31.125 113.625 3.075
-33.825 109.125 2.025
-32.025 117.975 3.075
-34.275 108.825 2.775
-33.075 109.725 0.675
-31.425 116.775 -0.525
-31.275 112.725 1.125
-31.275 112.725 -0.225
-33.975 108.975 0.675
-33.975 108.975 0.975
-33.975 108.975 2.775
-31.725 111.525 0.525
-31.725 117.525 -0.375
-31.125 113.325 2.325
-31.575 117.225 1.875
-31.875 117.825 2.475
-35.025 108.375 1.725
-34.425 108.675 3.075
-31.125 115.875 -0.075
-31.275 116.475 -0.075
-31.275 112.575 2.775
-31.425 112.125 3.525
-34.125 108.825 1.725
-34.125 108.825 0.975
-34.125 108.825 1.125
-31.425 112.125 2.025
-31.425 112.125 3.375
-32.025 110.925 2.625
-32.025 110.925 0.225
-33.675 109.125 1.875
-30.975 114.675 -1.725
-30.975 114.375 -1.575
-30.975 114.825 0.225
-30.975 114.225 -0.825
-30.975 114.975 0.075
-30.975 114.075 -0.675
-31.125 116.025 -1.125
-31.725 117.675 1.575
-30.975 115.125 -0.975
-30.975 113.925 3.975
-31.575 117.375 2.175
-34.875 108.375 1.425
-31.575 111.675 0.525
-31.575 111.675 2.625
-31.575 111.675 2.325
-31.575 111.675 0.225
-32.175 110.625 2.775
-36.975 107.775 1.275
-30.975 115.275 -1.275
-33.075 109.575 0.525
-33.075 109.575 1.725
-33.075 109.575 2.175
-34.275 108.675 0.975
-31.425 111.975 -0.675
-33.225 109.425 0.825
-33.225 109.425 0.675
-31.125 112.875 0.375
-31.125 112.875 0.825
-33.375 109.275 0.825
-32.025 110.775 0.675
-32.025 110.775 0.225
-33.975 108.825 1.725
-30.975 115.575 3.525
-31.275 116.775 -0.225
-31.275 116.775 -0.675
-31.125 112.725 0.825
-31.125 112.725 -1.275
-33.525 109.125 0.375
-35.925 107.925 1.425
-31.575 117.525 -0.075
-31.425 117.225 2.625
-31.425 111.825 -1.275
-35.025 108.225 -3.975
-30.975 113.325 0.675
-31.875 118.125 1.275
-31.875 110.925 0.375
-31.125 116.475 -2.025
-31.275 116.925 -0.675
-31.125 112.575 3.075
-31.125 112.575 1.275
-31.125 112.575 -0.975
-31.125 112.575 0.825
-30.975 115.875 0.225
-30.975 115.875 2.175
-30.975 113.175 1.875
-32.925 109.575 0.675
-30.825 114.525 -0.825
-32.625 109.875 -0.525
-33.075 109.425 0.525
-33.075 109.425 0.975
-33.825 108.825 1.725
-30.825 114.825 -0.525
-30.825 114.225 -0.825
-32.025 110.625 0.825
-31.575 117.675 2.475
-31.425 117.375 2.625
-30.975 113.025 2.775
-33.225 109.275 0.675
-33.225 109.275 0.825
-30.825 114.975 -2.175
-31.425 111.675 -0.825
-31.725 117.975 1.725
-31.725 117.975 2.175
-31.725 117.975 2.625
-34.275 108.525 0.975
-31.125 112.425 2.775
-31.125 112.425 0.825
-35.625 107.925 2.325
-32.325 118.875 0.525
-33.375 109.125 0.375
-31.275 111.975 2.625
-30.975 116.175 0.675
-30.975 116.175 0.225
-30.975 112.875 2.775
-30.975 112.875 -3.075
-30.975 112.875 2.325
-31.875 110.775 0.225
-31.125 112.275 2.925
-31.125 112.275 0.825
-31.125 116.775 0.375
-31.425 111.525 0.375
-31.575 117.825 2.175
-31.575 117.825 2.475
-30.825 115.575 -0.975
-30.825 113.475 2.625
-31.725 118.125 2.475
-31.725 118.125 2.175
-30.825 113.325 2.475
-30.825 113.325 -0.675
-32.925 109.425 0.975
-32.925 109.425 0.525
-33.075 109.275 2.775
-32.475 109.875 -1.875
-32.475 109.875 1.125
-31.125 116.925 3.975
-31.125 112.125 2.775
-30.975 116.475 -0.525
-30.975 112.575 2.625
-31.875 118.425 0.675
-31.875 118.425 1.875
-31.875 110.625 0.225
-33.825 108.675 -0.075
-31.425 117.675 1.125
-34.575 108.225 1.125
-34.575 108.225 1.875
-31.575 117.975 1.575
-31.575 117.975 2.325
-31.575 117.975 2.025
-31.575 117.975 1.275
-31.575 117.975 1.425
-31.275 117.375 2.325
-31.275 117.375 2.175
-31.275 111.675 2.475
-31.275 111.675 3.075
-31.275 111.675 2.325
-34.275 108.375 0.675
-34.275 108.375 1.425
-33.375 108.975 0.375
-30.825 116.025 0.225
-30.825 113.025 -0.825
-30.825 113.025 -0.675
-36.225 107.625 1.725
-30.675 114.975 -0.225
-30.975 116.625 2.925
-31.725 118.275 2.325
-31.725 118.275 1.425
-31.725 118.275 1.875
-30.675 115.125 -2.025
-31.125 111.975 -1.575
-35.175 107.925 -3.825
-30.675 113.775 -0.825
-30.825 116.175 0.525
-30.825 112.875 -0.675
-30.825 112.875 -0.825
-30.675 113.625 2.775
-32.625 109.575 1.575
-32.775 109.425 2.175
-32.775 109.425 1.575
-31.425 117.825 0.675
-31.425 117.825 2.475
-34.725 108.075 1.725
-32.925 109.275 -0.075
-32.925 109.275 0.525
-32.925 109.275 -0.225
-32.925 109.275 2.025
-32.475 109.725 1.425
-30.975 112.275 -0.525
-30.975 112.275 2.775
-31.875 110.475 0.225
-31.575 118.125 -0.225
-31.575 118.125 0.975
-30.675 113.475 -0.375
-30.675 113.475 1.725
-31.125 117.225 -0.075
-30.825 116.325 0.525
-30.825 116.325 -0.525
-30.825 112.725 2.325
-30.825 112.725 -0.225
-35.925 107.625 1.875
-30.675 115.725 2.475
-30.675 113.325 2.025
-30.675 113.325 -0.675
-36.525 107.475 1.725
-30.975 116.925 -0.675
-35.325 107.775 2.475
-30.975 112.125 2.625
-30.825 116.475 0.525
-30.825 116.475 3.225
-30.825 116.475 -0.225
-30.825 112.575 -0.975
-30.825 112.575 2.325
-33.375 108.825 0.375
-35.775 107.625 2.025
-31.275 117.675 -0.675
-30.675 115.875 -0.525
-34.575 108.075 0.675
-30.675 113.175 2.925
-31.275 111.375 0.375
-31.275 111.375 0.525
-31.275 111.375 0.975
-31.425 117.975 2.175
-31.425 111.075 2.325
-31.125 117.375 -0.825
-31.125 117.375 -0.225
-30.525 114.375 2.475
-30.525 114.375 -0.525
-30.525 114.225 -1.425
-30.525 114.225 2.925
-30.675 113.025 -1.125
-30.675 113.025 -0.525
-30.675 116.025 -1.125
-36.225 107.475 1.575
-30.825 116.625 0.525
-30.825 116.625 4.125
-30.825 116.625 -0.075
-30.525 114.975 -0.675
-30.525 114.975 4.725
-30.975 117.075 -0.525
-35.175 107.775 2.175
-32.475 109.575 1.425
-32.775 109.275 -0.825
-30.975 111.975 2.775
-30.525 113.925 0.675
-32.325 109.725 0.075
-32.925 109.125 0.675
-30.525 113.775 2.925
-30.525 113.775 4.275
-30.525 115.275 -0.525
-30.525 115.275 -0.225
-30.675 116.175 0.975
-33.075 108.975 0.675
-31.275 117.825 2.025
-31.275 117.825 -0.825
-34.425 108.075 1.725
-31.275 111.225 2.775
-31.125 117.525 1.725
-30.825 116.775 0.675
-30.825 116.775 -0.225
-30.825 112.275 2.775
-30.975 117.225 1.275
-30.975 111.825 2.775
-30.675 116.325 1.125
-30.675 116.325 0.375
-30.525 115.575 -0.225
-30.675 112.725 2.325
-30.525 113.475 2.475
-31.575 118.425 2.325
-31.575 118.425 1.125
-31.575 118.425 2.175
-31.575 118.425 1.575
-30.525 115.725 0.375
-30.525 113.325 -0.675
-30.525 113.325 1.725
-36.525 107.325 1.875
-30.825 116.925 -0.225
-30.825 116.925 -0.075
-30.825 112.125 1.875
-30.825 112.125 2.625
-31.125 111.375 0.525
-31.125 111.375 0.825
-34.575 107.925 -2.175
-34.575 107.925 1.875
-34.575 107.925 -2.025
-31.725 118.725 1.125
-31.725 118.725 1.275
-30.525 115.875 0.075
-36.375 107.325 1.575
-30.525 113.175 -0.525
-30.975 117.375 -0.675
-30.975 111.675 2.775
-31.425 118.275 2.175
-31.425 118.275 0.675
-31.425 118.275 2.325
-33.975 108.225 2.025
-30.375 114.375 -1.275
-30.375 114.375 3.375
-30.525 113.025 0.825
-30.525 113.025 2.925
-30.525 113.025 1.875
-30.525 113.025 -0.525
-30.525 113.025 2.025
-30.525 116.025 -0.375
-30.675 116.625 -0.675
-30.375 114.825 0.075
-30.675 112.425 3.825
-31.575 118.575 0.675
-33.675 108.375 2.775
-30.375 115.125 2.625
-30.375 113.925 0.675
-30.375 113.925 0.225
-30.375 113.925 -1.575
-31.125 117.825 1.275
-31.125 111.225 0.525
-34.425 107.925 1.875
-31.875 119.025 1.125
-31.875 110.025 3.225
-33.225 108.675 2.025
-33.225 108.675 1.575
-33.225 108.675 0.975
-33.225 108.675 3.075
-31.275 118.125 2.175
-31.275 118.125 2.625
-31.275 118.125 1.425
-30.975 111.525 2.625
-34.725 107.775 -1.725
-34.725 107.775 1.125
-34.725 107.775 1.725
-30.525 112.875 3.225
-30.525 112.875 1.275
-30.375 113.775 1.125
-30.375 113.775 0.675
-30.675 112.275 2.475
-30.675 116.775 3.075
-30.675 116.775 -0.675
-30.375 115.425 1.875
-33.825 108.225 2.475
-31.725 118.875 1.125
-30.525 116.325 1.125
-31.575 118.725 1.425
-30.675 116.925 -0.525
-30.675 112.125 2.475
-31.575 110.325 2.775
-36.525 107.175 2.025
-34.575 107.775 1.275
-34.575 107.775 1.575
-34.575 107.775 1.875
-30.975 111.375 0.225
-30.525 112.575 2.475
-33.975 108.075 1.875
-30.375 115.875 -1.875
-33.075 108.675 0.525
-31.425 118.575 1.425
-31.425 118.575 0.825
-33.675 108.225 2.325
-30.225 114.525 3.375
-31.725 110.025 3.375
-30.225 114.675 0.375
-30.375 116.025 1.725
-30.225 114.825 0.375
-30.225 114.975 3.075
-30.225 114.075 0.075
-30.225 114.075 3.675
-30.975 111.225 0.525
-31.125 118.125 0.375
-31.125 118.125 2.325
-34.125 107.925 2.025
-34.125 107.925 1.875
-30.825 111.525 2.325
-32.475 109.125 2.175
-31.575 118.875 1.575
-30.375 112.875 3.825
-30.375 112.875 1.875
-31.275 118.425 1.875
-30.225 113.775 3.675
-30.225 113.775 0.675
-30.225 113.775 3.525
-30.225 113.775 -0.375
-33.825 108.075 1.725
-31.275 110.625 2.775
-32.625 108.975 2.925
-30.525 112.275 -0.375
-30.525 116.775 -0.675
-30.525 116.775 4.125
-30.675 117.225 -0.375
-30.675 111.825 2.325
-30.225 115.425 0.225
-30.225 113.625 0.675
-33.525 108.225 -0.375
-30.225 115.575 0.825
-30.225 113.475 -0.825
-30.975 111.075 0.375
-35.325 107.325 -2.475
-30.525 112.125 -1.725
-31.125 110.775 3.225
-30.225 113.325 2.175
-30.375 116.475 0.375
-30.675 117.375 -0.525
-30.375 112.575 2.325
-30.375 112.575 2.175
-30.375 112.575 2.025
-34.875 107.475 1.125
-31.275 118.575 2.775
-31.275 118.575 1.425
-31.275 110.475 2.925
-30.225 113.175 2.775
-30.225 113.175 1.275
-30.225 113.175 2.325
-30.225 113.175 0.825
-33.225 108.375 2.625
-32.325 109.125 0.375
-30.525 117.075 -0.075
-32.175 109.275 0.675
-30.375 112.425 -0.225
-30.375 112.425 2.025
-30.225 116.025 0.375
-30.825 117.825 3.375
-32.625 108.825 2.325
-34.425 107.625 1.425
-34.125 107.775 1.875
-30.075 114.525 0.825
-30.075 114.525 0.375
-30.075 114.675 0.825
-30.075 114.675 3.525
-30.075 114.675 1.875
-30.075 114.675 0.375
-30.075 114.375 0.225
-30.075 114.375 0.825
-31.425 118.875 1.875
-30.075 114.825 0.525
-30.075 114.225 -0.075
-30.075 114.225 -0.525
-33.375 108.225 2.625
-31.125 118.425 0.525
-31.125 118.425 1.575
-30.225 116.175 0.075
-30.225 116.175 0.375
-36.075 107.025 1.275
-30.225 112.875 1.575
-30.075 113.775 -0.675
-30.075 115.275 2.625
-35.475 107.175 -4.575
-30.525 117.225 2.625
-30.525 117.225 -0.375
-31.275 118.725 1.125
-31.275 118.725 -1.575
-31.275 118.725 0.675
-30.075 113.625 0.675
-31.575 119.175 1.425
-30.225 116.325 -0.675
-30.825 111.075 0.375
-34.275 107.625 1.425
-30.675 117.675 -1.125
-30.075 113.475 2.175
-30.075 113.475 -0.075
-31.425 119.025 1.875
-31.425 119.025 1.575
-31.125 118.575 0.525
-31.125 118.575 2.025
-30.075 115.725 0.225
-30.075 115.725 -0.375
-30.075 115.725 0.825
-30.525 117.375 0.225
-30.075 113.325 -0.075
-32.175 109.125 2.925
-33.675 107.925 1.725
-30.225 116.475 0.525
-30.225 112.575 2.025
-30.225 112.575 0.225
-30.225 112.575 1.725
-32.025 109.275 -0.375
-32.025 109.275 0.825
-32.475 108.825 3.075
-30.075 115.875 0.225
-30.075 115.875 0.675
-30.075 113.175 -0.975
-31.725 119.475 1.575
-31.725 109.575 3.225
-30.375 117.075 -0.375
-30.375 117.075 0.825
-30.375 117.075 -0.675
-30.375 111.975 -1.725
-30.375 111.975 2.775
-31.275 110.175 0.225
-30.825 110.925 0.975
-33.825 107.775 2.025
-33.825 107.775 1.725
-33.825 107.775 3.525
-30.075 116.025 -0.525
-30.075 116.025 0.375
-30.975 110.625 1.725
-29.925 114.525 0.225
-34.725 107.325 1.275
-34.725 107.325 2.475
-30.525 117.525 0.375
-29.925 114.675 2.925
-29.925 114.225 2.475
-29.925 114.975 2.775
-29.925 114.075 0.075
-29.925 114.075 -0.675
-31.125 118.725 1.425
-30.075 112.875 -0.975
-30.075 112.875 -1.125
-30.375 117.225 -0.075
-30.375 117.225 -0.225
-35.475 107.025 -3.825
-32.175 108.975 -1.575
-34.275 107.475 1.725
-29.925 115.425 2.625
-29.925 113.625 3.825
-32.025 109.125 2.775
-30.075 116.325 0.525
-30.075 116.325 -0.075
-30.075 116.325 -2.775
-34.575 107.325 0.375
-34.575 107.325 -2.925
-30.075 112.725 1.425
-30.075 112.725 -1.125
-29.925 115.575 2.475
-29.925 115.575 0.225
-33.675 107.775 2.175
-31.725 119.625 1.575
-30.225 116.925 0.225
-35.325 107.025 1.875
-35.325 107.025 -4.125
-32.625 108.525 0.225
-31.725 109.425 3.225
-30.375 117.375 -0.075
-30.375 117.375 -0.525
-30.375 111.675 0.525
-30.075 116.475 0.525
-30.075 116.475 -0.675
-30.075 116.475 0.975
-30.075 116.475 0.225
-30.075 112.575 1.425
-31.125 118.875 1.425
-31.125 118.875 0.675
-31.125 118.875 2.475
-31.125 110.175 3.525
-30.675 110.925 0.825
-30.675 110.925 0.375
-31.425 119.325 1.275
-30.525 117.825 -0.225
-32.925 108.225 -1.275
-30.225 117.075 -0.075
-35.175 107.025 1.875
-30.075 116.625 0.525
-30.075 112.425 2.475
-30.075 112.425 2.625
-30.075 112.425 2.925
-30.075 112.425 3.225
-30.375 117.525 -0.375
-30.375 117.525 -0.225
-34.725 107.175 1.575
-34.725 107.175 0.525
-30.975 118.725 2.775
-31.275 119.175 2.025
-31.275 119.175 1.875
-29.775 114.675 4.125
-29.775 114.675 2.475
-29.775 114.675 3.975
-29.775 114.375 0.225
-29.775 114.375 3.975
-29.775 114.675 1.725
-29.775 114.225 -0.525
-32.025 108.975 -0.975
-32.025 108.975 -1.125
-32.025 108.975 -0.675
-32.325 108.675 -0.825
-32.325 108.675 -0.975
-30.225 117.225 1.875
-35.025 107.025 1.575
-30.225 111.825 2.625
-29.925 116.175 -0.375
-31.725 109.275 1.725
-32.475 108.525 2.625
-29.925 112.875 1.425
-30.075 112.275 1.275
-30.075 112.275 1.425
-30.075 116.775 2.175
-35.475 106.875 1.875
-30.525 117.975 0.375
-30.675 110.775 0.525
-33.975 107.475 1.725
-31.575 109.425 0.075
-31.575 109.425 0.375
-31.575 109.425 1.725
-34.575 107.175 0.375
-29.775 113.625 1.425
-29.925 116.325 -0.075
-31.425 119.475 1.575
-31.425 109.575 0.375
-29.775 113.475 1.275
-29.775 113.475 1.875
-30.975 118.875 1.725
-33.375 107.775 -0.525
-29.925 116.475 0.975
-29.925 116.475 2.775
-29.775 115.725 -1.125
-29.775 115.725 1.125
-29.775 115.725 -0.975
-31.275 119.325 2.025
-29.925 112.575 1.425
-29.925 112.575 0.975
-29.775 113.325 1.425
-30.525 110.925 0.075
-30.375 117.825 1.575
-34.425 107.175 -2.775
-34.425 107.175 -2.925
-32.025 108.825 2.025
-32.175 120.375 0.975
-29.775 115.875 -0.975
-32.325 120.525 0.225
-30.825 118.725 1.875
-30.825 118.725 1.725
-29.925 116.625 0.975
-29.925 116.625 -0.675
-29.925 116.625 0.525
-29.925 116.625 1.575
-34.725 107.025 0.825
-34.725 107.025 0.525
-29.925 112.425 1.125
-33.525 107.625 1.875
-31.575 109.275 2.625
-29.625 114.525 2.625
-29.625 114.525 3.375
-29.625 114.675 1.425
-29.625 114.375 3.375
-31.425 119.625 1.425
-29.625 114.225 3.375
-29.625 114.225 -0.975
-29.625 114.825 2.475
-29.625 114.825 0.075
-31.425 109.425 0.375
-31.425 109.425 0.825
-30.075 117.225 -0.375
-30.075 117.225 1.275
-29.625 114.075 3.375
-29.925 112.275 1.275
-29.925 112.275 1.425
-29.925 116.775 0.525
-30.525 110.775 0.375
-33.975 107.325 1.575
-30.375 111.075 1.275
-34.275 107.175 2.025
-34.275 107.175 1.275
-32.775 108.075 -0.675
-30.225 117.675 -0.375
-34.575 107.025 0.675
-29.625 113.625 1.575
-29.775 116.325 2.925
-29.775 116.325 -0.825
-29.775 116.325 -0.525
-29.775 116.325 -0.375
-30.825 118.875 1.875
-30.825 118.875 1.725
-30.825 118.875 0.975
-30.825 118.875 2.325
-33.375 107.625 2.025
-29.925 116.925 0.525
-29.925 112.125 0.675
-30.075 111.675 1.725
-30.075 111.675 -1.425
-31.875 108.825 2.625
-29.625 113.475 1.575
-32.025 108.675 1.575
-32.025 108.675 -0.525
-34.125 107.175 1.275
-29.775 116.475 0.375
-29.775 116.475 1.125
-29.775 112.575 1.125
-30.525 118.425 2.625
-30.525 110.625 0.975
-30.525 110.625 0.375
-30.225 117.825 -0.225
-34.425 107.025 1.125
-30.975 119.175 2.325
-30.675 118.725 1.725
-29.925 117.075 0.075
-30.675 110.325 -0.075
-29.925 111.975 1.275
-33.525 107.475 2.175
-30.075 117.525 -0.225
-31.275 119.625 1.425
-31.275 119.625 0.975
-29.775 116.625 -0.675
-29.775 116.625 0.375
-32.625 108.075 2.325
-29.775 112.425 1.575
-29.775 112.425 1.425
-31.275 109.425 2.925
-31.275 109.425 0.375
-30.825 119.025 2.325
-29.625 116.025 -0.825
-29.475 114.525 1.275
-31.125 109.575 1.125
-32.775 107.925 2.175
-32.775 107.925 2.625
-29.475 114.675 -1.275
-29.475 114.675 2.025
-29.925 117.225 0.375
-29.925 111.825 1.275
-30.225 117.975 -0.525
-30.225 111.075 2.325
-33.675 107.325 -3.225
-33.675 107.325 0.225
-30.525 110.475 0.375
-30.525 110.475 0.975
-29.775 116.775 0.375
-29.775 116.775 0.975
-29.775 112.275 0.975
-29.625 112.875 0.375
-30.075 117.675 1.575
-31.725 120.225 0.375
-31.725 108.825 1.575
-31.725 108.825 -0.975
-36.975 106.275 0.975
-32.175 108.375 -0.825
-31.575 108.975 -0.975
-31.575 108.975 1.575
-31.575 108.975 1.125
-33.375 107.475 -0.675
-33.375 107.475 -0.975
-29.625 112.725 0.675
-29.925 117.375 -0.075
-29.775 116.925 0.825
-29.775 116.925 0.525
-29.775 116.925 0.975
-29.925 111.675 -0.075
-29.925 111.675 1.275
-29.775 112.125 1.725
-29.775 112.125 1.425
-29.775 112.125 1.275
-34.875 106.725 -3.225
-32.475 108.075 2.775
-31.275 109.275 0.825
-31.275 119.775 1.125
-31.275 119.775 1.275
-30.225 118.125 2.325
-30.225 110.925 0.525
-33.825 107.175 2.025
-29.625 116.475 0.075
-30.075 117.825 0.675
-33.525 107.325 2.025
-29.475 115.725 -1.425
-31.125 119.625 0.975
-32.625 107.925 -0.375
-32.625 107.925 -0.675
-29.775 117.075 0.525
-29.775 117.075 0.375
-29.775 111.975 1.275
-29.925 111.525 -0.375
-29.925 111.525 1.875
-29.925 111.525 -1.575
-33.225 107.475 -1.875
-29.625 116.625 0.075
-29.625 116.625 1.275
-29.625 112.425 1.275
-29.625 112.425 0.525
-30.975 119.475 1.125
-30.975 119.475 1.425
-30.975 119.475 -0.225
-30.975 119.475 2.025
-32.775 107.775 -0.075
-31.875 108.525 -1.275
-31.875 108.525 0.525
-33.975 107.025 0.375
-33.975 107.025 0.525
-33.975 107.025 1.125
-30.225 110.775 2.025
-30.225 110.775 2.175
-30.075 117.975 -1.275
-29.775 117.225 0.225
-29.775 117.225 0.525
-29.775 111.825 1.875
-32.175 108.225 0.975
-32.175 108.225 -0.225
-30.825 119.325 0.975
-29.325 114.825 0.675
-29.325 114.825 2.025
-32.925 107.625 2.025
-29.625 112.275 1.425
-31.275 119.925 1.275
-29.325 114.075 1.725
-33.375 107.325 1.875
-33.375 107.325 2.025
-31.275 109.125 0.825
-30.525 110.175 0.525
-31.125 109.275 0.225
-29.325 113.775 0.825
-29.475 116.325 0.525
-29.475 116.325 -0.975
-29.775 117.375 0.225
-29.775 117.375 -0.075
-29.775 111.675 1.725
-29.775 111.675 1.425
-29.775 111.675 1.875
-29.775 111.675 1.125
-29.625 116.925 0.525
-29.625 116.925 0.225
-29.625 112.125 1.275
-29.625 112.125 0.975
-29.625 112.125 1.125
-29.625 112.125 0.675
-36.825 106.125 0.525
-33.825 107.025 0.525
-33.825 107.025 1.275
-30.075 118.125 -0.075
-30.075 118.125 -0.375
-30.075 118.125 2.475
-34.125 106.875 1.425
-34.125 106.875 0.825
-34.125 106.875 0.525
-30.975 119.625 1.425
-30.975 119.625 0.375
-32.625 107.775 -0.075
-30.975 109.425 -0.075
-30.975 109.425 -0.375
-30.375 110.325 0.525
-30.375 110.325 2.475
-29.925 111.225 -1.725
-29.925 111.225 2.025
-29.925 111.225 -0.675
-34.425 106.725 1.275
-29.475 112.575 0.675
-31.575 108.675 1.425
-29.625 111.975 1.725
-29.625 111.975 0.825
-31.425 108.825 -0.225
-29.775 111.525 1.275
-29.775 111.525 -0.225
-29.475 116.625 -2.625
-29.475 112.425 1.875
-29.475 112.425 1.575
-29.475 112.425 2.025
-30.075 118.275 -0.225
-30.075 118.275 1.725
-33.975 106.875 1.575
-33.975 106.875 0.825
-33.975 106.875 0.675
-33.975 106.875 0.225
-33.975 106.875 1.125
-33.675 107.025 3.975
-33.675 107.025 0.825
-30.225 110.475 2.325
-30.225 110.475 2.025
-31.125 109.125 -0.675
-32.325 107.925 1.275
-29.925 117.975 -0.075
-30.675 119.325 1.125
-34.275 106.725 1.125
-34.275 106.725 0.825
-29.325 113.025 -0.825
-29.325 113.025 1.275
-29.325 116.025 2.475
-29.625 111.825 1.125
-30.375 118.875 2.925
-30.375 118.875 3.225
-30.375 110.175 0.525
-29.175 114.525 2.775
-29.475 112.275 1.125
-29.475 112.275 1.425
-29.475 116.775 -0.675
-30.975 109.275 0.375
-35.475 106.275 -5.025
-30.975 119.775 1.425
-29.775 111.375 1.125
-29.775 111.375 2.175
-29.175 114.225 2.625
-29.325 116.175 3.675
-29.325 116.175 2.025
-29.325 116.175 -0.825
-29.175 113.925 -0.075
-30.825 119.625 1.575
-30.825 119.625 0.225
-30.825 119.625 1.875
-30.825 109.425 -0.075
-30.825 109.425 -0.975
-29.175 113.775 1.125
-29.175 113.775 -0.075
-29.175 113.775 1.425
-29.175 113.775 1.275
-30.075 118.425 2.025
-33.825 106.875 0.975
-33.825 106.875 1.125
-30.075 110.625 2.175
-34.875 106.425 1.425
-29.925 118.125 -0.525
-29.325 112.725 -0.525
-29.325 112.725 0.525
-34.125 106.725 0.375
-29.475 116.925 -0.375
-29.475 112.125 1.125
-33.525 107.025 0.675
-33.525 107.025 1.575
-30.225 110.325 2.175
-29.175 113.625 2.625
-31.425 108.675 0.675
-31.425 108.675 1.425
-32.025 108.075 0.525
-34.425 106.575 1.425
-29.775 111.225 1.725
-32.775 107.475 2.625
-33.225 107.175 5.475
-29.325 112.575 0.975
-31.125 108.975 -0.825
-32.175 107.925 -1.125
-29.175 113.325 -1.125
-35.175 106.275 1.275
-29.625 111.525 2.025
-29.625 111.525 0.975
-29.625 111.525 1.125
-29.625 111.525 1.275
-29.625 117.525 -1.125
-29.625 117.525 1.275
-30.975 119.925 1.575
-30.975 119.925 1.425
-30.975 109.125 -0.225
-30.975 109.125 0.675
-30.525 109.725 0.675
-30.525 109.725 0.225
-30.525 109.725 -0.675
-29.925 110.775 0.975
-33.975 106.725 0.825
-33.975 106.725 0.375
-33.975 106.725 -0.075
-30.075 118.575 2.175
-33.675 106.875 0.975
-33.675 106.875 -5.625
-29.325 116.625 5.475
-34.275 106.575 0.975
-30.825 119.775 1.875
-30.225 110.175 0.225
-29.175 116.025 2.175
-29.175 113.025 0.675
-29.175 113.025 2.775
-29.175 113.025 1.125
-29.175 113.025 1.425
-29.475 111.825 1.425
-29.475 111.825 1.275
-35.025 106.275 1.425
-29.625 117.675 -0.225
-29.625 111.375 1.125
-29.325 112.275 -0.225
-29.325 116.775 0.375
-30.375 119.175 2.325
-31.425 108.525 -1.275
-31.425 108.525 0.675
-29.025 114.675 0.375
-29.025 114.675 1.275
-29.025 114.375 1.125
-32.625 107.475 2.925
-32.625 107.475 3.075
-32.625 107.475 2.175
-29.025 114.825 1.125
-29.175 112.875 3.075
-29.175 112.875 0.675
-29.175 112.875 2.025
-29.175 112.875 1.575
-31.275 108.675 -0.375
-31.275 108.675 -1.425
-31.275 108.675 -0.675
-31.275 108.675 -0.225
-29.925 118.425 1.875
-31.125 108.825 -4.575
-29.025 115.125 0.975
-32.025 107.925 0.525
-33.825 106.725 0.675
-33.825 106.725 0.975
-29.775 118.125 -0.225
-34.125 106.575 1.125
-30.075 110.325 -0.825
-29.775 110.925 1.425
-29.775 110.925 1.575
-33.525 106.875 0.075
-29.475 117.375 0.525
-29.475 111.675 1.275
-29.325 116.925 -0.375
-29.325 112.125 0.525
-35.325 106.125 0.825
-32.775 107.325 -1.275
-30.525 109.575 0.675
-30.525 109.575 1.125
-30.975 120.075 1.425
-30.975 108.975 0.675
-30.225 110.025 2.475
-29.025 113.625 1.275
-30.825 119.925 2.025
-29.175 116.475 1.875
-29.475 111.525 1.125
-29.475 111.525 0.975
-29.475 111.525 1.275
-29.325 117.075 0.075
-29.325 117.075 0.225
-29.325 111.975 -2.175
-29.025 113.325 3.975
-33.675 106.725 0.675
-33.675 106.725 1.875
-33.675 106.725 0.975
-30.675 109.275 0.675
-30.675 119.775 1.875
-30.675 119.775 2.175
-33.975 106.575 -0.075
-29.775 118.275 2.775
-33.375 106.875 2.175
-33.375 106.875 1.275
-29.175 116.625 0.375
-29.175 116.625 0.075
-29.025 113.175 1.425
-34.275 106.425 1.125
-31.575 108.225 -0.675
-31.575 108.225 -0.075
-31.275 108.525 0.675
-31.125 108.675 1.725
-31.875 107.925 -0.525
-29.325 117.225 -0.375
-29.325 111.825 0.675
-30.525 109.425 1.125
-30.525 109.425 0.675
-30.525 109.425 -0.075
-35.025 106.125 -0.675
-29.025 116.025 -0.675
-30.975 108.825 -0.825
-30.975 108.825 0.675
-32.025 107.775 0.525
-29.175 112.275 1.875
-29.175 112.275 1.575
-29.175 112.275 0.375
-29.175 116.775 0.825
-29.175 116.775 0.975
-29.175 116.775 0.375
-29.175 116.775 -0.225
-29.175 112.275 1.275
-28.875 114.375 -0.675
-29.775 118.425 -0.525
-30.825 120.075 1.875
-33.825 106.575 0.675
-29.775 110.625 1.875
-32.175 107.625 -0.825
-29.925 118.725 0.675
-33.525 106.725 2.475
-28.875 114.975 0.975
-32.775 107.175 2.175
-32.775 107.175 -1.575
-29.625 110.925 0.825
-34.125 106.425 0.975
-29.325 117.375 -0.075
-28.875 113.925 0.525
-29.325 111.675 0.825
-29.325 111.675 1.275
-29.325 111.675 1.125
-29.325 111.675 1.425
-29.175 116.925 0.375
-29.175 112.125 1.125
-30.675 109.125 1.575
-30.675 109.125 0.225
-30.675 109.125 1.875
-28.875 115.275 0.825
-29.025 112.725 -1.575
-29.025 112.725 1.125
-29.025 112.725 -0.525
-29.475 111.225 2.175
-28.875 115.425 0.825
