# .PCD v0.7 - Point Cloud Data file format
VERSION 0.7
FIELDS x y z
SIZE 4 4 4
TYPE F F F
COUNT 1 1 1
WIDTH 2048
HEIGHT 1
VIEWPOINT 0 0 0 1 0 0 0
POINTS 2048
DATA ascii
-15.675 47.475 2.925
-15.675 47.775 -0.675
-15.675 47.475 -0.675
-15.675 47.775 -0.975
-15.525 47.775 -0.975
-15.675 47.325 -1.275
-15.675 47.325 2.775
-15.375 47.625 -1.275
-15.375 47.625 2.775
-15.825 47.325 0.675
-15.525 47.925 -1.125
-15.375 47.475 3.675
-15.375 47.925 -0.975
-15.225 47.475 -0.825
-15.525 47.175 2.025
-15.525 48.075 4.725
-15.525 47.175 0.525
-15.225 47.325 3.675
-15.225 47.925 -0.675
-15.225 47.925 -0.825
-15.225 47.325 -0.675
-15.075 47.625 -0.825
-16.275 47.475 3.225
-15.075 47.775 -0.825
-15.075 47.775 -0.225
-15.075 47.475 3.825
-15.075 47.775 -0.675
-16.275 47.925 3.075
-15.075 47.925 0.225
-15.075 47.325 0.225
-15.075 47.925 -0.375
-15.375 47.025 0.975
-15.375 47.025 -1.275
-16.425 47.625 3.075
-16.425 47.625 2.775
-14.925 47.625 -0.825
-16.125 47.025 0.525
-15.225 48.225 -1.125
-15.225 48.225 -0.975
-15.075 48.075 -0.975
-14.925 47.775 0.075
-16.425 47.475 2.775
-14.925 47.925 0.075
-14.925 47.325 -1.275
-16.425 47.925 2.775
-14.925 47.325 0.075
-15.375 46.875 0.675
-15.075 48.225 -0.375
-14.925 47.175 0.075
-14.775 47.625 0.675
-14.775 47.625 0.075
-16.575 47.475 2.775
-16.575 47.775 2.175
-14.775 47.475 0.225
-16.575 47.925 0.975
-16.275 48.375 3.675
-16.425 48.225 1.875
-15.075 48.375 -0.375
-16.425 48.225 2.025
-15.075 46.875 3.975
-14.925 47.025 0.075
-14.925 48.225 -0.525
-16.125 46.725 0.375
-15.225 46.725 -0.075
-16.575 48.075 2.775
-16.575 47.175 2.325
-14.775 48.075 2.325
-14.775 47.175 0.675
-14.775 47.175 -0.675
-14.775 47.175 -0.975
-14.625 47.625 0.075
-16.725 47.625 2.325
-14.625 47.625 -0.225
-14.625 47.625 -1.275
-14.625 47.625 0.525
-15.525 46.575 0.975
-14.925 48.375 -0.525
-14.625 47.475 2.175
-14.625 47.475 0.075
-14.775 47.025 0.075
-14.775 48.225 0.075
-14.775 47.025 -0.675
-14.625 47.925 0.225
-16.725 47.325 2.475
-15.225 48.675 -0.825
-14.625 48.075 0.525
-14.625 47.175 2.625
-16.725 47.175 1.425
-14.625 48.075 0.075
-16.725 47.175 2.025
-16.725 48.075 0.825
-14.775 46.875 -0.825
-14.775 46.875 3.975
-14.775 48.375 0.075
-14.775 46.875 0.225
-14.775 46.875 0.075
-14.775 46.875 -0.675
-14.475 47.475 2.325
-14.475 47.775 1.425
-14.475 47.775 0.675
-16.725 47.025 0.825
-14.625 47.025 0.075
-14.625 47.025 0.525
-14.625 47.025 -0.225
-16.725 48.225 2.475
-14.625 48.225 0.675
-14.625 47.025 -0.975
-16.875 47.325 1.275
-14.475 47.925 0.075
-14.475 47.925 1.575
-15.375 46.425 -0.675
-15.375 48.825 -0.525
-14.775 46.725 0.075
-14.775 48.525 -0.375
-14.775 46.725 -0.675
-14.475 48.075 -0.225
-14.475 47.175 -1.275
-16.425 48.675 1.725
-14.925 48.675 -0.675
-14.625 46.875 0.075
-14.625 48.375 3.525
-14.475 47.025 2.475
-14.475 47.025 -0.675
-15.675 46.275 -0.225
-14.325 47.625 -1.725
-17.025 47.475 2.025
-17.025 47.925 1.275
-14.625 46.725 -1.725
-14.625 46.725 0.525
-14.625 46.725 0.075
-14.625 46.725 -0.825
-14.625 46.725 0.675
-15.975 46.275 -0.375
-15.375 48.975 -0.525
-15.375 46.275 0.525
-16.875 46.875 1.575
-14.475 46.875 -1.425
-14.925 48.825 -0.375
-15.225 46.275 -0.375
-14.325 47.175 -1.275
-14.325 47.175 0.975
-17.025 47.025 1.875
-14.325 48.225 0.975
-15.075 46.275 -0.375
-14.625 46.575 0.225
-14.625 48.675 -0.825
-14.625 48.675 -0.975
-14.175 47.625 1.275
-15.675 46.125 -0.375
-14.175 47.625 -1.425
-17.175 47.625 3.975
-14.475 46.725 -0.825
-14.475 46.725 -0.225
-15.825 46.125 2.925
-17.175 47.775 2.475
-14.175 47.775 0.825
-14.175 47.475 0.375
-17.175 47.925 2.325
-17.175 47.325 1.275
-17.025 48.375 0.375
-17.025 46.875 1.575
-17.025 46.875 1.875
-14.325 48.375 0.825
-14.925 46.275 -1.125
-14.175 47.175 -0.075
-17.175 48.075 0.225
-14.475 48.675 0.225
-14.475 48.675 -0.825
-14.475 46.575 0.075
-14.625 48.825 0.075
-14.625 48.825 -0.975
-14.625 46.425 0.075
-16.275 49.125 4.425
-14.175 48.225 -0.675
-14.175 47.025 2.025
-14.175 47.025 -0.075
-17.175 47.025 1.575
-17.025 46.725 2.175
-17.025 46.725 1.575
-14.325 48.525 0.525
-14.325 48.525 0.225
-14.325 48.525 -0.825
-14.775 48.975 0.075
-14.775 46.275 0.225
-15.675 45.975 3.075
-14.025 47.625 -0.825
-14.025 47.625 -0.975
-14.025 47.475 1.425
-14.025 47.775 -0.975
-17.325 47.325 1.275
-14.025 47.325 -0.225
-14.925 46.125 -0.975
-14.175 48.375 3.225
-14.175 48.375 -0.675
-14.175 48.375 2.925
-14.175 48.375 0.075
-17.175 46.875 1.275
-16.875 46.425 2.475
-14.475 48.825 0.225
-14.475 48.825 0.675
-14.475 48.825 0.525
-14.475 46.425 -3.525
-17.025 46.575 0.975
-17.025 46.575 0.825
-16.125 49.275 3.375
-14.325 46.575 -0.675
-14.325 48.675 -0.225
-17.325 48.075 0.075
-17.325 48.075 2.475
-14.325 46.575 -0.825
-17.325 48.075 2.175
-14.325 48.675 0.225
-17.325 48.075 0.375
-14.325 48.675 0.675
-14.025 48.075 -0.825
-14.025 47.175 -0.825
-16.725 46.275 2.325
-14.625 46.275 -3.825
-14.625 48.975 -1.425
-14.625 48.975 0.075
-17.175 48.525 0.225
-14.175 48.525 0.525
-14.175 48.525 -1.125
-14.775 49.125 0.225
-17.325 48.225 2.475
-17.325 47.025 1.425
-15.075 49.275 -0.525
-17.325 47.025 1.125
-14.025 47.025 -0.075
-13.875 47.625 -0.825
-13.875 47.625 -0.975
-17.025 46.425 1.425
-17.025 46.425 1.875
-17.025 46.425 0.675
-16.875 46.275 2.475
-17.475 47.775 1.125
-13.875 47.775 -0.975
-13.875 47.475 -3.225
-13.875 47.775 1.125
-16.875 46.275 2.325
-14.475 46.275 0.075
-14.475 46.275 0.675
-14.475 46.275 1.575
-14.325 48.825 -0.225
-17.325 46.875 1.575
-17.325 48.375 0.225
-17.325 48.375 1.725
-14.025 48.375 1.425
-14.025 46.875 3.075
-13.875 47.925 -0.975
-17.475 47.925 -0.375
-13.875 47.325 -0.825
-13.875 47.925 1.725
-17.475 47.925 2.175
-13.875 47.925 1.575
-14.625 49.125 0.225
-14.625 46.125 0.075
-16.125 45.825 -1.125
-15.225 45.825 0.675
-17.475 47.175 0.975
-17.475 47.175 1.275
-13.875 47.175 -0.975
-13.875 48.075 0.525
-13.875 48.075 -0.075
-13.875 48.075 0.975
-13.875 48.075 -0.975
-17.475 48.075 0.075
-13.875 48.075 -1.125
-17.325 48.525 1.275
-17.325 46.725 1.725
-17.325 46.725 1.275
-14.775 45.975 -0.975
-14.775 45.975 -2.775
-14.025 48.525 2.025
-14.025 48.525 0.525
-16.275 45.825 -0.825
-13.875 48.225 -0.225
-17.475 48.225 0.375
-17.025 46.275 1.875
-14.325 46.275 -0.975
-16.875 49.125 -0.375
-14.475 46.125 0.075
-14.475 46.125 0.525
-14.475 49.125 -0.975
-14.475 46.125 0.675
-14.475 49.125 -1.125
-17.175 46.425 1.125
-17.175 46.425 1.875
-14.175 48.825 3.675
-14.175 48.825 -0.375
-17.175 46.425 1.575
-14.175 48.825 2.325
-14.925 45.825 -1.575
-14.925 45.825 4.275
-17.625 47.625 1.425
-17.475 46.875 1.725
-13.875 46.875 0.225
-13.875 48.375 0.825
-17.325 46.575 2.175
-14.625 45.975 0.075
-14.625 49.275 -0.225
-14.625 49.275 0.225
-17.625 47.775 -0.225
-13.725 47.775 -1.125
-13.725 47.475 -1.275
-17.625 47.925 0.075
-17.625 47.925 2.025
-13.725 47.325 -0.975
-15.375 45.675 0.675
-17.625 48.075 0.075
-17.625 48.075 3.375
-17.625 48.075 1.425
-13.725 47.175 -1.125
-13.725 48.075 -0.075
-13.725 48.075 -2.625
-16.125 49.575 0.075
-16.125 45.675 1.725
-16.125 45.675 2.025
-15.225 49.575 -0.375
-15.225 49.575 -0.225
-15.225 49.575 -0.675
-14.775 49.425 0.225
-14.775 45.825 -0.975
-17.475 48.525 2.475
-13.875 48.525 0.675
-13.875 48.525 0.975
-13.875 48.525 -1.125
-17.475 48.525 1.575
-17.025 46.125 1.875
-17.025 46.125 1.425
-17.025 46.125 2.025
-17.025 46.125 1.725
-14.175 46.275 -1.575
-14.325 46.125 1.425
-14.325 46.125 0.975
-14.325 46.125 -0.975
-17.175 46.275 2.325
-14.325 46.125 0.675
-14.175 46.275 2.025
-14.175 48.975 -0.975
-14.325 46.125 0.075
-14.325 46.125 -0.225
-14.325 49.125 0.225
-17.175 48.975 1.875
-14.175 48.975 -0.825
-17.175 46.275 1.875
-14.325 46.125 -0.825
-14.475 45.975 0.225
-14.475 49.275 0.675
-14.475 45.975 0.075
-14.475 45.975 0.675
-14.475 49.275 0.225
-13.725 48.225 -1.125
-14.025 48.825 1.125
-14.025 46.425 -0.675
-16.275 45.675 1.725
-15.075 45.675 -1.725
-14.625 49.425 0.825
-14.625 49.425 0.225
-13.875 46.575 -0.975
-13.875 48.675 -0.675
-13.875 46.575 -1.125
-13.875 48.675 -5.775
-13.875 46.575 -1.725
-17.475 48.675 0.525
-17.475 48.675 0.075
-17.625 48.375 0.225
-13.725 48.375 -0.975
-13.725 48.375 1.725
-13.725 48.375 0.525
-13.725 48.375 1.575
-14.925 45.675 -0.525
-16.425 45.675 1.425
-14.925 45.675 -1.575
-14.925 45.675 -0.825
-14.925 45.675 -1.425
-13.575 47.475 -1.575
-13.575 47.775 -0.675
-13.575 47.475 0.675
-13.575 47.775 0.225
-15.825 45.525 2.325
-17.775 47.925 2.175
-14.175 49.125 4.425
-14.175 49.125 -1.125
-13.575 47.325 -1.125
-15.975 45.525 1.125
-15.975 45.525 2.025
-17.025 45.975 1.875
-17.025 45.975 1.425
-14.325 49.275 -0.825
-14.325 49.275 -0.225
-14.325 49.275 -1.275
-14.325 49.275 -0.075
-14.325 45.975 -1.275
-14.025 48.975 1.875
-14.025 48.975 -0.375
-14.025 46.275 1.725
-17.625 48.525 1.875
-17.625 46.725 0.675
-13.725 46.725 -0.675
-13.725 48.525 -1.725
-13.725 48.525 1.425
-13.725 48.525 1.275
-13.725 46.725 2.175
-15.225 45.525 1.125
-13.575 47.175 -1.425
-13.575 48.075 1.875
-14.775 49.575 0.225
-16.875 45.825 1.575
-16.875 49.425 4.575
-14.475 49.425 -0.825
-14.475 45.825 1.425
-14.475 49.425 -1.425
-13.875 48.825 -1.275
-17.475 48.825 0.675
-17.475 46.425 0.525
-17.475 48.825 1.425
-13.875 48.825 -1.125
-13.875 46.425 0.975
-17.775 48.225 2.175
-13.575 48.225 -0.375
-13.575 47.025 -0.825
-14.625 49.575 0.375
-17.775 48.375 0.825
-17.175 45.975 1.425
-14.175 49.275 3.975
-14.025 49.125 0.825
-14.025 49.125 1.725
-14.025 49.125 -0.825
-14.025 49.125 0.225
-14.025 49.125 -0.675
-13.575 46.875 1.125
-14.925 45.525 0.225
-13.575 46.875 1.275
-17.025 45.825 2.325
-17.025 49.425 0.525
-17.025 49.425 0.825
-17.025 45.825 1.725
-14.325 45.825 0.075
-14.325 45.825 -0.225
-14.325 45.825 0.525
-14.325 49.425 -0.675
-15.675 45.375 2.775
-17.475 48.975 0.675
-13.875 46.275 2.475
-13.875 46.275 0.075
-17.475 46.275 1.875
-13.875 46.275 -0.225
-13.875 46.275 -1.275
-13.425 47.475 -1.725
-13.425 47.775 -0.825
-15.825 45.375 1.725
-13.425 47.475 -0.225
-13.425 47.475 0.375
-15.825 45.375 2.025
-17.925 47.925 2.325
-13.425 47.325 -1.125
-13.425 47.325 0.825
-15.975 45.375 2.175
-15.975 45.375 1.725
-15.375 45.375 -0.525
-15.375 49.875 2.625
-17.775 48.525 1.125
-17.775 48.525 2.925
-13.575 48.525 -0.225
-13.575 46.725 1.275
-13.575 46.725 1.875
-16.575 49.725 -1.875
-14.775 45.525 0.225
-14.775 45.525 -0.975
-17.625 46.425 4.425
-13.725 46.425 2.475
-13.725 48.825 -1.275
-13.725 48.825 3.225
-13.725 48.825 2.175
-13.725 46.425 0.075
-13.725 46.425 -1.125
-14.475 45.675 0.225
-13.425 47.175 3.975
-13.425 48.225 1.875
-13.425 47.025 0.525
-17.325 45.975 0.225
-14.025 45.975 -1.275
-17.175 45.825 1.725
-17.175 49.425 0.525
-17.175 45.825 -0.075
-17.775 46.575 2.025
-13.575 46.575 -1.125
-14.625 49.725 0.225
-14.925 45.375 4.275
-16.425 45.375 1.425
-13.425 46.875 1.425
-17.625 48.975 0.825
-13.725 46.275 0.075
-14.325 49.575 0.975
-14.325 45.675 -0.825
-14.325 45.675 3.225
-13.275 47.625 3.525
-15.825 45.225 1.875
-15.525 45.225 0.075
-13.275 47.775 0.525
-15.375 45.225 0.225
-15.375 45.225 -1.875
-17.775 48.825 1.275
-13.275 47.925 2.325
-13.275 47.925 3.225
-16.875 45.525 1.725
-16.875 45.525 2.625
-14.475 49.725 0.675
-14.475 49.725 -0.075
-14.475 49.725 0.975
-14.475 49.725 0.825
-14.475 49.725 0.225
-14.475 45.525 0.675
-13.575 46.425 1.125
-13.575 46.425 1.575
-13.575 46.425 0.975
-13.575 48.825 -0.675
-13.425 46.725 1.425
-14.775 45.375 -0.825
-14.775 45.375 0.225
-17.325 45.825 2.175
-17.325 45.825 1.425
-14.025 49.425 2.175
-14.025 49.425 2.625
-18.075 48.075 0.975
-13.875 49.275 -0.525
-13.275 48.075 1.275
-13.725 49.125 -0.225
-14.175 45.675 1.725
-17.175 49.575 1.275
-14.175 45.675 -1.125
-14.175 49.575 -0.675
-16.275 50.025 -1.575
-16.275 45.225 2.775
-13.275 47.025 1.575
-13.425 46.575 -1.125
-13.425 46.575 1.425
-13.425 46.575 -0.975
-13.425 46.575 2.025
-17.925 48.675 1.275
-16.725 45.375 2.025
-14.625 45.375 -1.125
-14.625 49.875 0.825
-16.725 45.375 2.475
-14.625 49.875 0.225
-14.625 49.875 0.525
-14.625 49.875 -0.375
-14.325 49.725 1.575
-13.575 46.275 -0.075
-13.575 46.275 0.375
-13.575 46.275 1.125
-13.575 48.975 2.925
-16.425 45.225 2.775
-14.925 50.025 0.375
-13.275 48.375 0.975
-13.275 48.375 -0.975
-13.275 46.875 2.625
-17.475 49.425 0.375
-13.875 45.825 -1.425
-17.475 45.825 1.125
-15.675 45.075 -0.675
-14.475 49.875 0.525
-13.125 47.625 -0.225
-13.425 46.425 1.575
-13.425 46.425 2.775
-13.425 48.825 0.525
-15.825 45.075 0.525
-15.825 50.175 2.325
-13.725 49.275 0.675
-13.125 47.475 0.525
-13.125 47.775 -0.375
-17.325 45.675 1.725
-17.325 49.575 0.525
-17.325 45.675 1.575
-16.575 45.225 1.125
-18.075 46.725 0.525
-16.575 45.225 1.275
-18.075 48.525 2.625
-16.575 45.225 0.675
-14.775 50.025 0.225
-15.975 45.075 1.425
-13.125 47.925 -0.075
-13.125 47.925 0.825
-13.125 47.325 3.675
-13.125 47.325 0.075
-17.175 45.525 0.075
-14.175 49.725 -0.825
-13.575 49.125 2.625
-13.575 49.125 -0.975
-13.575 46.125 2.475
-13.575 46.125 0.525
-16.125 45.075 1.425
-15.225 45.075 -0.675
-16.275 45.075 0.975
-16.275 45.075 1.425
-15.075 45.075 -0.675
-13.275 46.575 0.225
-13.275 46.575 1.125
-14.625 45.225 4.425
-13.275 46.575 0.525
-13.275 46.575 2.625
-14.625 45.225 0.225
-14.625 50.025 0.375
-13.125 48.225 -0.375
-13.125 47.025 3.375
-14.325 49.875 0.525
-14.325 49.875 -0.675
-13.425 48.975 2.475
-13.425 48.975 -0.675
-13.425 48.975 -1.125
-17.925 46.275 0.225
-13.425 48.975 2.325
-13.725 45.825 2.625
-13.875 49.575 1.875
-16.425 45.075 2.475
-13.125 46.875 2.775
-17.775 49.275 0.675
-13.575 49.275 -1.125
-13.575 49.275 0.975
-14.025 49.725 1.575
-14.475 45.225 0.225
-14.475 50.025 0.525
-14.475 50.025 -0.825
-14.475 50.025 0.375
-14.475 50.025 0.225
-14.475 45.225 0.525
-14.475 45.225 -0.225
-14.475 45.225 0.675
-18.075 48.825 3.225
-13.275 48.825 1.425
-13.275 48.825 1.125
-13.275 46.425 1.125
-12.975 47.625 0.375
-12.975 47.625 2.175
-12.975 47.625 2.025
-16.575 45.075 1.275
-14.775 50.175 0.825
-14.775 50.175 0.225
-14.775 50.175 -0.375
-14.175 49.875 1.725
-14.175 49.875 0.525
-13.425 46.125 -0.075
-13.425 46.125 3.525
-14.175 49.875 -0.825
-13.125 48.525 0.675
-13.125 46.725 0.525
-13.125 46.725 -0.225
-12.975 47.475 -0.675
-12.975 47.475 1.875
-12.975 47.475 2.775
-12.975 47.775 0.525
-12.975 47.775 1.575
-12.975 47.775 1.725
-12.975 47.475 0.825
-12.975 47.925 0.975
-12.975 47.925 2.775
-12.975 47.925 -0.075
-12.975 48.075 1.725
-15.225 50.325 3.075
-15.225 44.925 -0.075
-17.025 50.025 2.475
-14.325 50.025 -0.525
-14.325 50.025 -0.825
-18.075 46.275 3.675
-14.325 45.225 -1.275
-13.275 48.975 1.875
-13.275 46.275 0.675
-14.625 50.175 -0.975
-14.625 50.175 0.675
-14.625 50.175 -0.825
-14.625 50.175 -1.125
-16.725 45.075 0.975
-16.725 45.075 0.825
-14.625 50.175 0.375
-14.625 45.075 0.225
-13.125 48.675 0.975
-13.125 48.675 1.125
-13.125 48.675 0.825
-13.125 46.575 1.875
-13.125 46.575 -0.075
-17.625 45.675 0.975
-17.625 45.675 0.675
-13.725 49.575 1.725
-13.725 49.575 1.425
-13.725 49.575 1.575
-13.725 49.575 1.875
-13.725 45.675 1.875
-17.775 49.425 1.125
-17.775 49.425 3.375
-13.575 45.825 -1.125
-12.975 48.225 1.875
-12.975 47.025 2.925
-12.975 47.025 1.425
-17.475 49.725 0.675
-17.475 49.725 0.075
-17.475 45.525 0.825
-17.475 45.525 2.325
-17.475 45.525 1.875
-13.875 45.525 -1.575
-16.275 44.925 1.575
-15.075 50.325 0.375
-15.075 50.325 3.375
-15.075 50.325 -0.675
-15.075 50.325 -0.525
-13.425 49.275 -1.575
-13.425 49.275 2.175
-17.325 49.875 0.975
-13.425 45.975 0.525
-17.925 45.975 0.525
-17.925 45.975 -1.575
-17.925 49.275 3.225
-14.025 49.875 0.525
-14.025 49.875 2.025
-14.025 49.875 0.675
-14.025 45.375 0.675
-12.975 46.875 2.925
-12.975 48.375 1.425
-12.975 48.375 2.475
-12.975 46.875 0.975
-14.925 50.325 0.225
-16.425 44.925 2.325
-14.925 44.925 -0.675
-14.475 50.175 -0.675
-14.475 50.175 -0.525
-14.475 50.175 -0.075
-14.475 45.075 0.225
-13.125 48.825 1.125
-13.125 48.825 0.375
-18.225 46.425 3.675
-13.125 46.425 -0.375
-13.125 46.425 3.225
-14.175 50.025 -0.825
-14.175 45.225 1.875
-12.975 48.525 0.975
-12.975 48.525 1.275
-12.975 48.525 0.075
-12.975 46.725 1.275
-12.975 48.525 1.875
-16.575 44.925 0.975
-14.775 50.325 0.375
-14.775 50.325 0.525
-14.775 44.925 -1.275
-12.825 47.625 1.275
-12.825 47.625 2.025
-12.825 47.625 2.475
-15.675 50.475 2.025
-12.825 47.475 0.975
-12.825 47.775 2.475
-12.825 47.475 1.125
-15.825 50.475 1.875
-15.825 44.775 -1.275
-15.525 50.475 -0.675
-15.525 44.775 -0.225
-17.625 49.725 -0.825
-12.825 47.925 1.275
-12.825 47.925 1.725
-12.825 47.925 2.325
-12.825 47.925 1.875
-12.825 47.925 0.825
-12.825 47.925 1.575
-15.975 50.475 2.025
-15.975 44.775 0.375
-13.725 49.725 1.875
-13.725 49.725 -1.125
-13.725 49.725 1.275
-13.575 45.675 3.675
-13.425 45.825 -0.375
-17.925 45.825 -2.025
-13.875 49.875 -0.825
-17.475 45.375 1.725
-17.025 50.175 2.325
-14.325 50.175 -0.675
-14.325 45.075 -0.525
-16.125 44.775 0.375
-13.125 48.975 0.825
-15.225 50.475 0.225
-13.125 48.975 0.375
-15.225 50.475 0.375
-12.825 48.075 -0.075
-12.825 48.075 1.575
-12.825 48.075 1.425
-12.825 48.075 0.825
-12.825 47.175 1.575
-12.825 47.175 0.525
-12.825 47.175 3.225
-12.825 48.075 0.975
-12.825 48.075 2.325
-12.975 48.675 2.325
-12.975 48.675 0.375
-12.975 48.675 2.025
-12.975 46.575 0.225
-17.325 50.025 -0.075
-17.325 45.225 1.575
-18.075 45.975 4.725
-14.025 50.025 -0.975
-14.025 45.225 -1.575
-13.275 45.975 1.875
-13.275 49.275 0.675
-16.275 50.475 -2.625
-16.275 44.775 0.225
-16.275 44.775 1.275
-16.275 44.775 2.175
-16.275 44.775 0.375
-16.275 44.775 1.125
-12.825 48.225 1.875
-12.825 48.225 1.275
-12.825 48.225 -1.875
-12.825 48.225 0.375
-12.825 48.225 -0.225
-12.825 48.225 0.675
-12.825 48.225 0.975
-12.825 48.225 1.425
-12.825 47.025 0.375
-12.825 47.025 1.575
-12.825 47.025 3.075
-12.825 47.025 1.275
-12.825 48.225 1.575
-15.075 50.475 0.525
-15.075 50.475 0.375
-12.825 47.025 1.425
-15.075 44.775 0.375
-12.825 48.375 0.675
-12.825 48.375 1.275
-12.825 48.375 0.375
-12.825 46.875 0.525
-12.825 46.875 0.675
-14.925 50.475 0.825
-14.925 50.475 0.375
-14.925 50.475 0.975
-12.825 46.875 1.275
-12.975 46.425 2.775
-12.975 48.825 0.675
-12.975 48.825 0.975
-12.975 48.825 1.425
-12.975 48.825 0.525
-12.975 48.825 1.575
-17.175 50.175 0.675
-14.175 45.075 1.725
-14.175 50.175 -1.275
-13.125 49.125 0.075
-13.125 49.125 0.375
-17.775 49.725 2.025
-13.575 49.725 1.275
-13.575 45.525 3.825
-13.425 49.575 -1.125
-17.925 49.575 2.325
-13.425 49.575 0.225
-12.825 46.725 0.375
-12.825 48.525 0.825
-12.825 48.525 1.275
-16.575 44.775 2.025
-14.775 50.475 0.075
-14.775 50.475 0.375
-14.775 44.775 -1.125
-13.275 45.825 1.725
-13.875 50.025 -0.525
-17.475 50.025 1.425
-17.475 50.025 1.725
-12.675 47.625 1.275
-12.675 47.625 1.425
-12.675 47.625 2.325
-12.675 47.625 2.175
-12.675 47.625 0.825
-12.675 47.625 0.225
-12.675 47.625 0.975
-12.675 47.775 0.975
-12.675 47.475 0.675
-12.675 47.475 1.725
-15.825 50.625 1.875
-12.675 47.775 1.875
-12.675 47.775 1.725
-12.675 47.775 1.575
-12.675 47.775 -1.425
-15.525 50.625 0.525
-12.675 47.925 1.125
-12.675 47.925 0.375
-12.675 47.925 1.425
-12.675 47.925 0.975
-12.675 47.325 0.225
-12.675 47.325 0.525
-15.975 44.625 2.175
-15.375 50.625 0.525
-15.975 50.625 2.025
-12.975 46.275 0.525
-12.975 48.975 0.075
-12.975 48.975 1.275
-12.975 48.975 0.975
-17.025 50.325 2.325
-14.325 50.325 -0.675
-14.325 44.925 3.375
-14.325 44.925 -0.975
-16.125 44.625 0.675
-16.125 44.625 0.525
-16.125 44.625 2.325
-16.125 44.625 2.175
-16.125 44.625 2.025
-15.225 50.625 0.525
-12.675 48.075 2.775
-12.675 47.175 0.675
-17.325 50.175 0.975
-17.325 45.075 3.525
-18.525 48.675 2.475
-13.125 45.975 3.525
-12.825 48.675 1.575
-12.825 48.675 1.275
-12.825 48.675 2.175
-12.825 48.675 0.825
-12.825 46.575 0.675
-12.825 46.575 0.825
-14.625 50.475 0.225
-14.625 44.775 0.825
-16.275 44.625 2.175
-16.275 44.625 2.025
-16.275 44.625 1.875
-16.275 44.625 0.825
-16.275 44.625 1.275
-16.275 50.625 3.375
-15.075 44.625 2.325
-12.675 48.225 0.975
-12.675 47.025 0.675
-12.675 47.025 0.375
-12.675 47.025 1.575
-15.075 50.625 0.525
-15.075 50.625 0.975
-15.075 50.625 0.825
-13.575 45.375 4.425
-13.575 45.375 2.925
-13.425 49.725 -0.825
-17.925 49.725 2.475
-13.425 49.725 2.175
-13.425 45.525 -2.475
-13.425 45.525 2.325
-12.975 49.125 0.675
-12.975 49.125 1.275
-12.975 49.125 0.375
-14.175 50.325 -0.675
-17.625 50.025 0.225
-17.625 50.025 2.025
-17.625 45.225 0.525
-13.725 50.025 1.425
-12.675 48.375 1.725
-12.675 48.375 1.275
-12.675 46.875 1.575
-12.675 48.375 0.825
-12.675 46.875 0.675
-12.675 46.875 0.375
-14.925 44.625 0.225
-12.675 48.375 0.675
-16.425 50.625 2.325
-18.675 48.375 3.225
-16.425 44.625 0.375
-16.425 44.625 2.325
-16.425 44.625 0.675
-14.925 50.625 -0.525
-14.925 50.625 -4.275
-14.925 50.625 1.275
-14.925 50.625 0.525
-18.075 49.575 2.625
-14.475 44.775 -1.575
-13.275 49.575 2.325
-12.825 48.825 0.975
-12.825 48.825 1.275
-12.825 48.825 0.825
-12.825 46.425 2.475
-12.825 48.825 0.375
-17.475 50.175 -0.375
-17.475 50.175 1.125
-17.475 50.175 0.975
-17.475 45.075 1.725
-17.475 45.075 -3.375
-13.125 49.425 0.675
-13.125 49.425 -1.275
-13.125 49.425 1.575
-13.125 45.825 0.225
-13.125 45.825 1.425
-13.125 45.825 1.875
-13.125 45.825 2.175
-12.675 46.725 0.525
-12.675 46.725 0.975
-12.675 48.525 1.725
-12.675 48.525 0.975
-12.675 48.525 0.525
-12.675 48.525 0.825
-14.775 44.625 0.225
-14.775 44.625 -0.825
-12.525 47.625 0.225
-12.525 47.625 0.825
-12.525 47.625 1.875
-12.525 47.475 0.525
-12.525 47.475 2.025
-12.525 47.475 1.425
-12.525 47.475 1.275
-14.325 44.775 -0.825
-12.825 48.975 0.975
-12.825 48.975 1.125
-12.825 48.975 0.675
-12.825 48.975 0.375
-12.825 46.275 1.875
-15.375 50.775 2.475
-15.375 50.775 0.375
-15.375 50.775 0.525
-12.525 47.925 1.125
-12.975 49.275 3.525
-12.525 47.925 2.175
-12.525 47.925 0.525
-12.525 47.925 2.025
-12.525 47.925 2.775
-12.525 47.925 0.375
-12.975 49.275 0.525
-12.975 49.275 -0.525
-12.975 49.275 2.175
-12.975 49.275 2.325
-12.525 47.325 1.275
-17.325 50.325 0.525
-17.325 50.325 2.025
-17.325 50.325 0.375
-14.025 44.925 -0.075
-14.025 44.925 -0.375
-12.675 46.575 1.725
-12.675 46.575 0.675
-12.675 46.575 2.175
-12.675 48.675 0.975
-12.675 48.675 0.375
-12.675 48.675 0.825
-12.675 48.675 1.275
-12.675 48.675 1.575
-14.625 44.625 -2.025
-14.625 50.625 -0.375
-14.625 50.625 -0.075
-16.125 44.475 0.375
-16.125 44.475 1.875
-16.125 44.475 2.175
-16.125 50.775 3.525
-15.225 44.475 -0.525
-15.225 44.475 1.425
-15.225 50.775 0.525
-15.225 50.775 0.975
-15.225 50.775 2.625
-13.425 49.875 -1.125
-13.425 45.375 -1.125
-13.425 45.375 -0.975
-12.525 48.075 -0.375
-12.525 48.075 1.425
-12.525 48.075 0.675
-17.775 50.025 1.275
-13.575 50.025 -0.375
-13.275 49.725 1.725
-13.275 45.525 2.175
-13.275 45.525 0.675
-16.275 44.475 1.425
-16.275 44.475 1.575
-12.525 48.225 0.225
-12.525 47.025 0.225
-17.625 50.175 0.975
-17.625 50.175 0.675
-13.725 50.175 0.225
-13.725 50.175 1.425
-13.725 45.075 -1.125
-13.125 45.675 1.125
-13.125 49.575 1.425
-13.125 49.575 0.075
-13.125 45.675 3.525
-12.825 49.125 2.025
-12.825 49.125 0.975
-12.825 46.125 0.225
-12.825 46.125 2.025
-12.825 46.125 1.425
-14.475 44.625 0.825
-14.475 44.625 -2.925
-12.675 46.425 1.575
-12.675 46.425 1.425
-18.675 48.825 0.975
-12.675 48.825 0.375
-12.675 48.825 0.675
-12.675 48.825 0.975
-12.675 48.825 2.475
-14.925 50.775 0.825
-14.925 50.775 0.225
-14.925 50.775 -0.675
-18.825 46.875 3.975
-12.525 48.375 0.375
-12.525 48.375 1.275
-12.525 46.875 1.125
-12.525 46.875 1.875
-12.525 46.875 1.425
-12.525 46.875 0.225
-12.525 46.875 0.675
-13.875 44.925 0.075
-13.875 50.325 1.275
-13.875 50.325 -0.825
-17.475 50.325 1.275
-17.475 50.325 0.675
-17.475 50.325 0.525
-16.575 44.475 0.375
-14.775 50.775 -0.525
-14.775 50.775 3.525
-14.775 44.475 0.225
-12.525 48.525 2.025
-12.525 48.525 0.225
-12.525 46.725 1.575
-12.525 46.725 1.875
-12.525 46.725 0.075
-12.525 46.725 1.725
-12.525 46.725 0.825
-13.425 50.025 -1.125
-13.425 50.025 -0.675
-13.425 45.225 1.575
-13.275 49.875 0.825
-12.675 48.975 2.025
-12.675 48.975 0.975
-12.675 48.975 0.525
-12.675 48.975 0.375
-12.675 48.975 1.125
-12.675 46.275 0.525
-12.675 46.275 2.325
-14.325 44.625 -0.975
-14.325 44.625 -1.425
-12.675 46.275 2.475
-12.825 45.975 2.025
-12.825 45.975 0.975
-12.825 49.275 0.975
-12.825 49.275 1.125
-14.025 44.775 -0.075
-14.025 50.475 -0.525
-15.675 50.925 0.525
-12.375 47.625 2.175
-12.375 47.625 1.425
-17.775 50.175 0.225
-15.825 50.925 0.525
-15.525 50.925 0.525
-13.575 50.175 1.875
-13.125 49.725 -0.075
-13.125 49.725 2.025
-13.125 49.725 1.425
-13.125 45.525 0.825
-15.975 44.325 2.175
-15.975 50.925 -0.675
-15.375 50.925 0.975
-12.375 47.925 0.975
-12.375 47.325 1.425
-14.625 44.475 -0.075
-14.625 44.475 0.225
-14.625 50.775 3.225
-12.525 48.675 0.975
-12.525 46.575 0.825
-12.525 46.575 2.175
-12.525 46.575 0.675
-16.125 44.325 0.675
-16.125 44.325 2.025
-16.125 44.325 1.725
-16.125 44.325 1.575
-15.225 44.325 -0.225
-15.225 50.925 0.225
-15.225 50.925 0.525
-12.975 49.575 2.325
-12.975 49.575 2.775
-12.975 49.575 1.725
-12.975 49.575 1.125
-12.975 49.575 2.475
-12.975 49.575 0.075
-16.275 44.325 1.275
-16.275 44.325 1.725
-16.275 44.325 0.975
-12.675 49.125 1.125
-12.675 49.125 0.825
-17.175 44.625 1.275
-14.175 50.625 -0.375
-12.675 46.125 1.725
-12.375 47.025 -0.075
-16.875 50.775 1.125
-14.475 44.475 0.675
-14.475 44.475 -0.825
-14.475 44.475 0.225
-14.475 44.475 -1.125
-12.825 45.825 2.775
-12.825 45.825 0.825
-12.825 45.825 0.675
-12.825 49.425 1.725
-13.875 44.775 -1.125
-13.875 44.775 -0.075
-13.875 44.775 2.475
-12.525 46.425 0.675
-12.525 46.425 0.825
-12.525 46.425 1.875
-12.525 48.825 0.525
-12.525 48.825 0.825
-12.525 48.825 0.975
-14.925 50.925 -0.375
-16.425 44.325 1.575
-16.425 44.325 1.725
-16.425 44.325 1.875
-12.375 48.375 1.125
-12.375 46.875 1.275
-18.075 50.025 0.675
-18.075 50.025 0.975
-18.075 50.025 1.275
-13.275 45.225 -0.225
-13.275 50.025 -0.675
-13.425 50.175 -0.975
-17.925 50.175 1.275
-13.125 49.875 1.875
-13.125 49.875 -0.525
-13.125 49.875 2.025
-16.575 44.325 1.575
-14.775 50.925 -0.525
-12.375 48.525 0.525
-12.375 48.525 1.725
-12.375 46.725 0.675
-12.375 46.725 2.775
-17.775 44.925 -0.375
-17.775 50.325 0.225
-17.775 50.325 1.275
-12.975 49.725 2.025
-12.975 49.725 1.125
-12.975 49.725 1.275
-12.975 49.725 1.575
-12.975 49.725 1.425
-12.975 45.525 2.625
-12.975 45.525 0.825
-13.575 50.325 0.225
-17.325 44.625 1.425
-12.675 45.975 1.725
-12.675 45.975 1.575
-17.325 50.625 2.325
-14.025 44.625 0.375
-14.325 50.775 -0.675
-14.325 44.475 -0.975
-12.525 46.275 1.875
-12.525 46.275 0.825
-12.525 46.275 2.325
-12.525 46.275 0.675
-12.525 48.975 2.625
-12.525 48.975 1.125
-12.225 47.625 1.575
-15.675 44.175 -0.975
-15.675 44.175 2.775
-17.625 44.775 1.425
-17.625 50.475 1.875
-12.225 47.475 2.025
-13.725 44.775 0.075
-15.825 44.175 1.425
-12.825 49.575 0.375
-12.825 49.575 1.875
-15.825 51.075 -0.825
-15.525 51.075 1.125
-16.725 50.925 1.425
-16.725 50.925 0.825
-14.625 44.325 -0.675
-14.625 44.325 0.375
-12.375 46.575 -0.225
-12.375 48.675 0.675
-12.375 46.575 1.125
-12.375 46.575 1.275
-12.375 46.575 0.525
-12.375 46.575 3.375
-12.225 47.325 0.525
-12.225 47.325 2.325
-15.975 44.175 2.025
-15.375 51.075 -0.675
-16.125 44.175 1.725
-16.125 44.175 1.425
-15.225 51.075 -1.875
-14.175 50.775 2.025
-12.525 49.125 0.525
-12.525 46.125 2.175
-12.525 46.125 1.125
-12.525 46.125 -0.825
-12.525 46.125 3.075
-12.525 49.125 2.175
-12.675 49.425 2.175
-12.675 45.825 0.675
-12.675 45.825 2.325
-12.675 45.825 3.225
-12.675 49.425 2.475
-17.475 44.625 2.325
-13.875 44.625 -0.075
-13.275 50.175 2.325
-13.275 50.175 1.875
-13.275 50.175 -1.425
-18.225 50.025 -0.075
-13.125 45.225 1.875
-13.125 50.025 0.675
-16.275 51.075 2.625
-16.275 44.175 0.075
-16.275 44.175 1.875
-16.275 44.175 1.125
-15.075 44.175 1.875
-14.475 50.925 1.125
-14.475 44.325 -0.825
-14.475 44.325 -1.425
-12.975 49.875 1.725
-12.975 49.875 -0.375
-12.975 49.875 1.575
-12.975 49.875 2.025
-12.975 49.875 0.075
-12.975 45.375 -1.575
-13.425 50.325 1.875
-13.425 50.325 2.325
-13.425 50.325 0.375
-17.925 50.325 1.575
-12.225 48.375 1.575
-16.425 51.075 2.325
-14.925 51.075 -0.525
-14.925 44.175 1.875
-17.775 50.475 0.825
-12.825 45.525 3.975
-12.825 49.725 0.375
-13.575 50.475 2.325
-17.325 44.475 1.575
-14.025 50.775 -0.975
-14.025 50.775 -0.675
-12.525 49.275 1.125
-12.525 45.975 1.275
-12.525 49.275 1.425
-12.525 45.975 2.325
-12.525 45.975 2.475
-12.525 45.975 1.725
-12.225 46.725 0.375
-12.375 46.275 1.425
-12.375 48.975 2.025
-12.375 48.975 2.325
-16.575 51.075 1.275
-14.775 44.175 -1.125
-17.625 50.625 0.525
-17.625 50.625 1.275
-17.625 50.625 0.975
-13.725 50.625 1.575
-12.675 49.575 0.675
-12.675 49.575 1.875
-12.675 49.575 0.975
-12.675 49.575 0.825
-12.675 45.675 2.625
-12.675 45.675 0.975
-12.675 45.675 1.875
-15.675 51.225 -0.675
-15.675 51.225 0.525
-15.825 51.225 0.525
-15.825 51.225 1.575
-12.075 47.475 2.325
-12.075 47.475 1.425
-15.825 44.025 0.825
-15.525 51.225 0.675
-15.525 44.025 2.625
-19.125 48.675 0.675
-13.125 50.175 2.925
-18.225 50.175 1.425
-12.225 48.675 1.275
-12.225 46.575 1.275
-12.225 46.575 1.725
-12.225 46.575 0.825
-12.225 46.575 0.525
-12.225 46.575 3.675
-12.225 46.575 -0.225
-14.625 51.075 0.975
-14.625 51.075 1.125
-14.625 44.175 -0.675
-14.625 44.175 -0.525
-12.975 50.025 1.875
-12.975 50.025 0.075
-12.975 50.025 0.375
-12.075 47.325 1.575
-18.075 50.325 1.275
-15.375 44.025 -0.225
-15.975 51.225 0.675
-15.975 51.225 0.525
-13.275 44.925 -0.525
-13.275 44.925 -0.825
-12.375 46.125 2.025
-12.375 46.125 2.325
-12.375 49.125 2.625
-12.375 49.125 1.875
-12.525 49.425 1.425
-12.525 49.425 2.625
-12.525 45.825 2.325
-12.525 45.825 3.075
-12.525 45.825 2.475
-17.475 44.475 1.275
-13.875 50.775 0.525
-13.875 44.475 0.525
-17.475 50.775 1.275
-16.125 44.025 0.525
-16.125 44.025 1.275
-16.125 44.025 1.875
-16.125 51.225 0.675
-16.125 51.225 0.225
-16.125 51.225 0.825
-15.225 51.225 -2.025
-15.225 51.225 -0.525
-15.225 51.225 -0.825
-15.225 44.025 2.775
-15.225 44.025 2.475
-18.525 49.875 0.225
-12.825 49.875 2.025
-12.825 49.875 1.425
-12.825 49.875 0.225
-12.825 45.375 2.025
-12.825 45.375 2.925
-13.425 50.475 1.125
-13.425 50.475 -0.975
-17.925 50.475 0.825
-17.925 50.475 1.275
-13.425 44.775 2.775
-16.275 44.025 2.025
-15.075 51.225 -0.675
-12.225 46.425 2.925
-12.225 46.425 3.375
-12.225 46.425 3.525
-12.225 46.425 2.325
-12.225 46.425 1.725
-12.225 46.425 0.975
-16.875 44.175 2.025
-14.475 44.175 2.325
-14.475 51.075 -0.825
-17.775 50.625 1.425
-17.775 50.625 0.675
-17.775 50.625 0.225
-12.675 45.525 3.075
-12.675 45.525 2.625
-13.575 50.625 1.275
-13.575 50.625 -1.125
-12.675 49.725 2.775
-12.675 49.725 0.375
-12.075 46.875 0.675
-14.925 44.025 -0.525
-14.925 44.025 0.375
-16.425 51.225 0.525
-16.425 51.225 -0.675
-14.025 50.925 -1.125
-14.025 44.325 1.725
-12.375 45.975 0.825
-12.375 45.975 1.875
-17.625 50.775 1.425
-17.625 50.775 -0.225
-17.625 50.775 0.525
-13.725 44.475 2.475
-13.725 44.475 -0.075
-13.725 50.775 2.475
-12.525 49.575 2.025
-12.525 49.575 1.575
-12.525 49.575 0.675
-14.325 44.175 -1.575
-14.325 44.175 -1.425
-16.575 44.025 1.275
-12.075 46.725 0.975
-16.575 51.225 0.675
-16.575 44.025 -0.975
-14.775 44.025 0.375
-14.775 51.225 0.525
-18.375 50.175 0.975
-12.975 50.175 0.825
-12.975 50.175 1.575
-12.975 45.075 0.225
-13.125 50.325 1.275
-13.125 50.325 0.675
-13.125 50.325 0.375
-12.825 50.025 0.825
-12.825 50.025 0.375
-12.825 50.025 0.225
-12.825 50.025 1.275
-12.825 50.025 2.625
-12.825 45.225 2.775
-13.275 50.475 2.325
-13.275 50.475 -0.975
-13.275 50.475 2.775
-13.425 50.625 -0.975
-12.675 49.875 1.875
-17.925 50.625 0.975
-15.675 51.375 1.125
-15.675 51.375 -0.975
-12.675 45.375 2.025
-13.425 50.625 0.675
-12.075 46.575 0.525
-12.075 46.575 1.875
-14.625 44.025 -0.375
-14.625 44.025 1.125
-14.625 51.225 0.525
-14.625 51.225 -0.975
-14.625 51.225 0.225
-15.825 51.375 0.375
-15.825 43.875 1.575
-15.825 43.875 1.125
-15.525 51.375 0.525
-15.525 51.375 2.775
-15.525 51.375 0.225
-15.525 51.375 0.975
-15.525 43.875 2.325
-17.475 50.925 4.125
-17.475 50.925 1.425
-13.875 50.925 -0.975
-12.375 49.425 1.575
-12.375 49.425 2.775
-11.925 47.925 2.775
-15.375 51.375 0.525
-15.375 43.875 0.225
-15.975 43.875 0.375
-15.975 43.875 2.175
-12.225 46.125 1.275
-12.225 46.125 1.875
-12.225 46.125 1.125
-12.225 46.125 2.325
-14.175 51.075 1.875
-14.175 51.075 -0.825
-14.175 44.175 -1.125
-16.125 43.875 1.875
-16.125 43.875 0.225
-15.225 51.375 -0.375
-15.225 51.375 -0.825
-15.225 43.875 -0.975
-17.775 50.775 1.125
-17.775 50.775 0.075
-17.775 50.775 1.425
-13.575 44.475 -0.075
-13.575 44.475 2.025
-13.575 50.775 2.175
-13.575 50.775 1.125
-13.575 50.775 2.025
-12.525 49.725 1.125
-12.525 49.725 1.875
-12.525 45.525 2.925
-12.525 45.525 3.225
-12.525 45.525 2.475
-16.875 51.225 4.125
-16.875 51.225 0.825
-14.475 44.025 0.825
-14.475 51.225 -0.825
-14.475 51.225 0.525
-12.075 46.425 0.975
-12.075 46.425 2.325
-12.075 46.425 1.125
-16.275 51.375 2.175
-16.275 51.375 -0.675
-16.275 43.875 1.875
-15.075 51.375 3.525
-18.375 50.325 0.975
-12.975 50.325 0.075
-12.825 45.075 -0.375
-12.825 50.175 1.125
-12.825 50.175 1.275
-12.825 50.175 2.475
-14.925 51.375 -0.825
-14.925 51.375 0.225
-16.425 51.375 -0.675
-14.925 43.875 -1.125
-14.925 43.875 -0.225
-12.225 45.975 1.725
-12.225 45.975 1.125
-13.125 50.475 0.675
-13.125 50.475 1.875
-13.125 50.475 0.525
-13.125 50.475 2.475
-13.125 50.475 0.975
-17.325 51.075 3.075
-14.025 51.075 -0.675
-14.025 51.075 2.175
-14.025 44.175 2.325
-17.625 50.925 0.975
-17.625 50.925 0.825
-17.625 50.925 0.525
-13.725 44.325 2.325
-13.725 44.325 1.725
-13.725 44.325 1.875
-13.725 50.925 1.875
-12.375 45.675 2.025
-12.375 49.575 1.425
-12.675 45.225 2.625
-12.675 50.025 1.275
-12.675 50.025 1.425
-12.675 50.025 0.225
-12.675 45.225 3.075
-18.075 50.625 1.725
-13.275 50.625 0.075
-13.275 50.625 1.725
-17.025 51.225 2.325
-12.075 46.275 1.725
-12.075 46.275 1.425
-14.325 51.225 0.675
-14.325 51.225 2.625
-14.325 51.225 -0.975
-16.575 43.875 0.975
-16.575 51.375 -0.975
-14.775 51.375 -0.825
-13.425 44.475 3.075
-13.425 44.475 2.475
-13.425 50.775 0.675
-13.425 50.775 1.875
-13.425 50.775 1.275
-13.425 50.775 1.725
-17.925 50.775 1.125
-17.925 50.775 1.725
-17.925 50.775 0.825
-17.925 50.775 2.025
-12.525 49.875 0.675
-12.525 49.875 1.425
-12.525 49.875 2.625
-12.525 45.375 2.775
-12.525 45.375 2.325
-12.225 45.825 2.475
-12.225 49.425 1.575
-12.225 49.425 2.325
-12.225 49.425 1.725
-17.475 51.075 0.525
-11.925 48.675 2.175
-11.925 46.575 0.375
-16.725 51.375 -0.075
-14.625 51.375 0.675
-14.625 43.875 0.375
-16.725 43.875 0.675
-15.675 51.525 0.675
-15.675 51.525 -0.975
-15.675 51.525 -0.675
-15.675 43.725 1.425
-14.175 51.225 0.675
-17.175 51.225 -0.225
-15.825 43.725 3.675
-15.825 43.725 2.325
-15.825 43.725 -0.375
-15.825 51.525 0.525
-15.825 51.525 -0.825
-17.775 50.925 0.675
-17.775 50.925 1.425
-17.775 50.925 0.825
-17.775 50.925 1.875
-13.575 44.325 2.625
-13.575 44.325 1.875
-15.375 43.725 -0.675
-15.375 43.725 -0.075
-15.375 43.725 -0.825
-15.975 43.725 2.325
-15.975 43.725 1.875
-15.975 43.725 2.025
-15.375 51.525 -0.225
-15.975 51.525 0.525
-11.775 47.325 0.525
-16.125 43.725 1.125
-16.125 43.725 2.625
-16.125 51.525 0.525
-15.225 43.725 2.025
-15.225 43.725 -0.225
-15.225 43.725 -0.525
-15.225 43.725 2.625
-18.525 50.325 -2.625
-12.975 50.475 1.125
-12.975 44.775 -0.975
-12.825 50.325 1.275
-12.675 50.175 1.425
-12.675 45.075 2.925
-12.675 45.075 -0.375
-16.875 51.375 1.275
-14.475 51.375 -0.975
-14.475 51.375 2.175
-14.475 51.375 1.875
-14.475 43.875 0.075
-14.475 43.875 0.375
-13.125 50.625 1.125
-13.125 50.625 0.075
-13.125 50.625 0.975
-13.125 50.625 -0.225
-13.125 50.625 2.625
-13.125 50.625 1.275
-13.125 50.625 -0.075
-13.125 50.625 0.225
-18.225 50.625 1.875
-11.925 46.425 1.875
-16.275 43.725 0.825
-16.275 43.725 1.275
-16.275 43.725 1.125
-16.275 43.725 0.525
-16.275 43.725 2.175
-15.075 43.725 -0.825
-15.075 51.525 -0.975
-15.075 51.525 -0.675
-11.775 48.225 2.325
-13.275 50.775 1.725
-12.525 50.025 0.825
-12.525 45.225 0.075
-12.075 45.975 2.175
-14.025 44.025 -1.125
-14.025 44.025 -1.575
-17.625 51.075 -0.975
-17.625 51.075 1.125
-12.225 45.675 2.475
-12.225 45.675 2.625
-12.225 49.575 2.175
-12.225 49.575 1.575
-13.725 51.075 -0.375
-13.725 51.075 2.025
-13.725 51.075 2.475
-13.725 51.075 1.875
-13.725 51.075 -0.525
-13.725 51.075 2.175
-13.725 51.075 2.775
-13.725 44.175 2.475
-14.925 51.525 2.025
-16.425 51.525 -0.525
-16.425 43.725 0.675
-17.025 51.375 3.525
-17.025 51.375 -0.225
-17.025 51.375 -1.125
-14.325 51.375 2.325
-14.325 51.375 -0.825
-14.325 51.375 2.475
-14.325 51.375 2.625
-11.925 46.275 2.025
-14.325 43.875 -0.525
-19.425 46.275 -1.125
-17.925 50.925 1.875
-17.925 50.925 2.175
-17.925 50.925 0.825
-17.925 50.925 1.575
-13.425 50.925 1.875
-13.425 44.325 2.025
-13.425 44.325 2.175
-13.425 50.925 2.025
-13.425 50.925 0.675
-12.375 49.875 0.975
-12.375 49.875 1.275
-12.375 49.875 0.525
-12.375 45.375 2.925
-16.575 51.525 -0.675
-16.575 51.525 -0.825
-16.575 43.725 0.825
-16.575 43.725 1.425
-14.775 51.525 1.725
-11.775 46.725 3.225
-17.475 51.225 0.375
-17.475 51.225 -0.375
-17.475 51.225 2.475
-13.875 51.225 2.625
-13.875 44.025 -1.575
-12.825 50.475 1.575
-12.825 50.475 0.675
-12.825 44.775 -0.375
-12.825 44.775 3.375
-18.375 50.625 0.525
-12.975 50.625 1.575
-12.975 50.625 0.525
-12.975 50.625 1.275
-12.975 50.625 0.825
-12.975 50.625 0.075
-12.975 44.625 -1.125
-12.675 50.325 1.875
-12.675 50.325 0.825
-12.675 50.325 1.275
-12.675 44.925 3.225
-12.675 44.925 2.325
-14.625 43.725 -0.975
-14.625 51.525 2.025
-14.625 51.525 1.875
-11.775 46.575 1.125
-11.925 46.125 2.175
-17.775 51.075 1.125
-17.775 51.075 1.425
-17.775 51.075 1.875
-17.775 51.075 0.825
-12.225 45.525 2.925
-12.225 45.525 2.325
-12.225 45.525 2.475
-12.225 49.725 0.525
-13.575 51.075 2.025
-13.575 51.075 1.875
-13.575 44.175 2.175
-15.675 43.575 2.175
-15.675 51.675 0.525
-15.675 51.675 0.225
-15.525 43.575 -0.225
-15.825 43.575 -0.525
-15.825 43.575 -0.375
-15.825 51.675 0.975
-15.825 51.675 1.125
-12.525 50.175 2.025
-12.525 50.175 1.125
-13.125 44.475 0.975
-13.125 44.475 -0.975
-13.125 44.475 2.175
-13.125 50.775 2.475
-13.125 50.775 1.875
-11.625 47.775 0.525
-16.125 43.575 0.825
-16.125 43.575 1.275
-15.225 43.575 -0.825
-15.225 51.675 -0.675
-16.125 51.675 0.075
-11.625 47.175 2.925
-18.075 50.925 0.375
-18.075 50.925 1.425
-18.075 50.925 2.325
-18.075 50.925 1.575
-13.275 50.925 2.625
-13.275 50.925 1.725
-13.275 50.925 1.575
-13.275 44.325 3.075
-13.275 44.325 1.425
-13.275 44.325 2.625
-16.875 51.525 -0.225
-16.875 51.525 1.125
-14.475 43.725 -0.375
-14.475 51.525 1.875
-14.475 43.725 0.375
-14.475 43.725 -0.075
-14.475 43.725 1.125
-14.475 43.725 -0.675
-12.375 45.225 2.475
-12.375 50.025 0.975
-12.375 45.225 2.775
-11.775 46.425 3.075
-16.275 43.575 1.875
-16.275 51.675 -0.375
-16.275 51.675 0.075
-15.075 43.575 2.175
-15.075 43.575 -0.375
-15.075 43.575 -0.075
-17.625 51.225 0.975
-17.625 51.225 0.675
-13.725 44.025 -1.275
-13.725 44.025 1.875
-13.725 44.025 2.325
-11.925 45.975 1.575
-11.925 45.975 2.325
-11.925 45.975 1.875
-11.925 45.975 2.175
-14.025 51.375 -1.125
-14.025 51.375 0.075
-14.925 51.675 2.175
-14.925 51.675 -0.675
-14.925 51.675 -0.825
-16.425 51.675 -0.375
-14.925 43.575 -0.675
-14.925 43.575 -0.825
-16.425 51.675 -0.825
-16.425 43.575 1.425
-19.125 49.875 2.775
-12.225 49.875 1.125
-12.225 45.375 3.075
-12.225 45.375 2.175
-12.225 45.375 -0.075
-17.925 51.075 0.825
-13.425 44.175 3.075
-13.425 44.175 0.825
-13.425 44.175 -0.225
-17.025 51.525 0.375
-17.025 51.525 0.225
-14.325 51.525 -0.825
-14.325 51.525 1.875
-14.325 43.725 0.075
-12.825 50.625 0.975
-12.825 50.625 0.675
-12.675 50.475 0.825
-12.675 50.475 1.725
-16.575 51.675 -0.525
-16.575 51.675 -0.375
-14.775 43.575 -0.975
-14.775 43.575 -0.825
-14.775 43.575 -1.125
-18.375 50.775 0.225
-12.975 50.775 1.425
-12.975 44.475 2.775
-12.975 44.475 2.325
-12.525 50.325 0.975
-12.525 50.325 1.125
-11.925 45.825 2.625
-11.925 45.825 1.875
-11.925 45.825 2.325
-17.475 51.375 2.175
-13.875 43.875 -0.825
-13.875 43.875 -1.125
-13.875 43.875 -0.975
-17.775 51.225 2.475
-17.775 51.225 0.525
-17.775 51.225 0.975
-17.775 51.225 1.875
-17.775 51.225 1.725
-13.575 44.025 2.025
-12.075 45.525 3.075
-18.225 50.925 0.975
-13.125 50.925 0.375
-13.125 50.925 0.975
-12.375 50.175 1.875
-12.375 45.075 3.225
-12.375 50.175 -2.025
-17.175 51.525 0.375
-17.175 43.725 -0.975
-14.175 43.725 -0.975
-14.175 43.725 -1.125
-17.175 51.525 2.175
-11.775 46.125 2.325
-11.775 46.125 2.925
-11.775 46.125 2.625
-16.725 51.675 -0.375
-16.725 51.675 -0.675
-16.725 51.675 1.725
-16.725 43.575 1.125
-11.625 46.575 3.375
-15.675 43.425 1.725
-15.675 43.425 2.325
-15.675 51.825 3.675
-12.225 50.025 1.125
-12.225 45.225 2.625
-12.225 45.225 3.075
-18.075 51.075 0.825
-18.075 51.075 1.725
-13.275 44.175 1.875
-13.275 44.175 1.725
-13.275 51.075 -0.075
-15.825 51.825 -0.375
-15.825 43.425 2.175
-15.825 51.825 0.675
-15.525 51.825 -0.225
-15.375 51.825 -0.675
-15.975 43.425 1.275
-15.975 51.825 2.475
-15.975 51.825 0.525
-15.375 51.825 -0.825
-15.375 51.825 -0.375
-14.475 43.575 -0.975
-14.475 43.575 -1.125
-14.475 43.575 2.175
-11.475 47.175 0.975
-16.125 51.825 0.225
-15.225 51.825 2.625
-16.125 43.425 0.975
-16.125 43.425 -0.525
-16.125 43.425 1.275
-16.125 51.825 0.075
-16.125 51.825 0.525
-16.125 51.825 -1.725
-16.125 51.825 -0.225
-16.125 51.825 -0.375
-17.625 51.375 1.875
-13.725 51.375 2.175
-13.725 43.875 -1.275
-17.325 51.525 -1.575
-17.325 51.525 1.125
-17.325 51.525 0.975
-17.325 51.525 1.425
-14.025 43.725 2.175
-11.775 45.975 0.525
-12.675 50.625 0.525
-12.675 50.625 0.375
-12.675 50.625 0.825
-12.675 50.625 1.125
-12.675 44.625 2.775
-11.475 48.225 -0.525
-16.275 43.425 1.575
-16.275 43.425 1.725
-16.275 43.425 2.775
-16.275 51.825 0.525
-16.275 43.425 1.275
-16.275 43.425 1.875
-16.275 43.425 0.825
-16.275 51.825 -0.225
-16.275 43.425 0.975
-15.075 51.825 -0.525
-17.925 51.225 0.975
-17.925 51.225 0.825
-17.925 51.225 1.125
-13.425 44.025 -0.525
-13.425 51.225 1.275
-13.425 51.225 1.425
-17.925 44.025 0.075
-12.825 50.775 1.575
-12.825 50.775 1.425
-12.825 50.775 1.125
-12.825 50.775 0.975
-12.825 50.775 1.275
-12.525 50.475 1.425
-12.525 50.475 3.225
-12.525 50.475 0.375
-12.525 44.775 0.075
-18.375 50.925 1.425
-12.975 50.925 1.575
-12.975 50.925 1.875
-12.975 50.925 1.125
-12.975 44.325 3.525
-12.975 44.325 2.775
-12.975 44.325 -0.075
-12.375 44.925 -1.275
-12.375 50.325 1.275
-14.925 51.825 2.925
-14.925 43.425 2.025
-14.925 43.425 -0.825
-14.925 43.425 -0.675
-16.425 43.425 1.275
-16.425 51.825 0.675
-16.425 51.825 -1.575
-17.025 51.675 -0.225
-17.025 51.675 0.075
-17.025 51.675 -0.075
-14.325 51.675 -0.825
-14.325 43.575 -0.075
-12.225 45.075 3.225
-12.225 45.075 2.325
-13.125 51.075 1.275
-13.125 51.075 1.425
-13.125 51.075 1.125
-13.125 44.175 -0.375
-13.125 51.075 0.975
-11.775 45.825 3.525
-11.775 45.825 0.825
-13.875 43.725 -0.075
-13.875 51.525 0.225
-14.775 51.825 -0.375
-14.775 43.425 -0.525
-14.775 43.425 0.375
-14.775 43.425 -0.825
-14.775 51.825 -0.825
-17.775 51.375 0.825
-17.775 51.375 1.125
-11.925 45.525 2.475
-11.925 45.525 3.075
-13.575 43.875 -0.975
-13.575 43.875 3.675
-13.575 51.375 1.425
-17.175 51.675 0.825
-17.175 51.675 1.875
-18.075 51.225 1.275
-18.075 51.225 1.725
-13.275 44.025 2.925
-14.625 51.825 -0.675
-16.725 51.825 -0.375
-14.625 43.425 -0.675
-16.725 51.825 -0.975
-14.625 43.425 -0.525
-14.625 43.425 0.375
-14.625 43.425 2.775
-14.625 51.825 -0.825
-12.675 50.775 1.725
-12.675 44.475 0.975
-12.525 50.625 -1.275
-12.525 50.625 1.275
-15.675 43.275 1.275
-15.675 43.275 -0.225
-15.825 43.275 -0.075
-15.525 43.275 2.775
-15.825 43.275 -0.225
-11.325 47.475 -0.075
-15.825 51.975 0.225
-15.825 51.975 0.525
-15.825 51.975 3.675
-12.825 50.925 0.975
-12.825 50.925 2.625
-12.825 50.925 0.525
-12.825 50.925 1.125
-13.725 51.525 1.125
-13.725 51.525 2.175
-13.725 51.525 1.425
-13.725 51.525 2.775
-12.375 44.775 -0.975
