# .PCD v0.7 - Point Cloud Data file format
VERSION 0.7
FIELDS x y z
SIZE 4 4 4
TYPE F F F
COUNT 1 1 1
WIDTH 2048
HEIGHT 1
VIEWPOINT 0 0 0 1 0 0 0
POINTS 2048
DATA ascii
1.425 32.325 0.075
1.425 32.325 -0.225
1.275 32.475 0.225
1.575 32.325 1.725
1.275 32.625 0.975
1.275 32.625 0.075
1.575 32.625 1.125
1.425 32.175 0.975
1.425 32.175 -0.525
1.125 32.475 0.375
1.125 32.325 1.275
1.125 32.625 0.225
1.125 32.625 0.675
1.275 32.775 -0.225
1.725 32.625 1.575
1.125 32.175 1.125
1.125 32.775 0.225
1.125 32.775 0.375
1.725 32.775 1.275
1.425 32.025 -0.075
1.425 32.025 1.275
1.425 32.025 1.575
0.975 32.475 -0.375
0.975 32.475 0.075
1.425 32.925 0.225
1.275 32.025 1.275
1.275 32.025 -0.375
1.275 32.025 1.125
1.575 32.025 1.275
0.975 32.325 1.425
0.975 32.325 1.575
1.875 32.625 1.275
1.275 32.925 0.225
1.275 32.925 0.375
1.125 32.025 1.125
1.125 32.025 0.675
0.975 32.175 1.275
0.975 32.175 0.075
0.975 32.175 1.575
1.725 32.025 0.225
1.875 32.175 0.675
0.975 32.775 0.675
1.875 32.775 1.425
1.725 32.925 1.275
0.825 32.475 1.425
2.025 32.475 0.675
1.425 33.075 0.225
1.425 33.075 0.675
1.425 33.075 0.825
1.275 31.875 1.275
1.575 31.875 1.125
0.825 32.325 0.225
0.825 32.325 1.575
0.825 32.625 -0.075
2.025 32.325 0.225
1.275 33.075 0.375
1.275 33.075 -0.225
1.575 33.075 -0.075
1.575 33.075 0.225
0.975 32.025 1.275
0.975 32.025 1.575
0.975 32.025 0.375
1.875 32.025 2.925
1.875 32.025 0.825
1.875 32.025 0.225
0.975 32.925 0.225
0.975 32.925 -3.975
1.125 31.875 1.125
0.825 32.175 1.425
0.825 32.175 0.375
0.825 32.175 0.225
0.825 32.175 0.675
0.825 32.175 1.575
2.025 32.175 0.825
2.025 32.175 1.275
2.025 32.175 0.525
0.825 32.775 -0.225
1.725 33.075 1.275
0.975 31.875 0.975
0.975 31.875 1.275
1.425 31.725 -0.375
0.825 32.025 1.275
0.825 32.025 0.375
0.825 32.025 1.575
1.875 31.875 0.375
0.675 32.475 0.225
0.675 32.475 1.425
0.825 32.925 0.525
2.175 32.475 0.825
1.425 33.225 0.675
1.425 33.225 0.225
1.425 33.225 2.025
1.425 33.225 -0.375
1.875 33.075 1.275
1.275 31.725 1.275
1.275 33.225 0.225
1.575 33.225 -0.075
1.725 31.725 0.375
0.675 32.175 0.225
0.675 32.175 1.575
2.175 32.175 0.675
1.725 33.225 1.425
1.725 33.225 1.275
0.825 31.875 0.375
0.825 31.875 0.075
2.025 31.875 0.675
2.025 33.075 1.125
2.025 33.075 1.275
0.975 31.725 1.275
0.675 32.025 0.225
2.175 32.025 0.675
0.675 32.925 0.375
1.425 31.575 0.675
0.525 32.475 -0.825
0.525 32.475 -0.525
1.425 33.375 0.225
1.425 33.375 -0.375
0.525 32.325 -0.675
0.525 32.325 -0.825
0.525 32.325 2.025
0.525 32.325 0.225
2.325 32.325 0.525
1.275 33.375 0.225
1.275 33.375 -0.525
1.575 33.375 0.225
1.575 33.375 4.275
1.575 33.375 -0.075
1.725 31.575 0.975
1.725 31.575 0.825
0.525 32.775 -4.275
1.125 33.375 0.825
1.725 33.375 1.425
0.675 31.875 0.225
0.675 31.875 0.375
0.675 31.875 0.675
0.675 33.075 1.575
0.675 33.075 -0.675
0.825 33.225 0.825
2.025 33.225 4.275
0.975 31.575 1.125
0.525 32.025 -0.675
0.525 32.025 0.225
0.525 32.925 0.375
0.525 32.925 -1.125
2.325 32.925 0.825
1.875 33.375 1.425
1.875 33.375 -0.525
1.875 33.375 -0.825
1.425 31.425 0.525
0.375 32.475 -1.125
0.375 32.475 -0.675
0.375 32.475 1.725
1.425 33.525 0.675
1.425 33.525 0.225
1.275 31.425 0.825
1.275 31.425 1.425
1.275 31.425 0.525
0.675 31.725 0.075
1.575 31.425 0.975
0.375 32.325 -0.675
0.375 32.625 0.525
1.275 33.525 2.475
1.275 33.525 0.225
1.575 33.525 -0.075
1.575 33.525 1.875
0.825 31.575 0.825
0.525 31.875 0.075
0.525 31.875 0.225
0.525 33.075 0.525
0.525 33.075 -0.675
2.025 33.375 0.825
2.025 33.375 -3.675
2.025 33.375 -0.525
0.375 32.775 0.375
2.475 32.175 -0.075
2.475 32.775 3.525
2.475 32.775 0.375
2.475 32.775 -0.375
2.475 32.775 0.675
1.725 33.525 1.275
1.725 33.525 2.025
0.375 32.025 0.225
0.375 32.925 0.675
2.475 32.925 0.975
0.675 31.575 0.225
0.525 31.725 0.825
0.525 31.725 0.225
0.525 31.725 0.675
2.325 31.725 1.725
0.675 33.375 0.375
2.175 33.375 -0.675
2.175 33.375 -0.375
1.425 31.275 0.675
1.425 31.275 0.225
0.225 32.475 -0.825
0.225 32.475 -0.975
2.625 32.475 -0.075
1.425 33.675 0.225
1.425 33.675 1.425
1.425 33.675 1.575
1.275 31.275 -0.675
1.275 31.275 0.525
1.275 31.275 1.875
0.225 32.325 -3.975
0.225 32.625 1.575
0.225 32.625 -4.875
0.375 33.075 0.675
0.375 33.075 0.375
0.375 33.075 0.825
0.375 33.075 0.225
2.475 33.075 0.975
2.475 33.075 0.825
1.275 33.675 1.425
1.275 33.675 0.075
1.275 33.675 -0.075
1.575 33.675 0.225
1.125 31.275 0.375
1.725 31.275 1.875
0.225 32.175 -0.525
1.725 33.675 1.125
0.525 31.575 0.975
0.525 33.375 0.675
2.325 33.375 0.825
0.225 32.025 2.025
0.225 32.025 -0.525
0.225 32.925 0.675
0.225 32.925 0.525
0.225 32.925 0.375
1.875 33.675 3.825
0.375 33.225 1.275
0.375 33.225 0.675
0.375 33.225 0.525
0.675 33.525 0.375
2.475 33.225 0.675
2.475 33.225 0.825
2.475 33.225 1.275
2.175 33.525 -0.375
0.225 33.075 0.675
0.225 33.075 0.375
2.625 33.075 0.825
2.625 33.075 0.675
1.425 31.125 0.525
1.425 33.825 -0.375
1.425 33.825 0.225
1.425 33.825 -3.375
1.425 33.825 -0.225
1.275 31.125 2.475
1.275 31.125 0.825
1.575 31.125 0.825
1.575 31.125 0.525
0.075 32.325 1.125
0.075 32.625 0.675
0.075 32.625 -0.975
2.775 32.325 -3.825
1.275 33.825 0.225
1.275 33.825 1.875
1.575 33.825 0.675
1.575 33.825 -0.075
1.575 33.825 0.225
1.125 31.125 0.525
1.125 31.125 0.675
1.125 31.125 0.375
0.525 31.425 1.275
0.525 31.425 0.975
0.375 31.575 0.825
0.375 31.575 0.375
0.075 32.775 0.225
0.075 32.775 0.675
2.775 32.175 4.425
0.375 33.375 -0.225
0.375 33.375 0.675
0.525 33.525 0.675
0.525 33.525 -0.225
0.525 33.525 0.375
2.775 32.775 0.075
2.475 33.375 0.975
2.475 33.375 0.825
2.325 33.525 0.525
2.325 33.525 0.375
0.675 31.275 0.975
0.225 31.725 -0.675
0.225 33.225 0.225
0.225 33.225 0.675
0.225 33.225 0.525
0.675 33.675 0.675
2.625 33.225 0.375
2.625 33.225 0.525
2.625 33.225 0.675
2.625 33.225 0.825
2.175 33.675 1.875
2.175 33.675 -0.075
0.975 31.125 0.975
0.975 31.125 0.075
0.975 31.125 0.375
0.975 31.125 1.275
0.975 31.125 0.525
0.975 31.125 0.825
0.075 32.925 0.525
0.075 32.925 0.675
0.075 32.925 0.225
0.975 33.825 1.575
0.825 31.125 0.825
0.825 31.125 0.225
0.075 31.875 -0.825
0.075 33.075 0.375
0.075 33.075 0.075
2.775 33.075 1.275
2.775 33.075 0.525
0.825 33.825 0.075
0.375 31.425 1.125
0.375 31.425 1.275
0.375 31.425 0.825
0.375 33.525 0.375
0.375 33.525 0.675
0.375 33.525 0.525
0.225 31.575 -0.525
0.225 31.575 -0.675
-0.075 32.475 0.225
0.225 33.375 0.225
0.225 33.375 1.125
0.225 33.375 0.675
0.525 33.675 0.675
0.525 33.675 0.375
2.625 33.375 0.825
2.625 33.375 0.675
1.425 33.975 0.225
1.425 33.975 -0.525
2.325 33.675 -0.375
-0.075 32.625 0.225
1.275 33.975 0.075
1.575 33.975 0.225
1.125 30.975 0.525
-0.075 32.175 -1.575
-0.075 32.775 0.975
-0.075 32.775 0.225
1.725 33.975 0.075
1.725 33.975 0.225
1.725 33.975 0.675
1.725 33.975 -0.075
0.075 31.725 -0.675
0.075 31.725 0.225
0.075 33.225 0.075
0.075 33.225 -6.075
0.075 33.225 0.375
0.675 33.825 0.675
0.675 33.825 -2.175
2.775 33.225 0.675
2.775 33.225 0.525
2.175 33.825 -0.225
0.975 30.975 1.425
0.975 30.975 0.675
0.975 30.975 0.525
0.975 30.975 0.375
-0.075 32.025 1.725
-0.075 32.025 0.225
-0.075 32.025 1.425
-0.075 32.925 0.225
-0.075 32.925 -0.075
2.925 32.925 0.525
0.975 33.975 0.675
1.875 33.975 1.275
0.375 31.275 0.075
0.375 31.275 1.425
0.375 31.275 0.975
0.225 31.425 1.425
0.225 31.425 0.375
0.375 33.675 0.675
0.375 33.675 0.375
2.625 33.525 0.825
0.825 30.975 -0.075
0.825 30.975 0.675
-0.075 31.875 -0.675
-0.075 33.075 0.825
-0.075 33.075 0.675
-0.075 33.075 0.375
0.825 33.975 -3.675
2.025 33.975 1.275
0.075 31.575 -1.575
0.075 31.575 0.225
0.075 33.375 0.375
0.075 33.375 -0.225
0.525 33.825 0.675
2.775 33.375 0.675
2.325 33.825 -3.675
2.325 33.825 1.125
1.425 34.125 1.725
1.425 34.125 3.975
1.425 34.125 -0.975
1.425 34.125 0.225
-0.225 32.325 0.375
-0.225 32.325 0.525
-0.225 32.625 3.225
1.275 34.125 0.225
1.275 34.125 1.275
1.575 34.125 0.675
1.575 34.125 0.225
0.675 30.975 0.375
1.125 30.825 2.025
1.125 30.825 -0.225
1.125 30.825 -0.675
-0.225 32.775 0.375
-0.225 32.775 0.225
-0.225 32.775 0.825
-0.075 33.225 0.825
-0.075 33.225 0.375
-0.075 33.225 0.675
-0.075 33.225 0.225
-0.075 33.225 0.525
1.725 34.125 0.975
1.725 34.125 -1.425
0.225 31.275 1.425
0.225 31.275 0.825
0.225 31.275 0.375
0.225 31.275 0.675
0.225 33.675 0.675
0.225 33.675 0.825
0.225 33.675 0.525
0.975 30.825 0.375
0.975 30.825 0.675
0.975 30.825 0.525
0.375 31.125 1.125
0.375 31.125 1.275
0.075 31.425 1.425
0.075 31.425 1.725
1.875 30.825 1.575
-0.225 32.025 0.675
-0.225 32.025 0.375
-0.225 32.025 -0.075
-0.225 32.925 0.975
0.075 33.525 1.425
0.075 33.525 0.375
0.075 33.525 0.525
0.375 33.825 0.675
0.975 34.125 0.525
0.975 34.125 -1.725
2.775 33.525 0.675
2.475 33.825 0.525
2.475 33.825 -0.675
1.875 34.125 -0.975
-0.075 31.575 1.725
-0.075 33.375 0.225
-0.075 33.375 0.975
2.925 33.375 1.875
2.925 33.375 0.525
2.325 33.975 -0.225
2.325 33.975 1.125
0.825 30.825 0.375
0.825 30.825 1.125
0.825 30.825 0.525
-0.225 31.875 1.575
-0.225 31.875 0.375
-0.225 33.075 0.525
3.075 33.075 2.925
2.025 34.125 1.125
-0.375 32.475 0.225
0.225 31.125 1.425
0.225 31.125 0.225
0.075 31.275 -0.525
0.075 31.275 0.675
0.075 31.275 -0.675
0.075 31.275 1.425
0.075 31.275 0.375
-0.375 32.325 0.525
-0.375 32.325 -1.125
0.075 33.675 0.975
0.075 33.675 0.525
0.075 33.675 1.425
0.225 33.825 0.525
0.225 33.825 0.375
0.225 33.825 0.825
1.275 34.275 1.275
2.625 33.825 1.725
2.625 33.825 0.525
2.625 33.825 1.425
2.625 33.825 0.975
1.575 34.275 -0.375
1.575 34.275 0.075
0.675 30.825 0.675
0.675 30.825 0.525
0.675 30.825 0.375
0.675 34.125 0.375
0.675 34.125 -0.675
2.175 34.125 3.225
1.125 30.675 1.125
-0.375 32.175 0.375
-0.375 32.175 0.675
-0.375 32.775 0.375
-0.375 32.775 0.975
-0.375 32.775 0.825
3.225 32.775 -0.075
1.725 34.275 0.375
1.725 34.275 -0.375
1.725 34.275 -0.225
1.725 34.275 -0.525
-0.075 33.525 1.125
2.925 33.525 0.675
2.925 33.525 0.825
2.475 33.975 1.425
0.975 30.675 0.675
-0.375 32.025 0.675
-0.375 32.025 0.375
-0.375 32.025 0.975
-0.375 32.925 0.375
-0.375 32.925 0.975
-0.375 32.925 0.825
0.975 34.275 0.675
0.975 34.275 0.375
0.525 30.825 -0.075
0.525 30.825 0.675
0.525 30.825 0.525
3.075 31.575 3.225
-0.225 33.375 1.425
0.525 34.125 0.825
0.525 34.125 -2.625
2.325 34.125 -0.375
0.825 30.675 0.675
0.825 30.675 0.825
-0.375 31.875 -4.875
-0.375 33.075 0.975
0.825 34.275 0.375
0.825 34.275 0.975
0.825 34.275 0.675
2.025 34.275 -0.375
2.025 34.275 1.275
0.075 31.125 1.875
0.075 33.825 0.675
2.775 33.825 1.275
2.775 33.825 0.675
2.775 33.825 0.525
-0.075 31.275 1.425
-0.075 31.275 0.225
0.225 33.975 0.675
2.925 33.675 1.125
2.625 33.975 0.675
2.625 33.975 1.575
2.625 33.975 0.225
2.625 33.975 0.525
2.625 33.975 0.975
2.625 33.975 0.825
0.675 30.675 0.975
0.675 30.675 1.125
0.675 30.675 0.825
0.675 30.675 0.525
0.675 30.675 0.675
-0.375 31.725 1.425
-0.375 31.725 0.225
-0.375 33.225 0.525
-0.375 33.225 5.175
-0.375 33.225 1.125
0.675 34.275 0.375
1.425 34.425 0.075
1.425 34.425 0.225
2.175 34.275 -0.375
2.175 34.275 0.675
0.375 30.825 1.425
-0.525 32.325 0.825
-0.525 32.325 0.675
-0.525 32.325 0.375
-0.525 32.625 -0.825
-0.525 32.625 0.375
-0.225 33.525 1.575
-0.225 33.525 1.275
-0.225 33.525 0.975
1.575 34.425 0.675
2.475 34.125 1.725
2.475 34.125 -1.425
1.725 30.525 -3.075
-0.525 32.175 0.375
-0.525 32.175 0.675
-0.525 32.175 0.075
-0.525 32.175 0.975
-0.525 32.175 1.575
-0.525 32.175 -0.075
-0.525 32.775 0.225
-0.525 32.775 0.075
1.725 34.425 0.075
1.725 34.425 1.875
1.725 34.425 -0.225
-0.525 32.025 0.825
-0.525 32.025 1.275
-0.525 32.025 -1.125
0.975 34.425 0.825
0.975 34.425 0.375
1.875 34.425 0.075
0.525 30.675 0.675
-0.375 33.375 0.675
-0.375 33.375 0.825
-0.375 33.375 0.375
-0.375 33.375 0.975
2.325 34.275 0.675
2.325 34.275 0.975
2.325 34.275 0.825
2.325 34.275 1.275
0.075 30.975 0.675
0.075 30.975 -0.075
0.075 30.975 0.225
-0.075 31.125 0.225
-0.075 31.125 -4.125
-0.075 31.125 1.275
-0.075 31.125 2.025
-0.075 33.825 1.275
2.925 33.825 0.675
2.925 33.825 0.525
2.925 33.825 0.825
2.775 33.975 0.375
2.775 33.975 0.525
2.775 33.975 0.675
2.775 33.975 2.475
2.775 33.975 -0.075
0.825 30.525 0.675
0.225 30.825 1.425
-0.225 31.275 0.975
-0.225 31.275 1.425
-0.225 31.275 1.725
-0.525 31.875 0.225
-0.525 31.875 0.525
2.625 30.825 -0.075
-0.225 33.675 1.275
-0.225 33.675 0.825
0.825 34.425 0.375
0.825 34.425 0.675
2.625 34.125 -0.675
2.625 34.125 -1.425
2.625 34.125 -0.825
2.625 34.125 0.675
2.025 34.425 -0.675
2.025 34.425 -0.825
2.025 34.425 -0.525
0.375 30.675 2.175
-0.375 31.425 -2.775
-0.375 33.525 0.975
-0.375 33.525 -0.975
-0.375 33.525 0.675
0.375 34.275 0.675
2.475 34.275 -2.325
2.475 34.275 1.275
0.675 30.525 1.125
0.675 30.525 0.675
0.675 30.525 0.975
0.675 30.525 0.825
0.675 30.525 0.525
-0.525 31.725 0.225
-0.525 33.225 -0.525
-0.525 33.225 0.675
0.675 34.425 0.825
0.675 34.425 0.525
2.175 34.425 1.125
2.175 34.425 0.675
-0.675 32.475 0.825
-0.675 32.475 1.125
-0.675 32.475 0.975
-0.675 32.475 0.675
1.425 34.575 0.075
-0.675 32.325 0.975
-0.675 32.325 1.125
-0.675 32.325 0.525
-0.675 32.325 0.675
-0.675 32.325 0.225
-0.675 32.625 -1.575
-0.075 30.975 0.825
-0.675 32.175 0.225
-0.675 32.175 0.525
-0.675 32.775 1.575
-0.075 33.975 1.125
-0.075 33.975 0.975
2.925 33.975 1.125
2.925 33.975 0.675
2.925 33.975 1.275
2.925 33.975 0.075
2.925 33.975 0.525
2.925 33.975 0.375
2.925 33.975 0.825
2.925 33.975 0.975
1.725 34.575 0.225
0.075 30.825 1.275
0.075 30.825 0.225
-0.225 31.125 1.425
-0.225 33.825 1.275
-0.225 33.825 1.425
-0.225 33.825 0.975
2.775 34.125 1.125
2.775 34.125 0.675
2.775 34.125 0.525
0.525 30.525 1.275
0.525 30.525 0.825
0.525 30.525 1.575
0.975 30.375 -0.375
-0.675 32.025 0.525
-0.675 32.025 0.075
-0.675 32.025 1.875
-0.675 32.025 2.325
-0.675 32.925 0.675
-0.675 32.925 0.525
-0.525 33.375 1.125
-0.525 33.375 0.825
-0.525 33.375 1.425
0.525 34.425 1.875
0.525 34.425 0.525
0.525 34.425 0.675
0.525 34.425 0.375
0.975 34.575 -0.825
0.975 34.575 0.075
1.875 34.575 2.025
1.875 34.575 1.725
1.875 34.575 0.225
2.325 34.425 1.425
2.325 34.425 0.825
2.325 34.425 1.875
2.325 34.425 0.975
0.225 30.675 1.125
0.225 30.675 1.275
-0.375 31.275 -0.975
-0.375 31.275 -1.125
-0.375 33.675 0.975
-0.375 33.675 1.575
-0.375 33.675 3.075
-0.375 33.675 0.675
2.625 34.275 1.125
2.625 34.275 1.275
2.625 34.275 0.825
0.825 30.375 0.675
0.825 30.375 0.375
0.825 30.375 0.975
-0.675 31.875 -1.275
0.825 34.575 0.375
2.025 34.575 -0.525
2.025 34.575 -0.375
0.375 30.525 0.975
0.375 30.525 1.725
-0.525 33.525 0.975
-0.525 33.525 0.675
0.375 34.425 0.825
0.375 34.425 0.675
2.475 34.425 1.275
2.475 34.425 0.675
0.675 30.375 0.825
0.675 30.375 0.975
0.675 30.375 2.625
-0.075 30.825 -0.375
-0.075 30.825 0.675
-0.075 30.825 0.375
-0.075 30.825 1.575
-0.225 30.975 0.225
-0.225 30.975 -1.575
-0.675 31.725 0.075
-0.675 33.225 0.825
-0.675 33.225 0.075
-0.675 33.225 1.425
-0.225 33.975 1.725
-0.225 33.975 1.875
-0.225 33.975 1.125
-0.225 33.975 0.525
-0.075 34.125 0.975
-0.075 34.125 1.125
0.675 34.575 1.275
0.675 34.575 0.975
0.675 34.575 0.375
3.075 33.975 0.675
3.075 33.975 1.125
3.075 33.975 0.225
3.075 33.975 0.975
2.925 34.125 0.675
2.925 34.125 1.275
2.925 34.125 1.575
2.925 34.125 0.825
2.175 34.575 0.975
0.075 30.675 1.575
0.075 30.675 -3.075
-0.375 31.125 1.425
-0.825 32.475 -0.975
-0.825 32.475 1.125
-0.375 33.825 0.975
-0.375 33.825 0.675
-0.375 33.825 1.275
-0.375 33.825 0.375
2.775 34.275 1.425
2.775 34.275 -0.525
2.775 34.275 2.925
2.775 34.275 0.225
-0.825 32.325 0.525
-0.825 32.325 0.975
-0.825 32.325 -1.575
-0.825 32.625 -0.525
-0.825 32.625 0.225
-0.825 32.625 0.975
-0.825 32.175 1.275
-0.825 32.175 0.225
-0.825 32.175 0.375
-0.825 32.175 0.825
-0.825 32.775 0.825
-0.825 32.775 0.525
-0.825 32.775 1.425
-0.825 32.775 -0.375
1.725 34.725 1.725
0.525 30.375 -0.975
0.525 30.375 0.825
0.525 30.375 0.975
-0.675 33.375 1.275
-0.675 33.375 0.825
0.525 34.575 0.225
0.525 34.575 1.875
0.525 34.575 0.675
0.225 30.525 1.425
0.225 30.525 0.975
0.225 30.525 1.125
0.225 30.525 0.525
2.325 34.575 0.975
2.325 34.575 1.725
-0.525 33.675 -0.825
-0.525 33.675 0.675
0.225 34.425 1.275
2.625 34.425 1.125
2.625 34.425 0.975
-0.825 32.025 1.425
-0.825 32.025 0.225
-0.825 32.025 0.075
-0.825 32.925 0.525
1.875 34.725 0.225
1.875 34.725 0.675
0.825 30.225 0.525
-0.825 33.075 0.675
-0.825 33.075 0.825
3.675 31.875 -0.225
0.825 34.725 0.825
-0.225 30.825 1.725
-0.225 30.825 0.225
2.025 34.725 -0.075
2.025 34.725 2.175
-0.225 34.125 -0.675
-0.225 34.125 3.675
-0.225 34.125 1.275
3.075 34.125 0.975
3.075 34.125 0.675
-0.075 30.675 1.275
-0.075 30.675 -0.075
-0.075 30.675 0.675
-0.075 30.675 2.025
-0.075 30.675 -1.875
-0.075 30.675 0.225
-0.375 30.975 2.175
-0.375 33.975 0.375
3.225 33.975 0.225
0.375 30.375 0.975
0.375 30.375 0.675
0.375 30.375 0.525
2.925 34.275 1.125
2.925 34.275 0.675
2.925 34.275 0.825
-0.675 31.425 -4.125
-0.675 33.525 0.675
0.375 34.575 0.975
0.375 34.575 1.425
0.375 34.575 0.225
0.375 34.575 1.125
0.375 34.575 0.375
0.375 34.575 0.675
0.375 34.575 0.525
2.475 34.575 1.275
2.475 34.575 1.425
2.475 34.575 1.125
0.675 30.225 0.375
-0.825 31.725 2.325
-0.825 33.225 1.425
-0.825 33.225 0.675
-0.525 33.825 1.575
-0.525 33.825 0.825
0.075 34.425 0.375
0.075 34.425 1.875
0.675 34.725 0.525
3.375 33.825 -1.125
-0.975 32.475 0.675
-0.975 32.475 1.575
-0.975 32.475 0.075
-0.975 32.475 0.975
-0.975 32.325 0.975
-0.975 32.325 0.225
-0.975 32.325 1.125
-0.975 32.325 0.075
-0.975 32.625 0.825
-0.975 32.625 0.675
-0.975 32.625 1.275
-0.975 32.625 1.575
-0.975 32.625 1.125
0.225 30.375 0.975
-0.675 31.275 1.275
-0.675 31.275 1.425
2.625 30.375 1.275
-0.975 32.775 0.675
-0.975 32.775 0.975
3.525 31.275 1.425
0.225 34.575 1.275
0.225 34.575 0.975
0.225 34.575 1.125
0.225 34.575 0.225
0.525 30.225 0.825
0.525 30.225 0.975
0.525 30.225 0.675
1.725 34.875 0.225
1.725 34.875 -1.425
1.725 34.875 1.575
1.725 34.875 1.125
2.625 34.575 1.575
2.625 34.575 1.425
2.625 34.575 2.775
-0.825 31.575 0.225
-0.825 33.375 -1.425
-0.825 33.375 2.175
-0.825 33.375 0.675
2.325 34.725 -0.825
2.325 34.725 1.425
2.325 34.725 -0.225
-0.225 30.675 -0.525
-0.225 30.675 1.575
-0.975 32.025 0.675
-0.975 32.925 0.075
-0.225 34.275 0.825
-0.225 34.275 0.525
3.225 34.125 1.125
3.075 34.275 0.225
3.075 34.275 0.675
1.875 34.875 0.675
-0.075 30.525 0.225
-0.075 30.525 -0.825
-0.525 30.975 0.375
-0.525 30.975 -0.825
-0.075 34.425 0.375
-0.075 34.425 1.425
2.925 34.425 0.975
-0.975 31.875 0.525
-0.975 31.875 -6.225
-0.975 31.875 0.225
-0.975 31.875 1.275
-0.975 33.075 0.525
-0.975 33.075 1.125
0.825 34.875 1.575
0.825 34.875 0.825
2.025 34.875 1.125
0.375 30.225 0.975
-0.825 33.525 1.275
-0.825 33.525 1.425
0.375 34.725 1.575
0.375 34.725 0.975
0.375 34.725 0.525
2.475 34.725 1.275
2.475 34.725 1.425
0.075 30.375 0.525
0.075 30.375 -0.225
0.075 30.375 -0.375
0.075 30.375 0.975
-0.675 31.125 -4.125
-0.675 31.125 1.725
0.075 34.575 0.075
-0.975 31.725 0.225
-0.975 33.225 0.375
-0.975 33.225 0.975
-0.975 33.225 1.125
0.675 34.875 1.575
2.175 34.875 0.825
-0.375 34.275 1.275
0.225 30.225 1.275
0.225 30.225 1.125
3.225 34.275 1.125
3.225 34.275 3.525
3.225 34.275 0.525
3.225 34.275 0.675
3.225 34.275 0.975
-1.125 32.475 1.275
-1.125 32.475 -0.525
-1.125 32.475 1.425
-1.125 32.475 -0.225
-1.125 32.475 0.075
-1.125 32.475 0.825
-1.125 32.475 1.125
-1.125 32.475 0.975
-0.825 33.675 -4.125
0.225 34.725 0.975
0.225 34.725 0.075
0.225 34.725 0.375
3.675 33.675 1.425
-0.225 30.525 0.375
-0.225 30.525 -4.575
1.575 29.925 2.175
-0.525 30.825 2.625
-1.125 32.325 0.075
-1.125 32.325 0.525
-1.125 32.325 0.975
-1.125 32.325 0.225
-1.125 32.625 0.225
-1.125 32.625 1.425
-1.125 32.625 1.275
-1.125 32.625 0.975
3.975 32.625 0.075
-0.225 34.425 0.225
-0.225 34.425 0.825
-0.225 34.425 0.525
-0.225 34.425 1.125
3.075 34.425 1.125
3.075 34.425 -0.525
1.575 35.025 0.075
1.575 35.025 0.225
0.525 30.075 0.525
0.525 30.075 0.675
-0.975 31.575 2.325
-0.975 31.575 1.425
-0.975 33.375 1.125
3.825 33.375 -4.575
0.525 34.875 1.275
0.525 34.875 0.975
-1.125 32.175 0.825
-1.125 32.775 0.225
-1.125 32.775 0.525
-1.125 32.775 0.375
-0.075 30.375 0.975
-0.675 30.975 1.725
-0.675 33.975 0.525
-0.075 34.575 2.175
-0.075 34.575 1.425
2.925 34.575 1.275
2.925 34.575 1.125
2.925 34.575 -2.475
-1.125 32.025 0.675
-1.125 32.925 0.975
-1.125 32.925 0.675
-1.125 32.925 0.525
1.875 35.025 1.275
1.875 35.025 0.225
0.375 30.075 2.025
-0.975 31.425 0.225
-1.125 31.875 2.625
-1.125 31.875 0.075
0.075 30.225 1.875
0.375 34.875 1.425
0.375 34.875 0.825
0.825 35.025 1.575
0.825 35.025 -1.575
2.025 35.025 0.225
2.025 35.025 1.125
2.475 34.875 1.275
2.475 34.875 1.125
0.075 34.725 0.825
0.075 34.725 1.425
0.075 34.725 0.525
2.775 34.725 0.975
-0.375 30.525 -0.975
-0.375 30.525 -0.375
-0.525 30.675 0.225
-0.525 30.675 2.475
-0.525 30.675 -0.825
0.675 29.925 0.675
0.675 29.925 0.525
3.375 34.275 0.675
3.375 34.275 0.975
3.225 34.425 0.675
0.675 35.025 1.275
2.175 35.025 1.275
-0.225 30.375 1.575
-0.225 30.375 0.525
-0.225 34.575 0.675
-0.225 34.575 2.475
3.525 34.125 1.125
3.075 34.575 0.375
3.075 34.575 0.975
3.075 34.575 1.275
3.075 34.575 0.525
-0.975 31.275 0.225
-0.975 31.275 0.375
0.225 34.875 -0.075
0.225 34.875 1.125
0.225 34.875 0.975
0.225 34.875 0.825
2.625 34.875 1.725
-1.275 32.475 0.825
-1.275 32.475 0.075
-1.275 32.475 -0.075
4.125 32.475 0.525
0.525 29.925 1.125
-0.075 30.225 0.975
-0.075 30.225 1.725
-0.825 30.975 1.575
-1.275 32.325 -0.675
-1.275 32.625 -0.375
-1.275 32.625 -0.075
-0.075 34.725 0.225
-0.075 34.725 0.525
-0.075 34.725 0.375
-0.075 34.725 0.975
1.275 35.175 1.275
1.275 35.175 1.425
1.575 35.175 0.225
2.925 34.725 0.975
2.925 34.725 0.525
2.925 34.725 1.275
2.925 34.725 1.125
2.925 34.725 2.025
-1.275 32.175 1.725
-1.275 32.175 0.225
-1.275 32.775 0.975
-1.275 32.775 0.825
-1.275 32.775 0.675
-1.275 32.775 0.525
-1.275 32.775 -0.675
1.725 35.175 1.125
-1.275 32.025 0.375
-1.275 32.925 0.075
-1.275 32.925 0.225
0.975 35.175 0.675
1.875 35.175 1.275
1.875 35.175 1.425
1.875 35.175 0.225
1.875 35.175 0.525
-0.975 31.125 0.375
0.375 29.925 0.375
0.375 29.925 1.125
0.075 34.875 0.225
0.075 34.875 0.975
-0.525 30.525 0.225
-0.525 30.525 -0.525
2.775 34.875 -1.425
3.975 33.525 2.325
0.375 35.025 0.075
-0.375 30.375 0.675
-1.275 31.875 0.225
0.825 35.175 1.275
3.525 34.275 0.675
3.225 34.575 0.675
3.225 34.575 1.125
2.025 35.175 0.525
2.025 35.175 -0.225
2.025 35.175 0.675
2.025 35.175 0.225
-0.825 30.825 -2.475
3.075 34.725 1.275
3.075 34.725 1.425
3.075 34.725 0.975
0.675 29.775 -3.075
4.125 33.225 -1.875
0.675 35.175 1.275
2.175 35.175 -0.075
0.225 29.925 0.825
0.225 29.925 -3.525
-1.125 31.275 0.525
2.625 35.025 1.725
2.625 35.025 1.575
-0.075 34.875 0.225
-0.075 34.875 0.525
-0.075 34.875 0.975
-0.075 34.875 1.125
0.525 29.775 0.525
-1.275 31.575 0.825
-1.275 31.575 0.675
0.525 35.175 1.575
0.525 35.175 0.525
0.525 35.175 0.225
0.525 35.175 0.675
2.325 35.175 -0.525
1.425 35.325 0.975
-0.525 30.375 0.825
-0.525 30.375 0.225
-0.525 30.375 -1.125
-0.675 30.525 1.725
-1.425 32.175 1.275
-1.425 32.175 -0.075
-0.675 34.425 0.975
-0.525 34.575 3.375
-0.525 34.575 -0.225
3.375 34.575 0.675
3.375 34.575 0.825
-0.375 30.225 0.225
-0.375 30.225 -0.075
-0.825 30.675 -1.125
-0.825 30.675 0.975
-0.825 34.275 -3.675
0.075 29.925 1.425
3.675 34.275 1.875
3.225 34.725 0.975
3.225 34.725 0.525
3.225 34.725 1.425
3.225 34.725 0.825
-1.425 32.025 0.075
-1.425 32.025 0.375
-1.425 32.025 -0.075
-1.125 33.825 1.425
0.075 35.025 0.825
0.075 35.025 -0.075
1.875 35.325 0.075
1.875 35.325 0.825
0.375 29.775 1.425
0.375 29.775 0.975
0.375 29.775 1.125
0.375 29.775 1.275
0.375 29.775 0.825
-1.275 31.425 0.675
-1.275 31.425 0.525
-1.275 31.425 -0.225
0.375 35.175 1.725
2.475 35.175 1.875
-1.425 31.875 0.675
-1.425 31.875 1.275
-1.425 33.075 2.025
-0.225 34.875 0.225
-0.225 34.875 1.425
-0.225 34.875 -2.475
-0.225 34.875 2.025
-0.225 34.875 2.175
0.825 35.325 0.525
0.825 35.325 1.275
3.075 34.875 2.775
2.025 35.325 0.825
-1.425 31.725 0.975
-1.425 31.725 1.275
-1.425 31.725 0.675
-1.425 33.225 0.825
0.675 35.325 1.275
0.675 35.325 1.425
2.175 35.325 -0.075
0.225 29.775 1.125
0.225 29.775 0.975
-1.275 31.275 0.825
-1.275 31.275 0.525
-0.075 29.925 0.825
0.225 35.175 0.525
0.225 35.175 0.825
0.225 35.175 1.275
2.625 35.175 -1.125
-0.075 35.025 0.975
-0.075 35.025 1.125
2.925 35.025 0.375
-0.525 30.225 0.375
-0.825 30.525 -1.125
-0.825 30.525 0.975
-0.525 34.725 2.475
-1.425 31.575 0.975
-1.425 31.575 1.425
0.525 35.325 0.525
0.525 35.325 2.625
0.525 35.325 1.575
0.525 35.325 1.725
0.525 35.325 1.275
-0.375 30.075 1.275
-0.375 34.875 2.325
3.825 34.275 1.425
3.225 34.875 0.375
3.225 34.875 1.275
-1.575 32.325 0.975
-1.575 32.325 -1.575
-1.575 32.325 0.525
1.125 29.475 -0.675
-1.575 32.175 0.675
-1.575 32.775 0.825
0.075 29.775 0.975
-1.275 31.125 0.375
-1.275 31.125 0.525
1.725 35.475 0.075
0.075 35.175 0.975
0.075 35.175 0.075
2.775 35.175 2.025
2.775 35.175 1.725
-1.575 32.025 0.825
-1.575 32.025 0.675
-1.575 32.025 0.375
0.375 29.625 0.975
-0.225 29.925 0.375
-0.225 29.925 0.525
-1.425 31.425 1.425
-1.425 31.425 0.975
0.975 35.475 0.225
0.975 35.475 0.975
0.975 35.475 1.125
0.975 35.475 0.675
-1.125 34.125 2.325
-1.125 34.125 2.175
-0.225 35.025 0.225
0.375 35.325 1.425
0.375 35.325 0.525
0.375 35.325 0.375
2.475 35.325 -0.675
-1.575 31.875 0.975
-1.575 31.875 1.425
-1.575 33.075 -0.825
0.825 35.475 0.375
0.825 35.475 0.975
-0.675 30.225 0.225
-0.825 30.375 0.225
-0.825 30.375 -0.225
-0.825 34.575 1.275
-0.675 34.725 2.925
3.525 34.725 1.425
-0.075 29.775 1.125
-0.075 29.775 2.025
-1.275 30.975 0.375
-1.275 30.975 0.675
0.225 29.625 1.125
0.225 29.625 0.825
0.225 29.625 1.275
0.225 29.625 0.975
-0.975 30.525 -1.275
-0.075 35.175 -0.075
-1.575 31.725 0.675
-1.575 31.725 0.975
2.925 35.175 1.575
2.925 35.175 1.425
2.925 35.175 1.275
-0.525 34.875 2.475
0.225 35.325 1.575
0.225 35.325 0.975
0.225 35.325 1.425
0.675 35.475 1.575
0.675 35.475 -0.525
3.375 34.875 1.125
3.375 34.875 1.275
3.375 34.875 0.525
3.375 34.875 0.975
3.375 34.875 0.825
3.375 34.875 0.375
3.375 34.875 0.075
2.175 35.475 0.225
2.625 35.325 1.275
-0.375 29.925 1.875
-1.125 34.275 1.125
-0.375 35.025 0.825
-0.375 35.025 0.075
-1.575 31.575 -0.375
-1.575 31.575 0.825
-1.575 31.575 0.975
-1.575 31.575 1.275
-1.575 33.375 -2.625
0.525 35.475 1.875
2.325 35.475 -0.375
2.325 35.475 0.225
2.325 35.475 1.575
-1.725 32.475 0.975
0.075 29.625 0.975
0.075 29.625 -0.075
-1.425 31.125 0.675
-1.425 31.125 1.425
-1.425 31.125 0.525
-1.425 31.125 0.825
-1.425 31.125 0.975
-1.725 32.325 1.125
-1.725 32.625 2.025
0.075 35.325 1.275
1.575 35.625 0.375
2.775 35.325 0.975
-0.225 29.775 1.575
-0.225 29.775 2.025
-1.275 30.825 0.375
-1.275 30.825 0.525
-1.725 32.175 -1.875
-0.225 35.175 0.825
4.125 34.125 -0.075
1.125 35.625 0.525
1.725 35.625 -0.375
1.725 35.625 0.075
0.375 29.475 0.525
0.375 29.475 0.825
0.375 29.475 2.325
-1.575 31.425 1.275
-1.575 31.425 0.975
-0.825 30.225 -0.675
-0.825 30.225 -0.375
-0.825 30.225 4.425
0.375 35.475 1.575
0.375 35.475 0.525
0.375 35.475 1.125
-1.725 32.025 0.975
-1.725 32.025 2.025
-1.725 32.025 1.275
2.475 35.475 -0.225
2.475 35.475 -0.525
0.975 35.625 1.125
0.975 35.625 0.675
-0.675 30.075 0.225
-0.675 30.075 1.275
-0.675 30.075 0.825
-0.975 30.375 0.225
-0.675 34.875 2.475
3.525 34.875 0.825
0.825 29.325 0.975
-1.725 31.875 1.725
-1.725 31.875 1.425
-1.725 31.875 1.125
-1.725 31.875 1.275
-0.525 29.925 0.075
2.025 35.625 -0.225
-0.525 35.025 0.525
-0.525 35.025 2.025
3.375 35.025 0.975
3.375 35.025 1.725
-0.075 29.625 1.275
-1.425 30.975 0.825
-1.425 30.975 0.975
-1.425 30.975 0.675
-0.075 35.325 1.425
-0.075 35.325 2.175
4.275 33.975 5.475
2.925 35.325 1.125
2.925 35.325 1.725
2.925 35.325 -0.825
0.225 29.475 0.675
0.225 29.475 0.825
0.225 29.475 1.125
-1.575 31.275 0.975
0.225 35.475 -0.675
0.225 35.475 0.525
-1.725 31.725 1.425
-1.725 31.725 1.725
-1.725 31.725 1.275
-1.725 31.725 0.375
-1.725 31.725 0.075
-1.725 33.225 5.925
0.675 35.625 1.875
2.175 35.625 0.075
2.175 35.625 0.675
-0.375 29.775 2.025
-1.275 30.675 0.075
-1.275 30.675 0.375
-1.275 30.675 0.525
-1.275 30.675 0.675
-0.375 35.175 1.875
-0.375 35.175 0.225
-1.725 31.575 1.575
-1.725 31.575 -0.375
-1.725 31.575 0.375
2.325 35.625 0.525
2.325 35.625 0.075
2.325 35.625 -0.075
0.075 29.475 1.125
0.075 29.475 0.675
0.075 29.475 0.825
-0.825 30.075 2.775
-0.825 30.075 0.225
-0.975 30.225 -0.225
-0.975 30.225 0.225
-1.575 31.125 0.975
-1.575 31.125 0.675
-1.575 31.125 1.275
-1.575 31.125 1.125
-0.225 29.625 1.575
-0.975 34.725 2.025
-0.825 34.875 2.625
-1.425 30.825 0.975
-1.425 30.825 0.225
-1.425 30.825 0.675
0.075 35.475 -0.225
0.075 35.475 0.975
3.675 34.875 0.225
2.775 35.475 1.275
2.775 35.475 1.125
-0.225 35.325 -0.675
3.075 35.325 2.025
3.075 35.325 1.575
3.075 35.325 1.125
-1.875 32.475 -0.225
-0.675 29.925 0.225
-0.675 29.925 0.825
-0.675 29.925 0.675
-0.675 35.025 3.225
1.575 35.775 -0.975
-1.875 32.175 2.325
-1.875 32.175 1.425
1.725 35.775 -0.675
-1.725 31.425 -1.575
-1.725 31.425 -0.675
-1.725 31.425 1.125
0.375 35.625 1.725
0.375 35.625 1.275
0.375 35.625 1.575
2.475 35.625 1.725
2.475 35.625 -0.675
-0.525 29.775 2.025
-1.275 30.525 0.225
-1.875 32.025 2.325
-1.875 32.025 0.675
-0.525 35.175 1.125
0.975 35.775 0.825
3.375 35.175 0.675
1.875 35.775 -0.225
1.875 35.775 1.725
-0.075 29.475 1.275
-0.075 29.475 1.575
-0.075 29.475 0.975
-1.575 30.975 0.825
-1.575 30.975 1.125
-1.575 30.975 0.075
-1.875 31.875 0.975
-1.875 31.875 0.675
-0.075 35.475 0.825
2.025 35.775 -1.275
2.925 35.475 1.575
2.925 35.475 1.125
0.225 29.325 0.675
0.225 29.325 0.825
-0.375 29.625 1.575
-1.425 30.675 0.375
-1.725 31.275 0.975
-0.375 35.325 0.525
-0.375 35.325 1.875
0.225 35.625 0.525
0.225 35.625 0.825
3.225 35.325 1.425
2.625 35.625 -1.125
2.625 35.625 -1.425
2.625 35.625 1.275
-1.875 31.725 2.175
-1.875 31.725 0.825
2.175 35.775 -0.075
2.175 35.775 0.075
2.175 35.775 0.825
2.175 35.775 -0.225
3.825 34.875 1.575
-0.825 29.925 0.375
-0.825 29.925 0.975
-0.825 29.925 0.225
-0.825 35.025 0.075
-0.675 29.775 0.075
-0.675 29.775 1.275
-0.675 29.775 0.225
-1.275 30.375 0.825
-1.875 31.575 0.225
-1.875 31.575 1.275
-1.875 33.375 0.225
-0.225 29.475 1.875
-0.225 29.475 0.975
-1.275 34.575 0.525
-1.575 30.825 0.825
-1.575 30.825 0.525
-1.575 30.825 0.225
-0.675 35.175 1.575
-0.675 35.175 -0.975
0.525 35.775 0.825
0.525 35.775 -0.225
3.525 35.175 0.975
3.525 35.175 1.125
0.075 29.325 0.825
0.075 29.325 1.125
0.075 29.325 0.675
-0.225 35.475 -2.625
3.075 35.475 1.275
0.075 35.625 -1.575
2.775 35.625 1.125
2.775 35.625 1.425
2.775 35.625 1.275
-2.025 32.475 4.875
-1.425 30.525 -0.075
-1.425 30.525 0.975
3.375 35.325 1.725
-2.025 32.175 1.275
-2.025 32.775 3.075
0.375 35.775 -0.525
0.375 35.775 -1.275
0.375 35.775 1.575
1.125 35.925 1.725
1.125 35.925 3.225
-2.025 32.025 1.875
-2.025 32.025 0.225
0.975 35.925 0.825
1.875 35.925 -0.375
-0.075 29.325 1.425
-0.075 29.325 1.125
-0.075 29.325 0.825
-0.075 29.325 0.975
-1.725 30.975 0.675
-1.725 30.975 1.125
-0.075 35.625 1.425
-0.075 35.625 1.125
-0.375 29.475 -1.275
-1.575 30.675 0.225
-0.975 29.925 -0.825
-0.975 29.925 2.775
-0.975 29.925 -0.675
-1.125 30.075 -3.225
-0.375 35.475 0.525
-0.375 35.475 0.675
-0.375 35.475 1.425
-2.025 31.875 2.175
3.975 30.075 -2.325
3.225 35.475 0.975
3.225 35.475 2.025
-0.975 35.025 1.725
0.825 35.925 0.825
2.025 35.925 0.075
-1.875 31.275 0.675
-1.875 31.275 0.975
-1.875 31.275 1.275
-0.825 29.775 0.675
-0.825 29.775 0.825
-0.825 29.775 0.225
-0.825 29.775 1.575
0.225 35.775 1.125
2.625 35.775 1.275
-0.825 35.175 2.925
-0.825 35.175 -0.225
3.675 35.175 1.725
2.175 35.925 -0.375
2.175 35.925 -0.825
-0.675 29.625 0.225
-1.425 30.375 0.225
-1.425 30.375 0.075
-1.425 34.575 1.275
-0.675 35.325 1.425
3.525 35.325 1.275
-0.225 29.325 -0.075
-0.225 29.325 0.975
-0.225 29.325 0.675
-0.225 29.325 1.125
-1.725 30.825 0.825
-1.725 30.825 0.375
-1.725 30.825 0.225
3.075 35.625 1.725
0.075 29.175 0.525
0.075 29.175 0.825
0.075 29.175 0.675
0.075 29.175 1.275
-1.875 31.125 1.125
-2.025 31.575 0.375
-2.025 31.575 1.125
2.325 35.925 1.575
2.325 35.925 1.725
2.775 35.775 1.425
-1.575 30.525 0.225
1.425 36.075 -0.675
-1.125 29.925 1.275
-2.025 31.425 1.125
-2.025 31.425 0.825
-2.025 31.425 0.975
-2.025 31.425 0.675
1.575 36.075 0.075
-1.125 35.025 0.525
0.375 35.925 0.075
-0.975 29.775 0.225
-1.275 30.075 1.425
-2.175 32.775 0.075
-0.975 35.175 -1.125
3.825 35.175 -0.525
-0.075 29.175 0.675
-0.075 29.175 0.975
-1.875 30.975 0.675
-1.875 30.975 0.975
-0.375 29.325 2.175
-0.375 29.325 0.975
-0.375 29.325 0.825
-0.075 35.775 2.325
-0.825 29.625 0.825
-0.825 29.625 0.675
0.975 36.075 0.825
-0.825 35.325 0.525
0.225 29.025 0.825
-2.025 31.275 0.825
-2.025 31.275 0.675
2.025 36.075 0.075
2.025 36.075 1.575
0.225 35.925 0.975
-0.675 29.475 0.975
-1.575 30.375 1.875
-1.575 30.375 1.725
-1.575 30.375 0.225
-0.675 35.475 0.675
3.525 35.475 0.975
3.525 35.475 1.125
2.175 28.875 0.675
2.175 28.875 1.725
-2.175 31.725 2.025
-2.175 31.725 0.675
-2.175 31.725 -4.125
0.675 36.075 1.425
2.175 36.075 0.975
-0.225 29.175 0.975
-0.225 29.175 1.275
-1.875 30.825 0.525
-1.875 30.825 0.975
0.075 29.025 0.975
0.075 29.025 0.375
-0.525 29.325 0.975
-0.525 29.325 2.025
-0.525 29.325 0.675
-1.725 34.425 4.275
-0.525 35.625 0.225
3.375 35.625 1.275
-2.175 31.575 2.475
-2.175 31.575 0.825
-1.125 29.775 -1.275
2.325 36.075 2.625
-1.275 35.025 -0.975
-0.975 29.625 5.325
-0.975 29.625 0.375
-0.975 29.625 0.225
-0.825 29.475 0.075
-0.825 29.475 2.175
-2.175 31.425 1.275
-1.575 34.725 0.675
-2.325 32.325 5.625
0.375 36.075 0.975
0.375 36.075 1.575
3.675 35.475 1.125
3.675 35.475 0.225
2.475 36.075 0.225
1.275 36.225 0.675
1.275 36.225 1.275
-0.375 29.175 -0.375
-0.375 29.175 0.975
-0.375 29.175 0.075
-0.375 29.175 1.425
-0.075 29.025 0.975
-0.075 29.025 1.125
-2.025 30.975 0.525
-2.025 30.975 0.675
-0.375 35.775 2.325
3.225 35.775 1.425
3.225 35.775 1.875
1.125 36.225 1.425
-2.325 32.025 1.125
-2.325 32.025 1.575
1.875 36.225 0.075
-0.675 29.325 1.125
-0.675 29.325 -0.975
-1.725 30.375 0.375
-1.725 30.375 -0.825
-0.675 35.625 0.825
-2.175 31.275 0.675
-2.175 31.275 0.225
2.625 36.075 1.425
2.625 36.075 2.175
2.625 36.075 0.225
0.825 36.225 1.575
2.025 36.225 -0.075
-1.275 29.775 0.225
-0.225 29.025 0.975
-0.225 29.025 1.125
-0.225 29.025 0.825
-1.125 29.625 0.225
-2.025 30.825 1.275
-2.325 31.725 0.675
5.175 31.725 -3.225
0.675 36.225 1.425
0.675 36.225 0.075
3.975 35.325 4.725
3.975 35.325 0.675
-0.525 29.175 1.125
-1.875 30.525 1.425
-0.975 29.475 0.225
-0.975 29.475 0.675
0.075 28.875 0.675
0.075 28.875 0.375
-2.175 31.125 0.675
3.825 35.475 0.225
2.775 36.075 1.725
-2.325 31.575 1.275
-2.325 31.575 1.425
-2.325 31.575 1.875
0.525 36.225 1.275
2.325 36.225 1.875
2.325 36.225 2.175
2.325 36.225 1.125
2.325 36.225 -0.825
-0.825 29.325 1.125
-1.725 30.225 1.875
-1.725 30.225 2.175
-1.725 30.225 2.025
3.675 29.325 -0.675
3.675 35.625 -0.675
-0.375 29.025 -0.075
-0.375 29.025 0.975
-0.375 29.025 1.275
-2.025 30.675 0.375
-2.025 30.675 1.725
0.375 28.725 2.625
-2.325 31.425 0.825
-2.325 31.425 1.725
0.375 36.225 0.375
2.475 36.225 0.225
2.475 36.225 0.675
-0.075 28.875 0.675
-0.075 28.875 0.975
-0.075 28.875 0.525
-0.075 28.875 0.225
-2.175 30.975 0.675
-0.675 29.175 1.125
-1.875 30.375 1.425
-1.875 30.375 3.525
-1.875 30.375 -0.525
-1.875 30.375 2.175
-2.475 32.175 0.675
-0.675 35.775 -1.575
1.125 36.375 0.825
-1.275 29.625 1.875
-2.475 32.025 0.525
-1.425 35.175 2.925
-1.275 35.325 2.025
0.975 36.375 1.725
0.975 36.375 1.425
1.875 36.375 2.325
-1.125 29.475 0.825
-1.125 29.475 0.225
-1.125 29.475 -0.375
-1.575 29.925 0.375
-1.575 29.925 0.225
-2.325 31.275 0.675
-2.325 31.275 0.375
-2.325 31.275 0.525
-2.325 31.275 1.725
0.225 36.225 0.825
4.425 35.025 -2.625
3.975 35.475 0.225
3.975 35.475 0.825
2.625 36.225 1.275
2.625 36.225 1.875
2.625 36.225 -0.075
2.625 36.225 0.825
0.825 28.575 0.675
-2.475 31.875 1.725
0.825 36.375 0.825
-0.225 28.875 0.825
-0.225 28.875 0.675
-0.975 29.325 0.225
-1.725 30.075 0.225
-1.725 30.075 2.175
-2.025 30.525 1.425
3.075 36.075 2.025
3.375 35.925 1.425
2.175 36.375 -0.375
0.075 28.725 1.575
-2.325 31.125 0.675
-2.325 31.125 3.975
2.775 36.225 1.425
2.775 36.225 2.025
-0.825 29.175 1.425
-0.825 29.175 1.125
-0.825 29.175 1.725
-1.875 30.225 -1.575
-0.825 35.775 1.125
3.675 35.775 0.825
3.675 35.775 1.125
-2.475 31.575 0.975
0.525 36.375 1.275
2.325 36.375 0.225
2.325 36.375 -0.675
-0.375 28.875 1.575
-0.375 28.875 1.275
-0.375 28.875 1.425
-2.175 30.675 1.275
3.225 36.075 2.025
3.225 36.075 1.875
3.225 36.075 1.275
-1.275 29.475 1.125
-1.275 29.475 1.875
-1.275 29.475 -0.675
-0.075 28.725 0.825
-0.675 29.025 1.425
-0.675 29.025 1.575
-2.025 30.375 0.975
-2.025 30.375 0.225
-2.325 30.975 -0.375
-2.475 31.425 0.225
-2.475 31.425 1.125
-2.475 31.425 0.675
4.125 35.475 0.225
-2.025 34.575 3.975
0.375 36.375 1.575
0.375 36.375 1.275
2.925 36.225 1.425
1.275 28.425 0.975
-1.125 29.325 -0.375
-1.125 29.325 0.375
-1.125 29.325 -0.525
-1.125 29.325 0.225
-1.125 29.325 1.875
-1.725 29.925 1.275
1.275 36.525 0.075
1.275 36.525 -0.525
1.725 36.525 1.575
0.975 36.525 0.525
-0.975 29.175 0.075
-1.875 30.075 1.875
-2.475 31.275 0.975
-2.475 31.275 0.375
0.225 36.375 0.675
3.825 35.775 -0.375
2.625 36.375 2.025
-0.525 28.875 1.125
-2.175 30.525 0.975
-2.175 30.525 -0.225
-0.225 28.725 0.975
-0.225 28.725 0.525
-0.225 28.725 1.125
0.825 36.525 1.425
0.825 36.525 0.525
3.375 36.075 0.525
3.375 36.075 1.125
3.075 36.225 1.275
3.075 36.225 1.425
-2.025 30.225 1.725
-2.025 30.225 0.225
-2.025 30.225 0.375
-2.025 30.225 -0.675
0.675 36.525 0.825
0.675 36.525 0.225
3.675 35.925 1.575
3.675 35.925 1.125
-1.575 29.625 -0.225
-1.575 35.325 2.625
-1.275 29.325 5.475
-1.275 29.325 -0.975
-1.725 29.775 0.375
-2.625 31.575 2.175
-1.725 35.175 2.925
0.525 36.525 1.575
0.525 36.525 2.025
0.525 36.525 0.375
4.125 35.625 0.825
2.325 36.525 -0.375
2.325 36.525 -0.675
2.325 36.525 0.075
-0.375 28.725 0.675
-0.375 28.725 0.975
-0.375 28.725 1.125
-0.375 28.725 1.275
-0.375 28.725 0.825
-2.325 30.675 1.125
-2.325 30.675 -0.075
3.225 36.225 2.325
3.225 36.225 0.825
-0.675 28.875 0.975
-0.675 28.875 1.575
-2.175 30.375 0.525
-2.175 30.375 0.825
-2.175 30.375 0.975
-1.125 29.175 0.375
-1.125 29.175 1.875
-1.125 29.175 0.675
3.525 36.075 0.525
3.525 36.075 3.375
3.525 36.075 1.125
3.975 35.775 0.675
-0.075 28.575 0.975
-0.075 36.375 -0.975
-2.625 31.425 1.275
-0.975 29.025 1.875
-2.025 30.075 0.225
-2.025 30.075 -0.225
-2.025 30.075 -0.375
1.425 36.675 0.525
1.275 36.675 0.525
3.825 35.925 0.975
3.825 35.925 0.825
1.125 36.675 0.525
-2.625 31.275 1.275
-2.625 31.275 2.625
-0.525 28.725 1.275
-0.525 28.725 0.825
-0.525 28.725 1.575
-2.325 30.525 0.975
-2.325 30.525 0.375
-2.325 30.525 0.825
-2.325 30.525 -0.375
0.225 36.525 -0.375
0.975 36.675 2.025
-0.525 36.225 -0.225
3.375 36.225 1.875
-0.225 28.575 0.975
3.075 36.375 2.025
3.075 36.375 1.275
3.075 36.375 0.375
-1.575 29.475 -0.675
-1.575 29.475 -0.225
-1.575 29.475 1.725
-1.575 29.475 2.925
-0.825 28.875 0.825
-2.175 30.225 0.975
-2.175 30.225 0.525
2.025 36.675 0.675
2.025 36.675 -1.275
-1.425 29.325 -0.675
-1.425 29.325 1.275
-1.725 29.625 2.175
3.675 36.075 -0.675
3.675 36.075 0.375
3.675 36.075 0.825
-1.275 29.175 0.375
-1.275 29.175 0.975
-1.875 29.775 2.325
-2.775 31.725 2.175
4.125 35.775 0.225
-2.625 31.125 0.375
0.675 36.675 1.125
0.075 36.525 -0.225
2.775 36.525 1.725
-1.125 29.025 0.225
-1.125 29.025 1.875
-1.125 29.025 0.375
-1.125 29.025 -0.525
-1.125 29.025 1.575
3.975 35.925 0.975
3.975 35.925 1.425
3.975 35.925 0.375
-0.375 28.575 1.425
-2.475 30.675 0.825
-0.675 28.725 1.275
-0.675 28.725 1.575
-0.675 28.725 1.425
-2.325 30.375 1.275
-2.325 30.375 0.075
-2.325 30.375 0.525
-2.325 30.375 0.975
0.525 36.675 0.075
0.525 36.675 1.125
3.225 36.375 -0.825
3.225 36.375 1.425
3.225 36.375 1.575
3.225 36.375 1.275
3.525 36.225 1.725
3.525 36.225 1.125
3.525 36.225 0.225
3.525 36.225 0.975
-0.075 28.425 0.375
-2.625 30.975 -2.025
2.925 36.525 2.325
2.925 36.525 -0.825
2.925 36.525 2.025
-0.975 28.875 -0.525
3.825 36.075 1.275
3.825 36.075 1.425
-1.725 29.475 -1.425
1.425 36.825 0.825
-0.525 28.575 1.275
-0.525 28.575 1.125
-1.425 29.175 -0.525
-1.425 29.175 -0.375
-1.425 29.175 0.225
-1.425 29.175 2.475
-2.475 30.525 0.825
-2.475 30.525 -0.375
-2.475 30.525 0.525
-2.475 30.525 1.125
-2.475 30.525 -0.825
-2.475 30.525 0.225
-2.925 32.175 3.975
1.125 36.825 1.725
3.375 36.375 1.575
3.375 36.375 2.175
2.625 36.675 1.875
-0.225 28.425 1.125
-0.225 28.425 0.975
-0.825 28.725 1.275
-0.825 28.725 1.875
-0.825 28.725 1.725
-0.825 28.725 1.125
-0.825 28.725 0.975
-2.325 30.225 0.975
