# .PCD v0.7 - Point Cloud Data file format
VERSION 0.7
FIELDS x y z
SIZE 4 4 4
TYPE F F F
COUNT 1 1 1
WIDTH 2048
HEIGHT 1
VIEWPOINT 0 0 0 1 0 0 0
POINTS 2048
DATA ascii
-23.775 7.275 2.325
-23.775 7.125 2.775
-23.925 7.275 2.025
-23.925 7.125 1.125
-23.925 7.125 -4.125
-23.625 7.275 1.725
-23.625 7.125 0.075
-23.625 7.125 0.825
-23.625 7.125 1.125
-23.625 7.125 -0.075
-23.625 7.125 1.425
-23.775 7.425 1.725
-23.775 7.425 1.425
-23.775 6.975 1.425
-23.775 6.975 -0.075
-23.775 6.975 2.175
-23.775 6.975 0.075
-23.775 6.975 0.525
-23.925 7.425 1.575
-23.925 6.975 2.475
-24.075 7.275 0.375
-24.075 7.275 -0.525
-23.625 7.425 -0.075
-23.625 7.425 1.425
-23.625 6.975 0.075
-23.625 6.975 0.825
-24.075 7.425 -0.075
-24.075 7.425 1.875
-24.075 6.975 1.425
-23.475 7.275 1.125
-23.475 7.275 0.375
-23.475 7.275 1.275
-23.475 7.275 0.675
-23.475 7.125 1.575
-23.475 7.125 0.825
-23.475 7.125 1.725
-23.775 6.825 0.525
-23.775 6.825 -0.075
-23.775 6.825 0.375
-23.775 6.825 0.825
-23.925 7.575 1.275
-23.925 6.825 1.575
-24.225 7.125 0.075
-23.475 7.425 -0.375
-23.475 7.425 0.675
-23.475 7.425 1.725
-23.475 6.975 1.425
-23.475 6.975 1.125
-23.625 7.575 -3.225
-23.625 6.825 1.125
-23.625 6.825 3.825
-23.625 6.825 0.825
-23.625 6.825 1.575
-23.625 6.825 1.275
-24.075 7.575 1.575
-24.075 6.825 0.225
-24.075 6.825 -0.075
-24.225 7.425 1.425
-24.225 6.975 1.125
-23.325 7.275 0.675
-23.325 7.275 1.125
-23.325 7.125 0.675
-23.325 7.125 1.125
-23.475 6.825 0.675
-23.475 6.825 1.575
-23.475 6.825 0.825
-23.775 7.725 1.425
-23.775 6.675 1.125
-23.775 6.675 1.275
-23.775 6.675 0.825
-23.775 6.675 0.225
-23.925 7.725 2.025
-24.225 7.575 -0.375
-24.225 7.575 1.275
-24.225 7.575 1.425
-24.225 6.825 2.475
-24.225 6.825 1.875
-24.375 7.275 1.425
-24.375 7.125 1.875
-24.375 7.125 1.425
-23.325 7.425 0.825
-23.325 7.425 1.875
-23.325 7.425 -0.225
-23.325 7.425 1.125
-23.325 6.975 0.675
-23.625 7.725 1.575
-23.625 7.725 1.275
-23.625 7.725 0.075
-23.625 6.675 0.825
-23.625 6.675 2.025
-23.625 6.675 1.575
-24.075 7.725 1.425
-24.075 7.725 -0.375
-24.075 6.675 0.225
-24.375 7.425 1.275
-24.375 6.975 4.875
-23.325 7.575 1.275
-23.325 7.575 -0.525
-23.325 7.575 -0.225
-23.325 7.575 1.125
-23.325 7.575 2.625
-23.475 7.725 1.875
-23.475 7.725 2.175
-23.475 6.675 1.725
-23.475 6.675 1.275
-23.475 6.675 0.675
-24.225 7.725 0.075
-24.225 6.675 2.625
-24.225 6.675 1.125
-24.375 6.825 1.875
-24.375 6.825 0.975
-23.175 7.275 0.525
-23.175 7.125 0.525
-23.175 7.125 1.125
-23.175 7.125 0.675
-23.175 7.125 0.375
-23.175 7.125 -0.225
-23.175 7.125 1.425
-23.775 7.875 -3.075
-23.775 7.875 2.025
-23.775 6.525 0.825
-23.925 6.525 0.825
-23.925 6.525 2.475
-24.525 7.275 1.575
-24.525 7.275 0.675
-24.525 7.125 0.225
-24.525 7.125 0.975
-23.175 7.425 2.025
-23.175 7.425 1.425
-23.175 6.975 -0.525
-23.175 6.975 0.525
-23.625 6.525 0.675
-23.625 6.525 0.375
-23.625 6.525 3.375
-24.075 6.525 1.725
-24.525 6.975 2.625
-23.325 7.725 0.675
-23.325 7.725 0.525
-23.325 7.725 1.275
-23.325 7.725 1.875
-23.325 7.725 -0.375
-23.325 7.725 -0.225
-23.325 7.725 1.575
-23.325 7.725 1.725
-23.325 7.725 2.175
-23.325 7.725 1.125
-23.325 6.675 1.275
-23.325 6.675 0.975
-23.325 6.675 0.375
-24.375 7.725 0.375
-24.375 7.725 0.825
-24.375 7.725 0.225
-23.175 7.575 1.275
-23.175 7.575 1.575
-23.175 7.575 0.675
-23.175 6.825 0.525
-23.475 7.875 0.825
-23.475 6.525 2.475
-23.475 6.525 1.425
-24.225 7.875 1.875
-24.225 6.525 0.225
-24.525 7.575 0.375
-24.525 7.575 0.825
-24.525 7.575 1.425
-24.525 7.575 1.875
-23.025 7.275 0.675
-23.025 7.275 0.375
-23.025 7.275 0.525
-23.025 7.125 1.125
-23.775 8.025 2.025
-23.775 8.025 2.175
-23.925 8.025 2.025
-23.775 6.375 0.825
-23.775 6.375 0.975
-23.925 6.375 1.425
-23.925 6.375 0.825
-23.925 6.375 1.275
-23.925 6.375 0.525
-24.675 7.275 1.425
-24.675 7.275 0.975
-24.675 7.125 1.425
-24.675 7.125 0.975
-24.675 7.125 1.575
-23.025 7.425 0.525
-23.025 7.425 -1.275
-23.025 7.425 2.175
-23.025 7.425 0.975
-23.025 7.425 0.675
-23.175 7.725 -0.525
-23.175 7.725 0.675
-23.175 7.725 1.725
-23.175 7.725 1.275
-23.175 7.725 2.325
-23.175 6.675 1.425
-23.325 7.875 0.675
-23.325 7.875 0.375
-23.325 7.875 1.125
-23.325 7.875 1.575
-23.325 7.875 2.625
-23.325 7.875 2.475
-23.325 6.525 1.425
-23.325 6.525 1.125
-23.625 8.025 -0.675
-23.625 6.375 0.675
-23.625 6.375 1.425
-23.625 6.375 1.725
-23.625 6.375 0.525
-23.625 6.375 1.275
-23.625 6.375 1.575
-24.075 8.025 2.025
-24.075 6.375 0.825
-24.375 7.875 0.825
-24.375 7.875 2.025
-24.375 6.525 0.075
-24.375 6.525 0.225
-24.375 6.525 0.675
-24.525 7.725 1.875
-24.525 7.725 1.575
-24.525 7.725 2.025
-24.525 7.725 2.625
-24.525 7.725 0.825
-24.525 6.675 0.375
-24.675 7.425 1.575
-24.675 7.425 0.675
-24.675 7.425 1.875
-24.675 7.425 0.975
-24.675 6.975 1.275
-24.675 6.975 1.425
-24.675 6.975 2.625
-23.025 7.575 0.675
-23.025 7.575 1.275
-23.025 7.575 0.975
-23.025 6.825 1.575
-23.475 8.025 -5.625
-23.475 6.375 -0.375
-24.225 8.025 0.975
-24.225 6.375 1.875
-24.225 6.375 -0.225
-24.675 7.575 1.575
-24.675 7.575 0.975
-24.675 7.575 0.225
-24.675 6.825 1.425
-23.175 7.875 0.675
-23.175 7.875 1.725
-23.175 7.875 -0.225
-23.175 7.875 0.825
-23.175 7.875 1.125
-23.175 6.525 1.425
-24.525 7.875 0.075
-24.525 7.875 0.525
-22.875 7.125 2.025
-23.025 7.725 1.425
-23.025 7.725 1.125
-23.025 7.725 0.975
-23.025 6.675 1.575
-23.325 8.025 2.325
-23.325 8.025 2.925
-23.325 8.025 0.675
-23.325 6.375 0.525
-23.775 8.175 -1.125
-23.775 8.175 -3.225
-23.775 8.175 1.725
-23.925 8.175 0.075
-23.925 8.175 1.725
-23.925 8.175 -0.225
-23.925 8.175 0.525
-23.925 8.175 -0.375
-23.775 6.225 0.675
-23.775 6.225 -1.125
-23.925 6.225 0.825
-23.925 6.225 1.275
-24.375 8.025 1.725
-24.375 8.025 1.275
-24.675 7.725 0.975
-24.675 7.725 0.675
-24.675 7.725 0.225
-22.875 7.425 0.675
-22.875 7.425 1.575
-24.675 6.675 0.975
-24.825 7.275 0.975
-24.825 7.275 1.425
-24.825 7.125 0.975
-23.625 8.175 1.125
-23.625 8.175 2.025
-23.625 6.225 1.575
-24.075 8.175 0.975
-24.075 8.175 1.875
-24.075 6.225 0.525
-24.075 6.225 1.425
-24.825 7.425 0.825
-24.825 6.975 1.575
-24.825 6.975 1.275
-22.875 7.575 2.325
-22.875 7.575 1.275
-22.875 7.575 0.825
-22.875 7.575 0.675
-22.875 6.825 0.975
-22.875 6.825 2.475
-22.875 6.825 2.175
-23.475 8.175 5.175
-23.475 8.175 0.225
-23.475 8.175 2.325
-23.475 6.225 0.675
-23.475 6.225 0.825
-23.475 6.225 1.575
-23.475 6.225 0.525
-24.225 8.175 0.825
-24.225 8.175 1.125
-24.825 7.575 2.325
-24.825 7.575 0.975
-23.025 7.875 2.325
-23.025 7.875 0.675
-23.025 7.875 1.425
-24.825 6.825 2.025
-24.825 6.825 -2.625
-23.025 6.525 1.575
-23.025 6.525 0.975
-23.175 8.025 0.825
-23.175 8.025 2.475
-23.175 8.025 -0.225
-23.175 6.375 1.275
-24.525 8.025 1.275
-24.525 8.025 1.425
-24.675 7.875 1.875
-24.675 7.875 1.275
-24.675 7.875 1.425
-24.675 6.525 2.325
-24.675 6.525 1.725
-22.875 7.725 2.625
-22.875 7.725 1.575
-22.875 7.725 0.375
-22.875 6.675 0.525
-23.325 8.175 2.325
-23.325 6.225 0.675
-23.325 6.225 0.225
-23.325 6.225 1.725
-24.375 8.175 1.275
-24.375 8.175 1.425
-24.375 8.175 1.125
-24.375 8.175 1.725
-24.825 7.725 0.825
-24.825 7.725 0.525
-24.825 6.675 1.425
-24.825 6.675 0.975
-23.775 8.325 -3.525
-23.775 8.325 0.525
-23.925 8.325 1.725
-23.775 6.075 4.575
-23.775 6.075 0.825
-23.775 6.075 0.675
-23.775 6.075 2.475
-23.775 6.075 1.575
-23.775 6.075 1.875
-23.925 6.075 1.575
-23.925 6.075 1.275
-22.725 6.975 1.125
-22.725 6.975 0.675
-24.975 7.125 1.425
-24.975 7.125 1.125
-23.625 8.325 2.175
-23.625 6.075 2.475
-23.625 6.075 2.775
-23.625 6.075 1.425
-23.625 6.075 0.825
-23.025 8.025 0.675
-23.025 8.025 1.275
-24.975 7.425 1.275
-24.975 6.975 0.825
-24.675 8.025 0.075
-22.725 6.825 1.425
-22.875 7.875 0.675
-22.875 7.875 1.725
-23.175 8.175 1.125
-23.475 8.325 2.325
-23.475 6.075 0.375
-24.225 8.325 1.125
-24.225 8.325 1.425
-24.225 6.075 2.025
-24.525 6.225 0.675
-24.525 6.225 1.275
-24.525 6.225 0.075
-24.825 7.875 1.725
-24.825 7.875 1.575
-24.825 6.525 1.425
-24.825 6.525 2.625
-24.825 6.525 0.975
-24.975 7.575 0.525
-24.975 7.575 1.275
-24.975 6.825 1.125
-22.725 7.725 0.525
-22.725 6.675 0.975
-22.725 6.675 1.125
-23.325 8.325 0.075
-23.325 8.325 2.325
-23.325 8.325 0.225
-24.375 8.325 1.425
-24.375 8.325 1.575
-24.375 8.325 1.125
-24.375 8.325 0.975
-24.375 8.325 1.725
-24.975 6.675 0.975
-22.575 7.275 1.275
-22.575 7.275 0.975
-22.575 7.275 1.125
-22.575 7.125 0.975
-22.575 7.125 2.325
-22.575 7.125 1.275
-22.575 7.125 -3.675
-22.875 8.025 0.675
-22.875 8.025 2.475
-22.875 8.025 1.425
-23.025 8.175 0.075
-23.025 8.175 1.275
-23.025 8.175 0.375
-23.025 8.175 0.675
-22.875 6.375 1.275
-23.025 6.225 1.125
-23.025 6.225 0.975
-23.775 8.475 0.975
-23.775 8.475 -0.225
-23.925 8.475 2.775
-23.775 5.925 0.675
-23.925 5.925 1.425
-23.925 5.925 0.825
-22.575 7.425 0.975
-22.575 7.425 1.275
-22.575 7.425 -0.825
-22.575 7.425 1.125
-22.575 6.975 1.125
-22.575 6.975 1.425
-22.575 6.975 1.275
-22.575 6.975 0.975
-24.675 6.225 1.425
-24.675 6.225 3.225
-25.125 7.275 1.275
-25.125 7.125 1.725
-23.625 8.475 -1.125
-23.625 5.925 0.225
-23.625 5.925 1.575
-23.625 5.925 0.675
-23.625 5.925 0.525
-24.075 8.475 0.975
-24.075 8.475 1.875
-24.075 8.475 1.425
-24.075 8.475 1.575
-24.075 5.925 -0.225
-24.075 5.925 0.825
-22.725 7.875 2.475
-22.725 6.525 1.725
-22.725 6.525 1.275
-22.725 6.525 0.825
-23.175 8.325 0.375
-23.175 8.325 0.675
-23.175 6.075 1.125
-25.125 6.975 0.975
-25.125 6.975 1.575
-25.125 6.975 1.275
-22.575 7.575 1.425
-22.575 7.575 0.975
-22.575 7.575 2.175
-24.525 8.325 1.425
-22.575 6.825 0.525
-22.575 6.825 0.825
-22.575 6.825 1.425
-22.575 6.825 0.975
-22.575 6.825 1.875
-22.575 6.825 1.275
-24.975 6.525 1.725
-23.475 8.475 0.225
-23.475 8.475 1.875
-23.475 5.925 0.675
-24.225 8.475 2.325
-24.225 8.475 1.275
-24.225 8.475 0.075
-24.225 8.475 1.575
-22.575 7.725 2.025
-22.575 7.725 0.825
-22.575 7.725 0.975
-22.575 6.675 1.125
-22.575 6.675 0.975
-22.575 6.675 0.825
-22.575 6.675 1.575
-22.875 8.175 -0.075
-22.875 8.175 1.725
-23.325 8.475 2.775
-23.325 8.475 0.075
-23.325 8.475 2.325
-23.325 5.925 0.825
-24.375 8.475 1.725
-24.375 8.475 0.975
-24.375 8.475 1.425
-22.725 8.025 0.675
-22.725 8.025 7.125
-22.725 8.025 -0.525
-22.725 6.375 1.125
-22.725 6.375 0.375
-22.725 6.375 1.275
-23.025 8.325 0.225
-23.025 8.325 0.825
-23.025 6.075 1.125
-23.025 6.075 0.975
-25.125 6.675 1.125
-24.675 6.075 0.375
-24.975 6.375 0.975
-24.975 6.375 2.025
-24.975 6.375 1.275
-24.975 6.375 1.725
-24.975 6.375 1.575
-22.425 7.275 1.425
-22.425 7.275 1.125
-22.425 7.275 0.825
-22.425 7.275 0.975
-22.425 7.275 2.775
-22.425 7.275 0.075
-22.425 7.275 1.275
-22.425 7.125 0.825
-22.425 7.125 0.375
-22.425 7.125 1.125
-22.425 7.125 1.875
-23.775 8.625 0.975
-23.925 8.625 -0.525
-23.925 8.625 1.575
-23.775 5.775 0.525
-23.925 5.775 1.425
-23.925 5.775 1.275
-23.925 5.775 0.675
-22.425 7.425 1.575
-22.425 7.425 0.975
-22.425 7.425 1.275
-22.425 6.975 2.475
-22.425 6.975 0.975
-22.425 6.975 -1.275
-22.425 6.975 1.425
-22.575 7.875 2.175
-22.575 6.525 1.125
-22.575 6.525 0.825
-22.575 6.525 1.425
-22.575 6.525 0.675
-23.175 8.475 2.775
-23.175 8.475 -2.925
-23.175 5.925 1.575
-23.175 5.925 0.825
-23.175 5.925 1.125
-23.175 5.925 0.975
-23.175 5.925 0.675
-23.625 5.775 -2.325
-23.625 5.775 1.725
-23.625 5.775 0.675
-23.625 5.775 0.525
-24.075 8.625 1.575
-24.075 8.625 2.475
-24.075 5.775 0.525
-24.075 5.775 0.675
-24.075 5.775 1.125
-25.125 7.875 1.275
-25.125 6.525 1.125
-25.125 6.525 1.275
-25.275 6.975 1.725
-25.275 6.975 1.125
-22.425 7.575 1.275
-22.425 7.575 0.975
-22.425 6.825 1.425
-22.425 6.825 1.125
-22.425 6.825 1.575
-22.425 6.825 -4.275
-22.425 6.825 1.725
-22.425 6.825 0.975
-23.475 5.775 0.675
-24.225 8.625 1.125
-24.225 8.625 0.975
-24.225 8.625 1.575
-24.225 8.625 2.175
-22.725 8.175 1.725
-22.725 8.175 0.825
-22.725 8.175 0.525
-22.725 8.175 0.225
-22.875 8.325 1.125
-22.875 8.325 1.425
-22.875 8.325 1.275
-22.725 6.225 0.375
-22.725 6.225 1.425
-22.725 6.225 1.275
-22.725 6.225 0.825
-22.725 6.225 1.125
-22.875 6.075 1.725
-22.875 6.075 1.125
-22.875 6.075 1.275
-25.275 6.825 1.125
-25.275 6.825 1.725
-24.975 8.175 1.575
-24.825 6.075 2.475
-24.825 6.075 -0.075
-24.975 6.225 2.025
-24.975 6.225 0.975
-24.975 6.225 1.275
-22.425 7.725 1.425
-22.425 7.725 2.175
-22.425 7.725 0.975
-22.425 7.725 2.025
-22.425 6.675 1.725
-22.425 6.675 0.975
-22.425 6.675 1.275
-22.425 6.675 1.125
-22.425 6.675 1.575
-22.575 8.025 0.375
-22.575 8.025 -4.875
-22.575 6.375 0.825
-22.575 6.375 1.125
-23.025 8.475 1.125
-23.025 5.925 1.425
-23.025 5.925 0.675
-23.025 5.925 1.125
-23.025 5.925 0.975
-23.025 5.925 1.275
-23.025 5.925 1.725
-23.025 5.925 0.825
-23.325 8.625 2.775
-23.325 8.625 0.075
-24.375 8.625 0.975
-24.375 8.625 1.125
-24.375 8.625 1.575
-24.375 5.775 -2.475
-25.125 8.025 1.275
-25.125 6.375 1.125
-25.125 6.375 0.525
-25.125 6.375 1.425
-25.125 6.375 0.825
-22.275 7.275 1.425
-22.275 7.275 0.975
-22.275 7.275 1.275
-22.275 7.125 1.425
-22.275 7.125 1.275
-22.275 7.125 1.575
-22.425 7.875 2.625
-22.425 6.525 1.425
-22.425 6.525 0.225
-22.425 6.525 0.975
-23.175 8.625 2.625
-23.175 8.625 0.225
-23.175 8.625 -4.425
-23.175 8.625 -3.675
-23.175 5.775 1.425
-23.175 5.775 1.125
-23.175 5.775 0.525
-23.175 5.775 0.975
-23.775 8.775 0.975
-23.925 8.775 1.725
-23.925 8.775 0.525
-23.925 5.625 0.225
-23.925 5.625 0.675
-22.275 7.425 1.125
-22.275 7.425 1.275
-22.275 7.425 0.975
-22.275 7.425 0.825
-22.275 6.975 0.825
-22.275 6.975 1.275
-24.525 8.625 1.875
-22.725 8.325 0.225
-22.725 8.325 0.675
-22.725 8.325 1.575
-24.525 5.775 2.775
-22.725 6.075 1.575
-22.725 6.075 1.125
-22.725 6.075 0.975
-22.725 6.075 1.425
-22.725 6.075 0.075
-22.725 6.075 1.875
-25.275 6.525 0.825
-25.425 7.275 2.625
-25.425 7.125 1.575
-23.625 5.625 0.075
-23.625 5.625 2.925
-24.075 8.775 1.725
-24.075 8.775 1.125
-24.075 5.625 1.875
-24.075 5.625 0.825
-22.575 6.225 0.675
-22.575 6.225 1.275
-22.575 6.225 1.425
-22.575 6.225 0.825
-22.575 6.225 1.575
-22.575 6.225 1.875
-22.875 8.475 0.675
-22.875 8.475 0.975
-22.875 8.475 1.275
-22.875 8.475 2.625
-22.875 8.475 1.125
-22.875 5.925 0.975
-22.875 5.925 1.125
-24.975 6.075 0.825
-25.425 6.975 2.025
-22.275 7.575 1.125
-22.275 7.575 1.425
-22.275 7.575 1.575
-22.275 7.575 1.275
-22.275 7.575 0.975
-22.275 6.825 1.575
-23.475 8.775 2.175
-25.125 6.225 1.275
-25.125 6.225 0.675
-24.225 8.775 1.275
-24.225 8.775 -0.075
-24.225 5.625 0.825
-24.225 5.625 0.525
-25.425 7.575 0.675
-22.425 6.375 1.875
-22.425 6.375 1.275
-22.425 6.375 0.675
-22.425 6.375 0.825
-23.025 8.625 0.375
-23.025 8.625 1.575
-23.025 8.625 2.925
-23.025 8.625 1.125
-23.025 8.625 0.675
-23.025 5.775 2.625
-23.025 5.775 1.125
-23.025 5.775 1.275
-23.025 5.775 1.425
-23.025 5.775 1.575
-22.275 7.725 0.975
-22.275 7.725 0.825
-22.275 7.725 1.275
-22.275 7.725 1.575
-24.675 8.625 2.325
-24.675 5.775 4.125
-24.675 5.775 2.775
-23.325 8.775 0.075
-25.425 7.725 0.825
-25.425 7.725 0.975
-22.575 8.325 1.575
-22.575 8.325 0.675
-22.725 8.475 1.425
-22.575 6.075 1.575
-22.575 6.075 1.425
-22.575 6.075 1.125
-22.575 6.075 1.725
-22.575 6.075 0.975
-22.725 5.925 1.275
-22.725 5.925 0.975
-22.275 7.875 1.125
-22.275 7.875 0.975
-22.275 7.875 1.575
-22.275 7.875 0.675
-22.275 6.525 1.125
-25.125 8.325 1.425
-25.125 8.325 -0.375
-23.175 5.625 0.975
-23.175 5.625 1.575
-25.125 6.075 1.575
-22.125 7.275 1.275
-22.425 8.175 2.475
-24.525 8.775 1.125
-22.875 8.625 0.675
-22.875 8.625 1.575
-24.525 5.625 3.075
-24.525 5.625 2.775
-22.875 5.775 0.975
-22.875 5.775 3.975
-22.875 5.775 1.725
-22.875 5.775 1.275
-22.875 5.775 1.125
-22.875 5.775 1.425
-25.425 7.875 2.775
-23.775 8.925 1.275
-23.775 8.925 0.825
-23.925 8.925 0.975
-23.925 8.925 1.275
-23.775 5.475 0.675
-23.775 5.475 -3.975
-22.125 7.425 0.075
-22.125 6.975 0.375
-25.275 8.175 2.325
-25.275 6.225 1.275
-25.275 6.225 1.425
-25.575 7.275 1.425
-25.575 7.125 1.725
-23.625 5.475 0.075
-23.625 5.475 -0.525
-23.625 5.475 0.375
-23.625 5.475 1.875
-23.625 5.475 1.575
-24.075 8.925 2.325
-24.075 8.925 1.575
-24.075 8.925 0.975
-24.075 8.925 1.125
-24.075 8.925 0.675
-24.075 8.925 0.825
-24.075 8.925 2.475
-24.075 5.475 1.575
-24.075 5.475 1.125
-24.075 5.475 0.675
-22.125 7.575 1.575
-22.125 7.575 1.275
-22.125 6.825 0.825
-23.475 8.925 2.025
-23.475 5.475 2.025
-23.475 5.475 1.875
-22.275 8.025 0.975
-22.275 8.025 1.425
-24.225 8.925 1.275
-24.225 8.925 1.125
-24.225 5.475 2.025
-23.025 8.775 0.675
-23.025 8.775 0.375
-23.025 5.625 -3.525
-23.025 5.625 1.575
-23.025 5.625 0.975
-23.025 5.625 1.425
-23.025 5.625 0.825
-25.575 7.575 2.025
-25.575 6.825 0.975
-25.575 6.825 -3.525
-24.675 8.775 2.475
-22.125 7.725 1.275
-22.125 7.725 -1.725
-22.125 7.725 1.425
-22.125 7.725 1.125
-22.125 7.725 1.575
-22.125 7.725 0.975
-22.575 8.475 0.675
-22.575 8.475 0.525
-22.575 5.925 1.125
-22.575 5.925 0.825
-23.325 8.925 0.075
-23.325 8.925 0.225
-23.325 5.475 2.475
-23.325 5.475 2.175
-22.425 8.325 2.775
-22.425 8.325 2.325
-22.425 8.325 2.625
-22.425 6.075 1.725
-22.425 6.075 1.875
-22.425 6.075 1.125
-22.725 8.625 0.675
-22.725 8.625 0.225
-22.725 5.775 2.025
-22.725 5.775 1.125
-25.125 8.475 0.525
-25.125 8.475 1.125
-25.575 7.725 1.725
-25.575 7.725 1.875
-24.975 8.625 0.525
-25.275 8.325 2.325
-25.275 6.075 1.725
-25.275 6.075 -1.875
-25.275 6.075 1.125
-25.275 6.075 1.425
-22.125 7.875 1.125
-22.125 7.875 1.425
-22.125 7.875 1.575
-22.875 8.775 0.825
-22.875 8.775 1.275
-23.175 8.925 1.875
-22.875 5.625 0.975
-22.875 5.625 1.575
-23.175 5.475 1.575
-23.175 5.475 0.975
-23.175 5.475 1.425
-24.525 8.925 -2.475
-24.525 5.475 0.075
-24.525 5.475 2.925
-25.425 8.175 1.875
-25.425 8.175 0.975
-25.575 7.875 2.325
-25.425 6.225 1.425
-21.975 7.275 1.125
-21.975 7.125 2.175
-23.775 9.075 1.575
-23.775 9.075 1.275
-23.775 9.075 1.725
-23.925 9.075 0.975
-23.925 9.075 1.725
-21.975 7.425 1.875
-23.925 5.325 1.725
-23.925 5.325 0.675
-23.925 5.325 0.975
-23.625 9.075 0.825
-23.625 9.075 0.975
-23.625 5.325 2.325
-23.625 5.325 1.875
-23.625 5.325 2.025
-23.625 5.325 0.375
-25.725 7.275 2.475
-25.725 7.275 3.075
-25.725 7.275 2.325
-25.725 7.275 3.225
-24.075 9.075 0.075
-24.075 5.325 1.725
-24.075 5.325 0.075
-24.075 5.325 -0.825
-24.075 5.325 3.075
-24.075 5.325 1.275
-24.075 5.325 1.575
-24.075 5.325 0.825
-25.725 7.425 1.275
-25.725 7.425 2.625
-22.125 8.025 -0.975
-22.125 8.025 1.425
-25.725 6.975 1.275
-25.725 6.975 2.325
-22.575 8.625 1.425
-22.575 8.625 2.175
-22.575 8.625 0.525
-22.425 5.925 2.025
-22.425 5.925 2.925
-22.425 5.925 1.725
-22.575 5.775 1.875
-22.575 5.775 1.275
-22.575 5.775 -2.925
-22.575 5.775 0.975
-22.575 5.775 1.125
-23.025 8.925 0.525
-23.025 8.925 1.125
-23.025 8.925 4.125
-23.025 5.475 1.575
-23.025 5.475 1.425
-23.025 5.475 0.675
-23.475 9.075 -0.225
-23.475 9.075 2.025
-23.475 9.075 0.675
-23.475 5.325 2.025
-24.225 9.075 2.025
-24.225 9.075 1.125
-24.225 5.325 2.025
-24.675 5.475 2.625
-24.675 5.475 2.025
-25.125 8.625 1.275
-25.275 8.475 1.275
-25.275 5.925 3.525
-25.275 5.925 1.425
-25.275 5.925 1.275
-25.575 8.025 2.625
-25.575 8.025 2.775
-25.575 8.025 2.175
-25.725 7.575 1.275
-25.725 6.825 2.175
-22.275 6.075 1.125
-22.725 8.775 1.575
-22.725 8.775 0.675
-22.725 5.625 2.175
-22.725 5.625 1.125
-23.325 9.075 1.875
-23.325 9.075 -0.075
-24.975 5.625 1.725
-24.975 5.625 2.625
-24.975 5.625 0.975
-25.425 8.325 3.075
-23.325 5.325 0.825
-23.325 5.325 1.125
-23.325 5.325 0.975
-23.325 5.325 1.425
-23.325 5.325 2.475
-25.425 6.075 0.825
-24.375 5.325 1.575
-24.375 5.325 -1.425
-24.375 5.325 0.825
-25.725 7.725 2.175
-22.125 8.175 -0.825
-22.125 8.175 0.675
-22.125 8.175 0.975
-22.125 8.175 1.425
-22.125 8.175 0.525
-22.875 8.925 1.125
-22.875 8.925 0.675
-22.875 8.925 2.475
-22.875 5.475 1.275
-22.875 5.475 0.075
-21.975 7.875 1.575
-23.175 9.075 0.075
-23.175 9.075 1.125
-24.825 5.475 2.625
-24.825 5.475 -0.975
-23.175 5.325 2.325
-23.175 5.325 1.425
-23.175 5.325 0.825
-23.175 5.325 0.975
-25.575 6.225 3.075
-24.525 5.325 -0.375
-24.525 5.325 1.875
-24.525 5.325 2.325
-22.425 8.625 1.575
-22.425 5.775 -2.925
-21.825 7.275 0.675
-21.825 7.275 1.875
-21.825 7.275 -0.825
-22.575 8.775 0.675
-22.575 8.775 0.075
-22.575 5.625 2.175
-22.575 5.625 1.275
-25.275 5.775 0.975
-23.775 9.225 1.725
-23.775 9.225 0.525
-23.775 9.225 1.425
-23.925 9.225 0.225
-23.925 9.225 0.075
-23.925 9.225 0.825
-23.925 9.225 1.125
-23.925 9.225 -2.175
-23.925 9.225 -0.825
-23.925 9.225 0.525
-23.775 5.175 1.875
-23.775 5.175 0.225
-23.925 5.175 2.625
-23.925 5.175 0.825
-23.925 5.175 1.725
-23.925 5.175 0.675
-23.925 5.175 1.275
-25.125 8.775 -0.225
-25.425 8.475 1.425
-21.975 8.025 0.975
-21.975 8.025 0.825
-23.625 5.175 2.325
-23.625 5.175 0.375
-24.075 9.225 1.275
-24.075 9.225 1.575
-25.875 7.275 0.975
-25.875 7.125 2.325
-24.075 5.175 1.875
-24.075 5.175 1.125
-24.075 5.175 -0.075
-24.075 5.175 2.025
-24.075 5.175 1.575
-23.025 9.075 0.825
-23.025 9.075 1.875
-23.025 5.325 0.525
-23.025 5.325 1.275
-23.025 5.325 0.975
-23.025 5.325 0.825
-22.125 8.325 1.575
-22.125 8.325 -0.375
-25.875 6.975 1.575
-22.725 8.925 1.425
-24.675 9.075 -0.825
-22.725 5.475 2.475
-24.675 5.325 3.225
-23.475 9.225 1.125
-23.475 9.225 1.725
-23.475 9.225 -0.975
-23.475 5.175 0.825
-23.475 5.175 0.525
-23.475 5.175 1.275
-23.475 5.175 2.175
-23.475 5.175 2.025
-24.225 9.225 1.875
-24.225 5.175 0.825
-24.225 5.175 2.475
-24.225 5.175 1.875
-24.225 5.175 1.275
-24.975 8.925 1.125
-24.975 5.475 1.275
-24.975 5.475 2.475
-21.825 7.725 1.875
-21.825 6.675 5.475
-23.325 9.225 1.125
-23.325 5.175 1.725
-23.325 5.175 0.675
-23.325 5.175 0.975
-23.325 5.175 3.075
-23.325 5.175 2.475
-23.325 5.175 1.125
-24.375 9.225 0.825
-24.375 5.175 0.525
-24.375 5.175 1.875
-21.975 8.175 1.125
-21.975 8.175 0.975
-21.975 8.175 1.575
-25.875 7.725 1.575
-25.875 6.675 -1.725
-22.875 9.075 0.825
-22.875 9.075 -0.075
-22.875 9.075 1.275
-22.875 5.325 1.425
-22.275 8.625 1.725
-22.275 8.625 -0.075
-22.275 8.625 0.525
-22.275 8.625 1.575
-22.425 8.775 1.575
-22.425 5.625 1.575
-24.825 5.325 2.325
-21.825 7.875 1.725
-25.725 8.175 2.025
-25.275 8.775 1.725
-23.175 5.175 0.675
-23.175 5.175 0.975
-23.175 5.175 2.175
-23.175 5.175 1.125
-23.175 5.175 1.425
-23.175 5.175 3.225
-25.425 8.625 1.725
-25.425 5.775 1.125
-25.425 5.775 1.275
-25.425 5.775 1.425
-25.425 5.775 3.075
-22.125 8.475 0.975
-22.125 8.475 1.125
-22.125 8.475 -0.375
-22.575 8.925 1.425
-22.575 8.925 0.675
-22.575 5.475 1.875
-24.525 5.175 1.125
-24.525 5.175 -0.375
-25.875 7.875 -3.075
-25.875 7.875 1.725
-25.875 7.875 -3.675
-25.125 5.475 1.725
-25.575 8.475 1.725
-25.575 5.925 1.275
-25.575 5.925 0.825
-23.775 9.375 0.825
-23.775 9.375 1.575
-23.775 9.375 1.425
-23.775 9.375 1.125
-23.775 9.375 0.525
-21.825 8.025 1.425
-21.975 8.325 3.075
-21.975 8.325 0.675
-21.975 8.325 0.975
-23.925 9.375 0.825
-23.925 9.375 1.575
-23.925 9.375 0.375
-23.925 9.375 0.525
-23.925 9.375 1.125
-23.775 5.025 1.575
-23.775 5.025 1.125
-23.775 5.025 1.425
-22.725 9.075 0.675
-23.025 9.225 0.675
-23.025 9.225 1.875
-23.025 9.225 1.275
-23.025 9.225 0.075
-23.025 9.225 1.725
-22.725 5.325 3.075
-23.025 5.175 1.425
-23.025 5.175 0.975
-23.025 5.175 0.075
-23.025 5.175 0.525
-23.025 5.175 1.275
-23.625 9.375 -0.225
-23.625 9.375 -0.525
-23.625 9.375 1.125
-23.625 5.025 2.175
-23.625 5.025 2.475
-24.075 9.375 1.125
-24.075 9.375 1.425
-24.075 9.375 1.575
-26.025 7.275 -0.225
-24.075 5.025 0.825
-24.075 5.025 0.975
-24.075 5.025 0.675
-24.075 5.025 0.225
-24.075 5.025 -0.075
-24.975 9.075 1.575
-24.675 5.175 -0.825
-24.675 5.175 2.625
-25.725 8.325 2.025
-25.725 8.325 1.275
-26.025 6.975 -4.125
-23.475 5.025 1.725
-24.225 9.375 1.125
-24.225 9.375 0.975
-24.225 5.025 -0.825
-24.225 5.025 2.625
-26.025 7.575 3.075
-26.025 6.825 1.575
-21.675 7.725 2.325
-22.125 8.625 1.725
-22.125 8.625 0.975
-22.125 8.625 1.875
-22.125 5.775 1.425
-22.425 5.475 0.975
-23.325 9.375 1.725
-23.325 5.025 1.275
-23.325 5.025 0.825
-23.325 5.025 0.975
-21.825 8.175 1.275
-21.825 8.175 0.975
-21.825 8.175 2.175
-21.825 8.175 1.425
-25.425 5.625 1.275
-25.425 5.625 0.825
-25.425 5.625 2.025
-25.425 5.625 1.425
-22.875 9.225 1.125
-22.875 9.225 0.375
-24.375 5.025 -0.525
-22.875 5.175 -1.875
-22.875 5.175 0.975
-25.275 5.475 0.825
-25.275 5.475 2.475
-25.575 8.625 5.475
-25.575 5.775 1.425
-25.575 5.775 1.125
-25.575 5.775 0.975
-26.025 6.675 2.025
-26.025 6.675 2.475
-24.825 9.225 0.975
-24.825 9.225 1.725
-24.825 9.225 2.475
-24.825 5.175 2.175
-24.825 5.175 2.325
-21.975 8.475 0.975
-25.875 6.225 2.025
-25.875 6.225 2.175
-25.875 6.225 2.775
-25.875 6.225 2.325
-22.575 9.075 0.525
-22.575 9.075 2.175
-22.575 5.325 2.025
-22.575 5.325 1.575
-23.175 9.375 1.425
-23.175 9.375 1.875
-23.175 9.375 2.025
-23.175 9.375 1.725
-25.125 9.075 -3.675
-23.175 5.025 0.225
-23.175 5.025 0.975
-23.175 5.025 0.675
-25.125 5.325 1.875
-25.125 5.325 0.825
-24.525 9.375 1.725
-24.525 5.025 2.475
-24.525 5.025 -0.525
-24.525 5.025 -0.375
-21.825 8.325 1.275
-21.825 8.325 2.025
-21.825 8.325 1.425
-21.825 8.325 0.525
-21.825 8.325 0.675
-21.825 6.075 -1.425
-22.725 9.225 1.575
-22.725 9.225 0.675
-22.725 5.175 2.175
-21.525 7.275 2.025
-23.025 9.375 2.025
-23.025 9.375 1.125
-23.025 9.375 0.675
-23.025 5.025 1.125
-23.025 5.025 1.875
-24.975 5.175 2.325
-21.525 7.425 2.025
-23.775 9.525 1.725
-23.775 9.525 0.525
-23.775 9.525 0.975
-23.775 9.525 1.125
-23.925 9.525 0.825
-23.775 4.875 1.575
-23.775 4.875 1.425
-25.875 6.075 2.025
-25.875 6.075 2.175
-23.925 4.875 0.075
-23.925 4.875 0.525
-23.925 4.875 2.175
-23.925 4.875 1.425
-23.925 4.875 -0.375
-23.625 9.525 2.175
-23.625 9.525 0.375
-23.625 4.875 0.975
-23.625 4.875 0.675
-24.075 9.525 0.675
-24.075 4.875 0.825
-24.075 4.875 0.675
-26.175 7.125 1.725
-26.175 7.125 2.025
-21.525 7.575 2.175
-21.975 8.625 1.575
-25.425 5.475 1.425
-25.425 5.475 1.725
-25.425 5.475 1.875
-25.425 5.475 1.125
-25.575 5.625 1.125
-22.425 9.075 1.275
-26.175 6.975 1.875
-23.475 4.875 1.425
-24.225 9.525 5.625
-24.225 4.875 -0.075
-24.225 4.875 1.125
-24.225 4.875 0.825
-24.225 4.875 1.275
-24.225 4.875 2.025
-25.275 5.325 2.925
-25.275 5.325 1.575
-25.725 8.625 -4.725
-25.725 5.775 1.875
-21.525 7.725 2.175
-21.525 7.725 0.375
-22.875 9.375 1.875
-22.875 9.375 1.575
-22.875 9.375 0.675
-21.825 8.475 0.075
-21.825 8.475 1.575
-21.825 8.475 0.825
-24.375 4.875 0.075
-24.375 4.875 1.275
-24.375 4.875 0.825
-24.375 4.875 0.525
-22.575 5.175 3.075
-24.825 9.375 0.975
-25.125 5.175 2.025
-25.875 5.925 2.025
-23.175 9.525 -0.075
-23.175 4.875 1.125
-23.175 4.875 0.525
-23.175 4.875 0.825
-23.175 4.875 1.275
-24.525 9.525 1.725
-22.125 8.925 0.975
-22.125 8.925 1.875
-22.125 8.925 2.325
-22.125 8.925 0.825
-26.175 6.525 2.175
-26.175 6.525 2.025
-21.675 8.325 1.275
-21.675 8.325 2.325
-21.675 8.325 2.025
-21.975 8.775 1.575
-21.975 8.775 0.975
-22.725 9.375 1.275
-22.725 9.375 0.825
-25.575 5.475 2.775
-25.575 5.475 -5.175
-25.575 5.475 1.275
-25.575 5.475 0.975
-24.975 5.025 2.325
-25.425 9.075 0.975
-25.425 5.325 1.125
-25.425 5.325 1.875
-26.025 6.075 2.175
-23.025 9.525 -0.375
-23.025 9.525 1.875
-23.025 9.525 0.075
-23.025 9.525 1.275
-21.375 7.125 -0.825
-23.025 4.875 0.975
-21.825 8.625 1.275
-21.825 8.625 0.975
-21.825 8.625 0.825
-22.425 9.225 -0.975
-22.425 9.225 -1.425
-22.425 9.225 0.675
-22.425 9.225 2.175
-24.675 4.875 3.675
-21.375 6.975 0.525
-23.775 9.675 1.425
-23.775 9.675 1.575
-23.775 9.675 0.675
-23.775 9.675 0.525
-23.775 9.675 -1.275
-23.925 9.675 1.125
-23.925 9.675 0.675
-23.925 9.675 1.275
-23.775 4.725 1.425
-23.775 4.725 1.575
-23.925 4.725 1.425
-26.175 6.375 2.025
-26.175 6.375 1.875
-23.625 9.675 0.675
-23.625 9.675 1.425
-23.625 9.675 2.175
-23.625 9.675 1.125
-25.275 5.175 0.825
-24.075 9.675 0.975
-23.625 4.725 1.875
-25.875 5.775 2.025
-24.075 4.725 1.575
-26.325 7.125 2.475
-26.325 6.975 2.175
-23.475 9.675 1.725
-23.475 4.725 0.525
-23.475 4.725 0.975
-24.225 9.675 0.975
-24.225 4.725 1.275
-24.225 4.725 1.125
-24.225 4.725 0.825
-21.675 8.475 2.025
-21.675 8.475 1.725
-21.675 5.925 -1.425
-22.575 9.375 1.725
-22.575 9.375 0.675
-22.575 9.375 1.875
-22.875 9.525 1.725
-22.875 9.525 0.375
-22.575 5.025 1.275
-22.875 4.875 1.575
-23.325 4.725 0.675
-23.325 4.725 0.975
-23.325 4.725 0.375
-24.375 9.675 0.375
-26.025 5.925 6.975
-26.175 6.225 1.875
-24.375 4.725 1.275
-24.375 4.725 -2.175
-24.375 4.725 2.475
-24.375 4.725 0.375
-24.375 4.725 0.825
-21.975 8.925 1.125
-22.125 9.075 0.975
-22.125 9.075 1.425
-22.125 5.325 1.725
-26.325 6.675 2.325
-21.825 8.775 0.975
-21.825 8.775 2.025
-21.825 8.775 1.425
-25.575 5.325 1.725
-25.575 5.325 1.125
-22.275 9.225 1.725
-22.275 9.225 1.575
-25.725 5.475 1.425
-25.725 5.475 1.275
-25.725 5.475 1.125
-23.175 9.675 0.225
-23.175 9.675 0.825
-23.175 4.725 1.275
-23.175 4.725 0.375
-23.175 4.725 0.525
-24.525 4.725 1.875
-24.525 4.725 2.025
-24.525 4.725 0.825
-25.425 5.175 1.725
-25.875 5.625 1.575
-22.725 9.525 1.125
-22.725 9.525 -0.375
-22.725 9.525 1.425
-22.725 4.875 1.425
-22.725 4.875 -0.825
-24.975 9.525 1.875
-24.975 4.875 2.325
-21.675 8.625 1.575
-21.675 8.625 0.225
-21.675 8.625 0.675
-22.425 9.375 2.175
-26.175 6.075 1.875
-21.375 6.375 1.575
-23.025 9.675 0.675
-23.025 9.675 1.425
-23.025 9.675 1.725
-23.025 9.675 0.375
-23.025 4.725 1.725
-25.275 5.025 5.175
-24.675 9.675 1.725
-24.675 9.675 1.575
-24.675 9.675 2.925
-24.675 4.725 1.875
-26.325 6.375 2.775
-26.325 6.375 1.725
-23.775 9.825 1.425
-23.775 9.825 0.825
-23.775 9.825 -0.075
-23.775 9.825 1.275
-23.925 9.825 0.975
-23.925 9.825 1.425
-23.775 4.575 5.625
-23.775 4.575 1.875
-23.775 4.575 0.675
-23.775 4.575 1.575
-23.925 4.575 2.475
-23.925 4.575 -0.225
-23.925 4.575 1.875
-23.925 4.575 1.125
-23.925 4.575 1.575
-23.925 4.575 0.525
-23.925 4.575 1.425
-23.625 9.825 1.425
-23.625 9.825 0.975
-24.075 9.825 0.675
-23.625 4.575 0.975
-23.625 4.575 0.825
-23.625 4.575 1.125
-24.075 4.575 0.675
-24.075 4.575 0.825
-26.475 7.275 3.375
-26.475 7.125 2.325
-21.225 7.575 -1.725
-21.525 8.475 0.375
-21.975 9.075 1.575
-21.975 9.075 1.275
-21.975 9.075 0.975
-21.975 9.075 0.675
-21.975 9.075 1.125
-21.975 9.075 -0.825
-22.575 9.525 0.675
-26.475 6.975 2.175
-23.475 9.825 1.275
-21.825 8.925 1.425
-21.825 8.925 0.975
-23.475 4.575 1.275
-23.475 4.575 0.975
-23.475 4.575 1.125
-24.225 4.575 1.125
-24.225 4.575 0.825
-22.875 9.675 0.225
-22.875 9.675 1.725
-22.875 9.675 0.075
-22.875 9.675 -6.075
-22.875 9.675 1.425
-25.125 9.525 1.725
-22.875 4.725 2.625
-25.725 5.325 1.125
-25.725 5.325 1.425
-24.825 9.675 2.025
-21.225 7.725 1.275
-24.825 4.725 1.125
-25.575 5.175 1.275
-25.575 5.175 1.125
-25.575 5.175 1.425
-25.575 5.175 2.025
-25.575 5.175 1.875
-25.875 5.475 1.875
-26.325 6.225 2.625
-26.325 6.225 1.425
-26.325 6.225 1.725
-23.325 9.825 2.025
-23.325 9.825 -2.775
-23.325 9.825 2.175
-21.675 8.775 0.975
-21.675 8.775 0.675
-21.675 8.775 1.275
-23.325 4.575 1.575
-23.325 4.575 0.825
-22.275 9.375 0.675
-22.275 9.375 0.525
-24.375 9.825 0.975
-24.375 4.575 0.825
-24.375 4.575 1.275
-24.375 4.575 1.425
-24.375 4.575 2.625
-24.375 4.575 1.725
-26.475 7.725 0.375
-26.475 7.725 5.175
-26.025 5.625 1.725
-26.025 5.625 1.875
-26.025 5.625 2.025
-23.175 9.825 0.675
-23.175 9.825 1.725
-23.175 9.825 2.025
-23.175 4.575 0.675
-23.175 4.575 0.975
-23.175 4.575 1.275
-23.175 4.575 0.375
-22.725 9.675 1.725
-22.725 9.675 0.675
-22.725 9.675 1.575
-22.725 9.675 0.525
-22.725 9.675 0.825
-24.525 4.575 2.175
-24.525 4.575 0.525
-22.425 9.525 1.575
-22.425 9.525 -0.075
-26.475 7.875 2.625
-26.475 6.525 -0.975
-26.475 6.525 1.875
-24.975 4.725 -0.825
-24.975 4.725 2.025
-26.325 6.075 2.625
-25.275 4.875 -0.975
-25.275 4.875 2.175
-23.025 9.825 -0.225
-21.825 9.075 1.125
-21.825 9.075 -0.375
-21.825 9.075 1.425
-21.975 9.225 1.125
-24.675 9.825 1.425
-24.675 4.575 3.375
-26.475 6.375 3.075
-21.675 8.925 1.125
-21.675 8.925 1.275
-22.125 9.375 0.225
-25.725 5.175 0.525
-25.725 5.175 0.825
-25.875 5.325 0.825
-21.375 8.475 0.375
-23.925 9.975 0.525
-23.925 9.975 0.975
-23.925 9.975 1.125
-23.925 9.975 0.375
-23.775 4.425 -3.075
-22.575 9.675 1.275
-22.575 9.675 0.825
-22.575 9.675 -0.525
-22.575 9.675 0.675
-23.925 4.425 1.875
-23.925 4.425 1.575
-23.925 4.425 2.475
-23.925 4.425 1.725
-23.925 4.425 0.525
-23.625 9.975 0.975
-25.575 9.375 3.225
-24.075 9.975 1.725
-23.625 4.425 0.825
-23.625 4.425 2.325
-23.625 4.425 0.975
-23.625 4.425 1.875
-23.625 4.425 2.925
-25.575 5.025 0.525
-25.575 5.025 1.425
-24.075 4.425 0.225
-24.075 4.425 0.825
-24.075 4.425 1.425
-26.025 5.475 1.725
-25.125 9.675 1.275
-25.125 4.725 0.225
-22.875 9.825 -0.225
-22.875 9.825 0.225
-22.875 9.825 1.875
-22.875 9.825 -0.525
-26.625 6.975 3.375
-22.875 4.575 1.725
-22.875 4.575 -0.825
-23.475 9.975 1.425
-23.475 9.975 1.275
-21.525 8.775 0.525
-21.525 5.625 -0.075
-23.475 4.425 1.275
-23.475 4.425 0.975
-23.475 4.425 1.125
-23.475 4.425 2.475
-22.275 9.525 1.425
-22.275 9.525 0.675
-22.275 9.525 0.825
-22.275 9.525 1.575
-22.275 9.525 0.525
-24.225 4.425 0.975
-24.225 4.425 0.825
-24.825 4.575 2.175
-25.425 4.875 1.725
-23.325 9.975 1.425
-23.325 9.975 1.275
-23.325 9.975 2.175
-23.325 4.425 1.125
-23.325 4.425 0.525
-23.325 4.425 0.675
-24.375 9.975 0.825
-24.375 4.425 1.725
-24.375 4.425 -0.375
-24.375 4.425 0.825
-26.625 7.725 -1.875
-22.425 9.675 0.825
-22.425 9.675 1.125
-22.425 9.675 -0.225
-22.425 9.675 0.675
-22.725 9.825 1.575
-22.725 9.825 -0.375
-23.175 9.975 2.475
-23.175 4.425 0.375
-23.175 4.425 0.225
-21.825 9.225 1.425
-21.825 9.225 1.275
-24.525 9.975 0.975
-24.975 9.825 3.825
-24.975 9.825 1.875
-24.525 4.425 -0.525
-24.525 4.425 2.175
-24.525 4.425 0.975
-21.675 9.075 2.175
-21.675 9.075 0.975
-21.675 9.075 1.875
-21.675 9.075 1.275
-24.975 4.575 1.425
-24.975 4.575 2.175
-21.975 9.375 1.425
-21.975 9.375 4.125
-25.275 4.725 1.125
-21.675 5.325 1.275
-26.325 5.775 1.875
-25.875 5.175 1.125
-25.725 9.375 3.675
-25.725 5.025 2.025
-25.725 5.025 1.575
-26.025 5.325 -0.525
-21.525 8.925 -0.975
-21.525 8.925 0.975
-22.125 9.525 0.375
-23.025 9.975 2.175
-24.675 9.975 1.425
-24.675 9.975 1.275
-25.575 4.875 1.125
-25.575 4.875 0.975
-25.575 4.875 0.825
-26.175 5.475 1.725
-21.225 8.475 0.975
-22.575 9.825 0.375
-22.575 9.825 1.125
-22.575 9.825 0.675
-22.575 4.575 1.275
-21.375 8.775 0.675
-21.375 5.625 -2.625
-25.125 4.575 2.925
-23.925 10.125 1.425
-22.275 9.675 0.525
-22.275 9.675 1.425
-23.775 4.275 1.275
-23.775 4.275 1.725
-23.775 4.275 2.025
-23.775 4.275 2.325
-22.275 4.725 0.825
-26.475 5.925 1.425
-26.475 5.925 1.575
-23.625 10.125 1.425
-23.625 10.125 1.125
-24.075 10.125 0.525
-23.625 4.275 0.825
-23.625 4.275 2.175
-23.625 4.275 2.775
-24.075 4.275 1.725
-24.075 4.275 1.425
-24.075 4.275 0.975
-24.075 4.275 0.525
-22.875 9.975 -2.175
-22.875 9.975 0.075
-22.875 9.975 2.625
-26.775 7.275 1.575
-25.425 4.725 1.725
-25.425 4.725 -0.225
-24.825 9.975 0.825
-26.325 5.625 1.725
-26.775 6.975 3.525
-23.475 10.125 -0.225
-23.475 10.125 1.425
-23.475 10.125 0.525
-23.475 10.125 1.275
-23.475 4.275 1.275
-23.475 4.275 0.975
-23.475 4.275 2.175
-23.475 4.275 0.525
-23.475 4.275 4.725
-23.475 4.275 0.825
-24.225 10.125 0.825
-24.225 4.275 1.575
-24.225 4.275 0.825
-26.625 6.225 0.375
-21.675 9.225 1.875
-21.825 9.375 2.025
-23.325 10.125 -0.225
-23.325 10.125 3.075
-23.325 10.125 -0.975
-23.325 4.275 0.675
-23.325 4.275 1.125
-24.375 4.275 1.125
-21.225 8.625 1.875
-21.525 9.075 0.975
-21.525 9.075 0.825
-21.525 9.075 1.275
-21.975 9.525 1.425
-21.975 9.525 2.175
-22.425 9.825 -0.675
-22.425 9.825 0.675
-25.875 5.025 1.275
-22.425 4.575 -2.775
-22.725 4.425 0.525
-25.275 4.575 -1.425
-25.275 4.575 3.075
-25.275 4.575 0.675
-25.275 4.575 2.775
-25.275 4.575 1.575
-25.275 4.575 -0.225
-25.725 4.875 0.975
-25.725 4.875 1.725
-25.725 4.875 2.325
-26.175 5.325 2.025
-24.975 9.975 2.175
-26.475 5.775 1.575
-26.475 5.775 1.875
-23.175 4.275 1.275
-24.525 10.125 0.825
-24.525 4.275 0.225
-24.525 4.275 2.025
-24.525 4.275 0.975
-21.375 8.925 0.525
-21.375 8.925 1.875
-21.375 5.475 0.825
-22.125 9.675 -2.325
-22.125 4.725 1.725
-25.575 4.725 1.725
-25.575 4.725 2.025
-26.325 5.475 1.425
-23.025 4.275 2.775
-24.675 10.125 1.875
-24.675 4.275 0.825
-24.675 4.275 0.525
-22.575 9.975 -0.675
-22.575 9.975 0.675
-22.575 9.975 0.225
-22.575 4.425 1.875
-21.225 8.775 0.825
-22.275 9.825 0.675
-22.275 9.825 1.425
-25.125 9.975 2.025
-25.125 9.975 1.575
-25.125 4.425 2.925
-26.625 5.925 1.875
-26.625 5.925 2.025
-26.625 5.925 1.725
-21.675 9.375 0.975
-21.675 9.375 1.125
-21.675 9.375 1.725
-21.675 9.375 1.275
-25.425 4.575 2.625
-25.425 4.575 1.725
-26.475 5.625 1.725
-21.525 9.225 0.675
-21.525 9.225 0.975
-21.525 9.225 1.425
-21.525 9.225 1.725
-21.525 9.225 1.875
-21.825 9.525 0.975
-21.825 9.525 1.875
-21.825 9.525 0.525
-23.775 10.275 2.325
-23.925 10.275 1.275
-23.775 4.125 0.075
-23.775 4.125 1.725
-23.775 4.125 2.025
-23.925 4.125 2.025
-23.925 4.125 0.375
-23.925 4.125 1.725
-22.875 10.125 0.975
-22.875 10.125 -2.025
-23.625 10.275 0.975
-23.625 10.275 1.575
-24.075 10.275 2.025
-23.625 4.125 1.875
-23.625 4.125 2.175
-23.625 4.125 0.825
-24.075 4.125 0.825
-24.825 10.125 1.875
-25.875 4.875 1.725
-26.175 5.175 1.875
-21.375 9.075 2.175
-21.375 9.075 0.375
-21.375 9.075 -0.225
-23.475 10.275 0.825
-23.475 10.275 1.275
-26.925 7.425 1.575
-21.975 9.675 1.425
-23.475 4.125 3.375
-23.475 4.125 0.825
-23.475 4.125 0.675
-23.475 4.125 0.975
-23.475 4.125 2.025
-23.475 4.125 -0.075
-23.475 4.125 0.375
-24.225 4.125 0.675
-24.225 4.125 0.525
-21.075 8.625 -0.225
-22.425 9.975 1.275
-22.425 9.975 -0.525
-22.425 9.975 0.825
-25.725 4.725 0.375
-25.725 4.725 1.275
-26.325 5.325 2.025
-26.325 5.325 1.725
-23.325 10.275 1.275
-23.325 10.275 1.125
-23.325 4.125 0.375
-23.325 4.125 1.275
-23.325 4.125 1.125
-23.325 4.125 -0.225
-23.325 4.125 0.825
-24.375 4.125 1.875
-24.375 4.125 -0.225
-24.375 4.125 1.275
-24.375 4.125 1.125
-24.375 4.125 1.425
-25.275 4.425 -1.425
-22.725 10.125 0.075
-21.225 8.925 1.275
-21.225 8.925 -1.425
-21.225 8.925 0.525
-21.225 8.925 0.825
-26.625 5.775 1.725
-26.625 5.775 -0.225
-22.125 9.825 -0.225
-24.975 10.125 1.575
-24.975 10.125 1.725
-24.975 4.275 1.875
-24.975 4.275 -0.675
-23.175 10.275 -0.825
-23.175 4.125 1.125
-25.575 4.575 1.425
-25.575 4.575 1.725
-25.575 4.575 0.525
-25.575 4.575 1.875
-25.575 4.575 2.325
-24.525 10.275 2.025
-26.475 5.475 3.075
-26.475 5.475 1.725
-24.525 4.125 0.075
-24.525 4.125 1.875
-24.525 4.125 0.825
-21.525 9.375 0.975
-21.525 9.375 1.125
-21.525 9.375 1.575
-21.525 9.375 1.425
-21.675 9.525 1.275
-21.675 9.525 1.725
-21.675 9.525 1.875
-21.675 9.525 1.575
-21.675 9.525 3.075
-21.675 9.525 1.425
-21.675 4.875 2.025
-20.925 8.475 -2.475
-23.025 10.275 0.525
-23.025 10.275 -2.175
-22.275 9.975 1.425
-22.275 9.975 0.675
-22.575 10.125 0.375
-22.275 4.425 2.925
-21.375 9.225 1.575
-21.375 9.225 2.175
-21.375 9.225 1.425
-24.675 4.125 0.975
-24.675 4.125 1.275
-24.675 4.125 1.425
-24.675 4.125 1.875
-21.825 9.675 1.425
-21.825 9.675 2.325
-26.025 4.875 1.725
-26.175 5.025 1.575
-25.125 4.275 0.375
-25.425 4.425 1.725
-26.625 5.625 1.125
-26.625 5.625 1.725
-26.625 5.625 1.275
-25.875 4.725 1.575
-25.875 4.725 -0.075
-25.875 4.725 1.725
-20.775 6.225 1.725
-21.225 9.075 0.825
-21.225 9.075 1.125
-21.225 9.075 1.575
-21.225 9.075 0.375
-21.975 9.825 1.425
-21.975 9.825 0.375
-21.975 4.575 0.525
-22.875 10.275 2.625
-23.775 3.975 0.975
-23.775 3.975 1.575
-23.775 3.975 1.875
-24.825 4.125 3.075
-24.825 4.125 0.825
-24.825 4.125 1.875
-23.625 10.425 1.875
-23.625 10.425 0.525
-23.625 10.425 1.125
-23.625 10.425 0.825
-24.075 10.425 1.875
-23.625 3.975 2.175
-23.625 3.975 1.125
-23.625 3.975 0.975
-25.725 4.575 2.325
-25.725 4.575 2.025
-25.725 4.575 1.725
-26.475 5.325 2.025
-26.925 6.225 2.475
-20.925 8.625 -1.425
-23.475 10.425 2.025
-23.475 10.425 0.975
-23.475 10.425 1.125
-23.475 10.425 1.425
-23.475 3.975 1.275
-23.475 3.975 0.825
-23.475 3.975 0.075
-22.425 10.125 0.675
-22.425 10.125 1.125
-24.225 3.975 0.675
-23.325 10.425 0.825
-23.325 10.425 1.575
-23.325 10.425 1.425
-23.325 3.975 1.575
-23.325 3.975 -0.225
-23.325 3.975 0.825
-22.725 10.275 0.975
-22.725 10.275 2.625
-24.375 3.975 1.725
-24.375 3.975 1.425
-24.375 3.975 1.125
-24.375 3.975 0.525
-25.575 4.425 2.025
-25.575 4.425 1.575
-26.625 5.475 1.275
-21.525 9.525 1.575
-21.525 9.525 1.275
-21.525 9.525 -1.725
-21.525 9.525 0.525
-21.525 9.525 0.675
-21.525 9.525 1.125
-21.525 9.525 1.425
-24.975 4.125 1.275
-21.525 4.875 2.025
-21.525 4.875 2.175
-21.375 9.375 2.325
-21.675 9.675 1.125
-21.675 4.725 4.125
-21.675 4.725 -1.875
-23.175 10.425 1.275
-23.175 10.425 1.125
-24.525 10.425 2.175
-24.525 3.975 0.825
-24.525 3.975 1.725
-24.525 3.975 1.275
-26.025 4.725 1.725
-26.325 5.025 1.125
-26.325 5.025 1.875
-21.225 9.225 1.275
-21.225 9.225 0.825
-21.225 9.225 -0.225
-21.825 9.825 1.575
-21.825 4.575 1.425
-20.925 8.775 0.975
-22.275 10.125 1.875
-22.275 10.125 0.675
-22.575 10.275 0.675
-22.575 10.275 0.975
-22.575 10.275 -0.675
-25.875 4.575 -1.575
-25.875 4.575 1.575
-25.875 4.575 1.125
-25.875 4.575 0.075
-23.025 10.425 0.525
-24.675 3.975 0.075
-24.675 3.975 1.575
-25.125 4.125 2.625
-21.075 9.075 1.425
-21.975 9.975 -1.575
-25.725 4.425 2.325
-25.725 4.425 0.525
-25.725 4.425 1.875
-25.725 4.425 1.725
-20.625 8.175 4.125
-26.625 5.325 0.525
-26.625 5.325 1.575
-26.625 5.325 0.975
-22.875 10.425 3.825
-24.825 3.975 -0.975
-24.825 3.975 0.825
-24.825 3.975 0.525
-24.825 3.975 1.275
-23.775 10.575 1.575
-23.925 10.575 1.575
-23.775 3.825 0.675
-23.775 3.825 1.125
-23.925 3.825 1.275
-23.925 3.825 0.675
-23.925 3.825 0.825
-23.925 3.825 2.175
-20.775 8.625 1.125
-23.625 10.575 1.125
-23.625 10.575 2.625
-23.625 3.825 1.125
