# .PCD v0.7 - Point Cloud Data file format
VERSION 0.7
FIELDS x y z
SIZE 4 4 4
TYPE F F F
COUNT 1 1 1
WIDTH 2048
HEIGHT 1
VIEWPOINT 0 0 0 1 0 0 0
POINTS 2048
DATA ascii
-5.925 69.225 0.375
-5.625 69.225 0.225
-5.775 69.075 -0.075
-6.375 69.375 1.125
-6.225 69.225 0.525
-5.625 69.075 0.375
-6.525 69.525 0.975
-6.075 69.075 0.225
-6.225 69.075 1.425
-6.525 69.375 0.825
-5.925 68.925 0.675
-6.675 69.525 2.025
-5.475 68.925 0.225
-5.475 68.925 0.075
-6.525 69.225 0.225
-6.675 69.375 0.075
-6.675 69.375 0.825
-5.925 68.775 0.675
-6.375 68.925 0.225
-5.175 68.925 -0.075
-5.175 68.925 0.525
-6.225 68.775 0.375
-5.325 68.775 0.075
-6.825 69.375 2.025
-5.025 68.925 0.225
-6.525 68.925 1.275
-5.775 68.625 1.425
-5.775 68.625 0.525
-6.375 68.775 0.675
-6.375 68.775 1.425
-5.925 68.625 1.125
-6.675 68.925 1.275
-6.675 68.925 0.375
-4.875 68.925 0.375
-4.575 69.375 -0.975
-4.425 69.825 1.125
-5.775 68.475 0.225
-5.775 68.475 1.275
-5.925 68.475 0.975
-5.625 68.475 0.825
-6.075 68.475 0.375
-6.225 68.475 0.525
-5.325 68.475 0.825
-5.175 68.475 0.525
-4.725 68.775 0.675
-4.725 68.775 0.375
-5.925 68.325 0.975
-6.975 68.775 1.275
-4.725 68.625 0.825
-4.425 68.925 0.525
-4.875 68.475 0.825
-5.775 68.175 1.125
-5.925 68.175 0.825
-6.525 68.325 0.525
-4.725 68.475 0.975
-4.275 68.925 0.525
-5.625 68.025 1.425
-5.625 68.025 1.275
-4.425 68.625 0.675
-7.425 69.075 0.825
-5.025 68.175 0.975
-5.475 68.025 1.425
-7.275 68.775 1.425
-7.275 68.775 0.975
-7.575 69.375 -0.225
-7.425 68.925 1.275
-4.125 68.925 -0.225
-6.675 68.175 0.225
-5.775 67.875 0.975
-5.625 67.875 0.825
-6.825 68.175 0.675
-4.425 68.325 1.125
-4.125 68.625 0.825
-6.375 67.875 0.225
-5.625 67.725 0.825
-5.625 67.725 1.425
-7.875 70.125 0.075
-4.275 68.325 1.125
-4.425 68.175 0.825
-3.825 68.925 2.025
-5.175 67.725 1.275
-7.725 68.775 0.975
-3.825 68.775 0.825
-4.725 67.875 1.125
-5.775 67.575 1.425
-5.925 67.575 0.825
-5.625 67.575 1.275
-8.025 69.525 0.675
-3.825 68.625 1.125
-3.825 68.625 1.425
-8.025 69.375 1.275
-6.375 67.575 1.275
-3.525 69.225 0.675
-4.275 68.025 0.825
-4.275 68.025 2.475
-7.875 68.775 1.725
-4.725 67.725 0.975
-7.125 67.875 1.575
-7.725 68.475 1.425
-5.475 67.425 0.825
-6.975 67.725 1.125
-6.225 67.425 1.125
-5.325 67.425 0.975
-6.375 67.425 1.275
-5.175 67.425 0.975
-4.725 67.575 1.425
-3.975 68.025 0.975
-5.775 67.275 1.125
-5.775 67.275 0.825
-5.775 67.275 1.275
-8.325 69.825 0.675
-5.925 67.275 1.125
-5.625 67.275 1.275
-5.625 67.275 0.975
-4.125 67.875 0.675
-6.075 67.275 0.975
-8.325 69.525 0.375
-3.675 68.325 1.575
-4.275 67.725 0.825
-6.375 67.275 1.425
-6.375 67.275 1.125
-4.425 67.575 1.125
-3.525 68.475 1.575
-3.525 68.475 1.725
-3.825 68.025 0.225
-3.975 67.875 0.975
-3.675 68.175 1.425
-8.175 68.625 1.575
-4.875 67.275 1.125
-8.475 69.975 0.525
-8.475 69.675 -0.075
-4.275 67.575 1.125
-4.275 67.575 0.975
-6.225 67.125 1.275
-3.225 68.775 1.125
-6.375 67.125 1.425
-5.025 67.125 1.125
-6.525 67.125 1.425
-6.975 67.275 1.575
-8.175 68.325 1.575
-8.625 69.975 0.375
-3.825 67.725 0.975
-6.075 66.975 1.275
-4.425 67.275 -5.325
-8.325 68.475 1.425
-3.225 68.475 0.975
-8.625 70.425 -3.375
-3.375 68.175 2.025
-6.375 66.975 -2.625
-6.375 66.975 1.275
-6.375 66.975 1.125
-3.825 67.575 0.675
-8.625 68.925 0.975
-5.925 66.825 -1.275
-4.425 67.125 -0.375
-4.725 66.975 -0.375
-4.725 66.975 1.575
-8.775 70.425 2.625
-4.575 66.975 -0.525
-6.675 66.825 1.425
-4.875 66.825 -1.875
-8.925 69.675 0.375
-2.925 68.475 1.575
-2.925 68.475 0.525
-2.925 68.475 0.825
-4.425 66.975 -0.225
-4.125 67.125 0.975
-6.075 66.675 1.425
-8.925 69.225 0.825
-3.825 67.275 0.675
-3.225 67.875 0.675
-2.925 68.325 1.725
-6.975 66.825 -0.225
-4.575 66.825 1.575
-2.775 68.625 0.675
-4.875 66.675 1.575
-4.875 66.675 -2.025
-4.425 66.825 -0.375
-4.425 66.825 -0.225
-5.625 66.525 -1.725
-8.325 67.725 0.675
-3.225 67.725 0.675
-5.475 66.525 -2.025
-9.075 70.125 -0.225
-9.075 69.525 1.875
-9.075 69.375 -0.075
-9.075 69.375 0.825
-8.475 67.875 0.375
-9.075 69.225 0.825
-8.625 68.025 1.425
-3.975 66.975 0.525
-5.025 66.525 1.425
-9.075 69.075 -0.075
-6.675 66.525 1.125
-6.675 66.525 1.275
-3.075 67.725 0.675
-2.775 68.175 1.875
-2.625 68.475 0.225
-8.625 67.875 1.425
-3.825 66.975 0.825
-3.825 66.975 1.275
-9.225 69.525 0.825
-9.225 69.525 2.475
-9.225 69.375 1.275
-9.225 69.375 0.675
-9.225 69.375 0.975
-4.275 66.675 0.525
-4.275 66.675 0.075
-9.225 69.225 0.375
-9.225 69.225 0.075
-4.575 66.525 1.125
-9.225 69.075 2.325
-3.675 66.975 -4.275
-4.425 66.525 0.975
-4.425 66.525 0.075
-4.425 66.525 1.275
-6.675 66.375 0.975
-3.825 66.825 0.525
-3.825 66.825 -4.125
-8.775 67.875 1.875
-2.775 67.875 -0.525
-6.825 66.375 0.825
-2.475 68.325 0.375
-3.975 66.675 -0.375
-6.225 66.225 1.725
-8.625 67.575 1.875
-2.925 67.575 1.125
-3.675 66.825 -0.375
-4.125 66.525 -0.225
-4.425 66.375 0.975
-4.425 66.375 3.225
-2.325 68.475 0.525
-3.825 66.675 -0.225
-3.825 66.675 0.675
-2.925 67.425 1.125
-9.525 69.975 0.075
-7.575 66.525 1.125
-9.075 68.025 1.575
-9.525 69.375 0.225
-7.725 66.525 0.825
-3.825 66.525 0.975
-3.825 66.525 -0.225
-3.825 66.525 -0.525
-4.425 66.225 0.975
-3.525 66.675 -0.375
-7.575 66.375 -0.375
-3.975 66.375 0.975
-6.825 66.075 1.275
-9.675 69.975 0.525
-5.925 65.925 1.425
-8.175 66.675 1.275
-4.125 66.225 0.975
-9.675 69.075 1.125
-4.425 66.075 0.825
-2.475 67.575 0.975
-6.675 65.925 1.725
-9.375 68.025 1.125
-7.575 66.225 -0.075
-3.975 66.225 -0.675
-3.075 66.825 0.075
-3.675 66.375 -0.075
-5.925 65.775 1.725
-9.825 69.975 0.225
-5.475 65.775 0.825
-9.825 70.125 0.075
-3.375 66.525 -0.675
-3.375 66.525 -0.825
-9.075 67.425 4.125
-6.975 65.925 0.975
-5.175 65.775 0.675
-9.375 67.875 1.275
-7.425 66.075 0.975
-4.125 66.075 0.975
-4.125 66.075 0.675
-2.025 68.175 1.125
-9.675 68.475 0.375
-4.425 65.925 0.975
-4.425 65.925 -2.625
-8.625 66.825 -1.725
-6.675 65.775 2.025
-7.575 66.075 -0.225
-8.325 66.525 1.275
-9.975 69.975 -3.525
-3.375 66.375 -0.675
-2.325 67.425 0.975
-1.875 68.175 -0.075
-7.425 65.925 -1.875
-4.125 65.925 1.125
-4.125 65.925 0.975
-2.175 67.575 0.825
-1.725 68.475 0.525
-1.725 68.475 -0.525
-7.875 66.075 0.975
-3.675 66.075 0.975
-4.275 65.775 0.825
-1.725 68.325 -0.525
-2.925 66.525 0.525
-2.925 66.525 -1.125
-3.825 65.925 1.875
-7.425 65.775 -1.575
-7.425 65.775 -1.725
-10.125 69.375 -0.075
-3.525 66.075 0.825
-9.825 68.175 0.975
-8.475 66.375 -1.275
-3.075 66.375 0.075
-9.975 71.175 -4.575
-2.175 67.275 1.125
-8.325 66.225 -0.675
-3.225 66.225 -0.825
-3.975 65.775 1.275
-10.125 68.925 0.975
-8.175 66.075 -0.075
-2.625 66.675 -0.975
-4.275 65.625 0.825
-10.125 68.775 1.275
-2.925 66.375 -0.975
-3.075 66.225 0.075
-3.075 66.225 0.825
-10.125 68.625 1.275
-8.325 66.075 -0.525
-10.275 69.225 0.675
-7.125 65.475 0.225
-4.425 65.475 0.075
-3.975 65.625 1.125
-8.775 66.375 -1.125
-10.275 68.925 0.975
-10.275 68.925 0.375
-9.375 66.975 0.975
-2.175 66.975 1.125
-2.925 66.225 -0.825
-3.075 66.075 0.375
-2.025 67.125 1.125
-1.575 67.875 0.525
-3.825 65.625 1.275
-1.725 67.575 1.125
-10.425 69.825 1.275
-1.425 68.175 0.075
-10.275 68.625 1.425
-10.425 70.125 -1.125
-6.075 65.175 -0.675
-6.075 65.175 -0.375
-6.075 65.175 -1.125
-5.175 65.175 -0.675
-3.675 65.625 1.425
-9.975 67.725 1.125
-4.425 65.325 1.425
-1.275 68.475 0.675
-1.425 68.025 -0.075
-1.425 68.025 0.525
-1.425 68.025 0.375
-7.575 65.475 0.975
-10.425 69.075 0.075
-2.925 66.075 0.675
-2.925 66.075 -1.425
-1.275 68.325 0.525
-8.475 65.925 -1.425
-3.525 65.625 -2.925
-10.425 68.775 0.975
-1.425 67.875 0.675
-6.825 65.175 2.925
-6.825 65.175 0.675
-2.475 66.375 0.825
-3.225 65.775 1.125
-7.425 65.325 -0.225
-1.275 68.175 0.675
-5.925 65.025 -0.225
-9.525 66.825 0.675
-2.775 66.075 -0.075
-6.075 65.025 -0.375
-6.075 65.025 0.225
-6.225 65.025 -0.375
-6.225 65.025 0.075
-10.575 70.275 -2.925
-10.125 67.725 0.975
-1.425 67.725 1.725
-1.425 67.725 0.375
-8.625 65.925 0.975
-2.925 65.925 -1.425
-9.675 66.975 0.525
-9.675 66.975 -4.725
-7.875 65.475 1.275
-7.875 65.475 0.975
-3.675 65.475 1.125
-3.675 65.475 0.975
-10.575 69.225 -0.825
-1.575 67.425 1.125
-7.125 65.175 0.225
-7.125 65.175 -0.225
-1.275 68.025 0.225
-1.275 68.025 1.425
-3.975 65.325 -1.275
-5.025 65.025 -0.675
-6.525 65.025 0.075
-10.575 69.075 0.525
-8.475 65.775 -1.725
-3.075 65.775 0.825
-9.225 66.375 -1.425
-2.175 66.525 -1.275
-10.575 68.925 0.675
-9.075 66.225 -0.375
-10.425 68.325 1.125
-7.275 65.175 -0.525
-7.275 65.175 0.075
-8.025 65.475 -0.375
-8.025 65.475 -1.275
-4.725 65.025 -1.125
-4.725 65.025 -1.725
-1.575 67.275 1.125
-8.325 65.625 -0.225
-9.675 66.825 2.325
-9.675 66.825 0.525
-7.425 65.175 -0.075
-6.975 65.025 -0.225
-8.625 65.775 -1.575
-10.725 69.675 -0.225
-7.875 65.325 -1.575
-10.275 67.725 -0.525
-1.275 67.725 0.525
-1.275 67.725 0.075
-6.225 64.875 -0.375
-5.325 64.875 0.075
-10.725 69.225 2.025
-10.575 68.475 0.975
-9.375 66.375 -1.425
-6.375 64.875 0.375
-7.575 65.175 -0.225
-7.575 65.175 0.225
-7.575 65.175 0.375
-7.575 65.175 -0.525
-3.975 65.175 -0.375
-9.225 66.225 0.075
-9.225 66.225 -0.675
-8.475 65.625 -0.525
-8.475 65.625 0.225
-8.475 65.625 -0.225
-9.075 66.075 -0.225
-2.475 66.075 -0.225
-10.725 69.075 0.675
-10.725 69.075 0.525
-5.025 64.875 -0.375
-5.025 64.875 0.225
-5.025 64.875 0.075
-1.875 66.675 -1.575
-9.675 66.675 -1.425
-2.625 65.925 1.575
-2.625 65.925 2.025
-7.275 65.025 -0.225
-10.275 67.575 0.675
-10.725 68.925 0.375
-10.725 68.925 0.825
-10.725 68.925 -0.525
-6.675 64.875 0.225
-4.875 64.875 -0.375
-8.775 65.775 -1.575
-7.725 65.175 0.375
-8.325 65.475 -0.225
-10.575 68.175 -1.875
-1.575 66.975 1.725
-2.175 66.225 0.675
-10.725 68.625 0.975
-9.225 66.075 -0.375
-9.225 66.075 0.225
-8.175 65.325 -1.275
-10.275 67.425 -1.575
-3.675 65.175 -1.275
-9.675 66.525 -0.375
-10.875 69.525 -0.075
-2.475 65.925 -0.975
-6.075 64.725 -1.125
-10.125 67.125 1.125
-8.475 65.475 -0.225
-7.575 65.025 -0.225
-9.825 66.675 -0.675
-10.875 69.225 -0.075
-10.875 69.225 0.225
-10.875 69.225 1.725
-5.175 64.725 -0.375
-6.375 64.725 -0.375
-5.175 64.725 -1.725
-5.175 64.725 0.375
-10.875 69.075 0.225
-5.025 64.725 -0.375
-1.575 66.825 -3.375
-8.025 65.175 -1.575
-3.525 65.175 1.125
-4.275 64.875 -1.575
-10.875 68.925 -0.525
-10.875 68.925 0.375
-6.675 64.725 -1.125
-4.875 64.725 -0.375
-7.725 65.025 -0.225
-3.825 65.025 2.925
-0.975 67.875 1.125
-0.975 67.875 1.275
-9.375 66.075 -0.375
-9.375 66.075 0.525
-1.425 66.975 1.575
-8.625 65.475 -0.375
-10.875 68.775 0.975
-9.675 66.375 -0.375
-7.425 64.875 -0.225
-9.825 66.525 0.075
-9.825 66.525 -5.175
-9.825 66.525 -0.375
-9.825 66.525 0.225
-2.475 65.775 -0.825
-10.425 67.425 0.675
-7.875 65.025 0.525
-0.975 67.725 0.825
-8.475 65.325 2.025
-1.275 67.125 1.425
-5.775 64.575 -1.725
-9.975 66.675 -0.375
-6.075 64.575 0.825
-5.475 64.575 -0.525
-11.025 69.525 0.225
-10.725 68.025 -0.225
-0.825 68.025 0.825
-0.825 68.025 1.575
-3.975 64.875 1.425
-5.325 64.575 -0.375
-11.025 69.375 0.225
-11.025 69.375 0.375
-11.025 69.375 0.075
-10.875 68.475 0.825
-10.125 66.825 -0.525
-10.125 66.825 -0.675
-10.125 66.825 -0.075
-5.175 64.575 -0.375
-11.025 69.225 -0.075
-11.025 69.225 0.075
-8.775 65.475 -0.375
-3.525 65.025 1.125
-10.575 67.575 0.375
-10.575 67.575 0.825
-10.425 67.275 -3.225
-6.525 64.575 -0.525
-6.525 64.575 0.525
-6.525 64.575 -0.375
-9.525 66.075 0.375
-9.525 66.075 0.525
-11.025 69.075 0.225
-9.525 66.075 -0.375
-8.325 65.175 -1.275
-9.675 66.225 0.075
-7.275 64.725 0.675
-4.275 64.725 -0.525
-10.725 67.875 0.075
-7.725 64.875 1.275
-6.675 64.575 -0.675
-4.875 64.575 -1.125
-11.025 68.925 -0.075
-9.975 66.525 -0.375
-9.075 65.625 -0.825
-11.025 68.775 0.525
-10.875 68.175 0.825
-0.675 68.175 0.225
-4.125 64.725 -0.675
-4.125 64.725 -0.375
-0.975 67.425 0.975
-10.125 66.675 0.075
-2.625 65.475 0.975
-2.625 65.475 1.125
-7.875 64.875 -0.225
-0.825 67.725 0.675
-0.825 67.725 0.375
-4.575 64.575 -0.525
-11.025 68.625 0.675
-10.875 68.025 -0.225
-9.525 65.925 -0.375
-11.175 69.375 0.375
-5.325 64.425 -0.825
-1.725 66.225 1.125
-4.425 64.575 0.075
-4.425 64.575 -0.525
-4.425 64.575 0.225
-3.225 65.025 0.975
-0.975 67.275 1.425
-0.975 67.275 0.975
-9.975 66.375 -0.375
-9.225 65.625 1.575
-10.725 67.575 0.525
-10.725 67.575 0.225
-3.525 64.875 1.125
-11.175 69.075 0.675
-10.425 66.975 -0.525
-10.425 66.975 1.125
-10.125 66.525 0.225
-7.275 64.575 -0.375
-7.275 64.575 -0.225
-4.275 64.575 -0.525
-4.275 64.575 -0.075
-4.275 64.575 -1.875
-10.875 67.875 0.225
-10.875 67.875 -0.225
-9.075 65.475 1.425
-2.475 65.475 1.425
-7.725 64.725 0.675
-7.725 64.725 -1.125
-11.175 68.925 2.325
-6.675 64.425 0.375
-2.625 65.325 1.275
-10.275 66.675 -0.525
-10.725 67.425 -1.575
-10.725 67.425 0.525
-10.725 67.425 -1.425
-10.725 67.425 1.425
-10.725 67.425 -1.125
-3.375 64.875 -1.125
-4.725 64.425 -0.525
-7.425 64.575 4.425
-7.425 64.575 0.225
-4.125 64.575 -0.375
-11.025 68.175 -0.075
-11.025 68.175 0.675
-3.075 65.025 0.975
-10.875 67.725 0.225
-10.875 67.725 -0.375
-10.875 67.725 0.075
-1.875 65.925 1.575
-9.675 65.925 -0.825
-9.675 65.925 -0.525
-7.875 64.725 -0.225
-7.875 64.725 0.825
-9.525 65.775 -0.675
-10.425 66.825 -0.375
-10.425 66.825 1.875
-10.425 66.825 -0.525
-2.775 65.175 1.125
-5.775 64.275 -0.525
-11.025 68.025 0.075
-11.025 68.025 -0.225
-11.025 68.025 0.225
-7.575 64.575 -0.075
-5.625 64.275 -0.525
-10.125 66.375 1.275
-10.125 66.375 -0.375
-9.225 65.475 -0.975
-2.325 65.475 1.275
-6.075 64.275 -0.525
-11.325 69.525 -1.875
-11.175 68.475 -0.525
-8.325 64.875 -0.975
-8.325 64.875 -0.525
-10.275 66.525 2.025
-2.475 65.325 1.425
-6.375 64.275 -0.225
-8.625 65.025 -0.825
-10.575 66.975 -0.975
-10.575 66.975 -0.675
-6.525 64.275 -0.375
-11.025 67.875 -0.075
-11.025 67.875 -0.225
-11.175 68.325 0.675
-7.275 64.425 0.975
-7.275 64.425 -0.075
-7.275 64.425 -0.375
-10.425 66.675 -0.525
-2.625 65.175 1.425
-2.625 65.175 1.575
-6.675 64.275 -0.075
-6.675 64.275 -0.225
-6.675 64.275 -1.575
-9.675 65.775 4.725
-10.875 67.425 0.225
-10.875 67.425 -2.475
-3.375 64.725 1.275
-10.725 67.125 0.225
-10.725 67.125 0.375
-11.175 68.175 0.075
-11.175 68.175 0.525
-11.175 68.175 -0.075
-7.425 64.425 0.225
-10.125 66.225 -1.275
-7.425 64.425 -0.375
-6.825 64.275 0.375
-7.875 64.575 -1.125
-7.875 64.575 0.975
-3.675 64.575 -2.175
-3.675 64.575 -0.825
-10.575 66.825 0.075
-10.575 66.825 1.575
-10.575 66.825 2.325
-10.575 66.825 -0.075
-10.575 66.825 -0.525
-10.575 66.825 0.375
-9.225 65.325 -0.075
-10.275 66.375 -0.375
-11.325 68.625 -0.225
-11.175 68.025 2.475
-11.175 68.025 -0.225
-11.175 68.025 -0.075
-3.975 64.425 -0.525
-5.775 64.125 -0.675
-5.775 64.125 -0.525
-10.875 67.275 -1.575
-10.875 67.275 0.075
-10.425 66.525 -0.525
-10.875 67.275 0.825
-5.925 64.125 -0.975
-5.925 64.125 -0.525
-5.625 64.125 -0.525
-5.475 64.125 -0.225
-4.425 64.275 -0.675
-7.125 64.275 -0.075
-7.125 64.275 0.225
-6.225 64.125 0.075
-5.325 64.125 -0.375
-6.225 64.125 -0.525
-9.825 65.775 0.975
-9.825 65.775 -0.375
-9.825 65.775 -1.125
-5.175 64.125 -0.675
-5.175 64.125 -0.375
-8.925 65.025 0.975
-11.175 67.875 -2.925
-11.175 67.875 0.075
-0.375 67.875 0.975
-10.575 66.675 0.375
-10.575 66.675 1.275
-10.575 66.675 1.425
-7.725 64.425 0.075
-7.725 64.425 0.375
-7.725 64.425 0.225
-3.825 64.425 0.075
-3.825 64.425 -0.525
-7.275 64.275 -0.375
-7.275 64.275 0.225
-7.275 64.275 0.675
-11.325 68.325 0.075
-11.325 68.325 -0.075
-11.475 69.075 0.225
-11.475 69.075 0.825
-6.525 64.125 -0.075
-11.475 68.925 -0.225
-10.875 67.125 -1.575
-4.875 64.125 -0.675
-6.675 64.125 0.075
-6.675 64.125 -0.075
-6.675 64.125 0.225
-3.375 64.575 1.125
-11.025 67.425 0.675
-11.025 67.425 0.225
-10.725 66.825 0.675
-10.725 66.825 0.525
-2.775 64.875 1.125
-2.775 64.875 0.975
-7.425 64.275 -0.225
-7.425 64.275 0.375
-7.425 64.275 0.225
-7.425 64.275 0.975
-11.325 68.175 0.075
-11.325 68.175 -1.425
-11.325 68.175 -1.125
-10.425 66.375 -0.375
-9.225 65.175 1.125
-9.225 65.175 -0.375
-11.175 67.725 0.825
-7.875 64.425 -0.225
-7.875 64.425 0.075
-3.675 64.425 -0.075
-3.675 64.425 -0.525
-11.475 68.775 -0.075
-11.475 68.775 2.625
-6.825 64.125 0.075
-6.825 64.125 -0.225
-9.075 65.025 1.725
-9.075 65.025 0.975
-10.575 66.525 0.225
-6.975 64.125 -0.225
-4.575 64.125 -0.675
-3.975 64.275 -0.525
-1.575 65.775 0.975
-1.575 65.775 1.125
-11.325 68.025 0.225
-11.325 68.025 -0.075
-9.975 65.775 -0.375
-1.725 65.625 0.975
-0.525 67.275 1.725
-11.025 67.275 0.675
-10.125 65.925 0.675
-1.425 65.925 0.975
-8.625 64.725 -2.175
-8.625 64.725 0.975
-8.625 64.725 1.125
-11.175 67.575 -1.125
-0.375 67.575 1.425
-5.775 63.975 -0.525
-5.775 63.975 -0.075
-5.775 63.975 0.225
-3.525 64.425 -0.525
-11.625 69.675 0.975
-5.625 63.975 0.075
-5.625 63.975 -0.375
-5.625 63.975 0.225
-5.925 63.975 -0.375
-10.275 66.075 -0.075
-11.475 68.475 0.825
-6.075 63.975 -0.075
-11.475 68.475 -0.525
-6.075 63.975 0.075
-11.475 68.475 -0.225
-7.125 64.125 0.225
-7.125 64.125 -0.375
-7.125 64.125 -0.225
-5.325 63.975 0.825
-6.225 63.975 -0.075
-6.225 63.975 0.225
-10.725 66.675 0.975
-10.725 66.675 -0.525
-2.625 64.875 1.125
-11.625 69.225 0.525
-11.625 69.225 -1.725
-11.625 69.225 0.225
-5.175 63.975 -0.225
-6.375 63.975 -0.075
-2.175 65.175 1.425
-2.175 65.175 1.575
-10.425 66.225 -0.525
-3.825 64.275 0.075
-11.325 67.875 0.075
-0.225 67.875 0.675
-11.475 68.325 0.075
-11.475 68.325 -0.075
-7.275 64.125 0.075
-7.275 64.125 0.375
-6.525 63.975 0.375
-5.025 63.975 -0.225
-0.525 67.125 1.875
-11.025 67.125 -0.525
-11.175 67.425 0.675
-11.175 67.425 0.075
-0.375 67.425 0.825
-3.375 64.425 0.825
-8.175 64.425 0.375
-2.325 65.025 0.675
-10.875 66.825 1.275
-10.875 66.825 0.975
-4.875 63.975 -0.225
-3.675 64.275 -0.375
-7.875 64.275 0.075
-7.875 64.275 0.225
-11.475 68.175 -0.075
-11.475 68.175 0.225
-0.075 68.175 0.225
-4.125 64.125 -0.525
-6.825 63.975 0.225
-6.825 63.975 0.675
-9.075 64.875 1.275
-2.475 64.875 0.975
-11.175 67.275 0.975
-6.975 63.975 0.525
-6.975 63.975 0.075
-3.225 64.425 -1.275
-2.925 64.575 -1.275
-10.425 66.075 -0.075
-9.525 65.175 1.275
-2.025 65.175 1.275
-11.475 68.025 -0.075
-11.325 67.575 4.575
-10.875 66.675 -1.575
-2.175 65.025 0.825
-2.175 65.025 0.975
-10.575 66.225 -0.225
-10.575 66.225 1.425
-10.575 66.225 1.725
-10.575 66.225 -0.375
-11.775 69.675 0.525
-5.925 63.825 0.225
-5.625 63.825 0.375
-4.425 63.975 -0.225
-7.125 63.975 1.875
-11.625 68.475 -0.075
-5.475 63.825 -0.075
-5.475 63.825 -0.225
-6.075 63.825 0.975
-6.225 63.825 1.275
-5.325 63.825 -0.225
-11.775 69.375 0.825
-11.475 67.875 -0.525
-7.725 64.125 0.075
-6.375 63.825 0.375
-5.175 63.825 -0.075
-5.175 63.825 -0.225
-6.375 63.825 -1.125
-10.725 66.375 1.275
-10.725 66.375 0.375
-11.175 67.125 0.825
-11.175 67.125 -6.075
-3.075 64.425 -1.275
-3.075 64.425 -1.125
-3.075 64.425 -0.975
-8.475 64.425 0.525
-11.625 68.325 0.075
-11.625 68.325 1.425
-4.275 63.975 -0.525
-11.025 66.825 0.225
-5.025 63.825 -0.225
-8.775 64.575 1.125
-11.325 67.425 -0.225
-11.325 67.425 0.675
-11.325 67.425 0.825
-10.125 65.625 1.125
-0.225 67.425 1.575
-0.225 67.425 1.275
-1.275 65.775 2.025
-6.675 63.825 -0.675
-10.875 66.525 -0.225
-10.875 66.525 0.375
-7.875 64.125 -0.075
-7.875 64.125 0.075
-7.875 64.125 0.225
-3.675 64.125 -0.975
-3.675 64.125 0.075
-11.475 67.725 0.825
-11.475 67.725 -1.875
-7.425 63.975 -0.075
-11.625 68.175 0.075
-4.125 63.975 -0.375
-4.125 63.975 -0.525
-9.525 65.025 0.825
-9.525 65.025 1.125
-2.025 65.025 0.825
-10.575 66.075 -0.075
-10.575 66.075 -0.375
-4.725 63.825 0.225
-8.625 64.425 -0.675
-8.325 64.275 -0.225
-8.325 64.275 0.225
-11.325 67.275 -0.825
-3.225 64.275 0.825
-3.225 64.275 0.225
-4.575 63.825 0.075
-7.575 63.975 -0.075
-3.975 63.975 -0.525
-9.375 64.875 0.675
-9.375 64.875 0.975
-9.375 64.875 0.375
-10.725 66.225 -0.075
-10.725 66.225 -0.225
-11.025 66.675 -1.875
-11.475 67.575 4.275
-11.475 67.575 0.825
-8.025 64.125 -0.075
-4.425 63.825 0.075
-7.125 63.825 -0.075
-11.775 68.475 0.075
-5.775 63.675 0.075
-5.925 63.675 0.075
-5.625 63.675 0.225
-5.625 63.675 -0.075
-5.925 63.675 0.225
-9.975 65.325 0.825
-11.925 69.525 -0.375
-10.875 66.375 1.425
-10.875 66.375 -0.075
-2.325 64.725 1.275
-1.125 65.775 1.425
-1.125 65.775 0.975
-11.625 67.875 0.975
-1.725 65.175 1.125
-1.725 65.175 0.975
-5.325 63.675 0.075
-8.475 64.275 0.825
-3.075 64.275 1.425
-3.075 64.275 -1.125
-11.325 67.125 -0.525
-11.325 67.125 -0.825
-0.225 67.125 0.975
-8.775 64.425 0.975
-11.925 69.225 0.375
-5.175 63.675 0.075
-9.675 65.025 0.525
-11.775 68.325 0.075
-7.275 63.825 -0.075
-11.775 68.325 -0.075
-0.075 67.425 0.525
-10.575 65.925 0.825
-8.175 64.125 0.225
-11.925 69.075 0.975
-5.025 63.675 -0.075
-5.025 63.675 0.825
-2.475 64.575 -1.725
-10.725 66.075 -0.375
-2.025 64.875 1.275
-2.025 64.875 1.425
-11.925 68.925 -0.075
-7.875 63.975 -0.075
-7.425 63.825 -0.225
-4.125 63.825 -0.525
-4.125 63.825 -0.225
-11.775 68.175 0.075
-8.625 64.275 0.825
-11.325 66.975 -0.525
-4.725 63.675 0.225
-8.325 64.125 0.075
-8.325 64.125 0.525
-8.325 64.125 0.825
-3.225 64.125 1.725
-8.925 64.425 0.675
-8.925 64.425 -1.575
-2.625 64.425 0.075
-2.625 64.425 -1.575
-3.975 63.825 -0.525
-11.925 68.625 -0.975
-11.925 68.625 2.325
-11.925 68.625 0.075
-10.425 65.625 -0.225
-8.025 63.975 -0.075
-8.025 63.975 0.075
-9.825 65.025 0.675
-10.575 65.775 0.975
-1.725 65.025 0.825
-11.025 66.375 -0.075
-11.925 68.475 0.075
-11.925 68.475 -0.225
-12.075 69.825 -0.975
-9.675 64.875 1.125
-10.725 65.925 0.075
-5.925 63.525 0.525
-12.075 69.525 0.975
-12.075 69.525 -5.175
-11.475 67.125 -0.075
-11.475 67.125 -0.225
-8.475 64.125 0.825
-8.475 64.125 0.075
-3.075 64.125 0.825
-3.075 64.125 0.075
-5.475 63.525 0.075
-6.075 63.525 -0.225
-8.775 64.275 -0.225
-8.775 64.275 0.825
-2.775 64.275 -1.575
-5.325 63.525 0.075
-6.225 63.525 0.825
-8.175 63.975 0.675
-8.175 63.975 -0.075
-11.625 67.425 -4.875
0.075 67.425 1.125
0.075 67.425 0.825
-12.075 70.425 0.375
-11.175 66.525 -0.375
-11.175 66.525 -0.675
-9.075 64.425 -1.875
-10.875 66.075 -0.375
-11.925 68.325 0.525
-11.925 68.325 -0.075
-4.275 63.675 0.225
-4.275 63.675 1.275
-9.525 64.725 0.375
-2.025 64.725 1.275
-12.075 69.075 -1.875
-11.775 67.725 1.575
-12.075 68.925 0.825
-2.175 64.575 1.125
-10.125 65.175 4.875
-1.125 65.475 1.125
-8.625 64.125 0.975
-8.625 64.125 0.825
-8.625 64.125 0.375
-2.925 64.125 0.675
-2.925 64.125 1.125
-11.475 66.975 -1.275
-11.475 66.975 -0.675
-9.975 65.025 0.975
-1.575 65.025 1.425
-10.575 65.625 -0.225
-8.925 64.275 0.825
-11.625 67.275 -0.525
-8.325 63.975 0.225
-8.325 63.975 0.975
-3.225 63.975 -0.525
-3.225 63.975 5.175
-12.075 68.775 -0.525
-4.725 63.525 0.375
-11.925 68.025 -4.425
-11.775 67.575 0.675
-9.225 64.425 0.525
-9.225 64.425 0.825
-3.975 63.675 -0.225
-3.975 63.675 -0.975
-10.875 65.925 -0.075
-1.875 64.725 1.275
-9.675 64.725 0.675
-9.675 64.725 0.525
-9.675 64.725 0.225
-1.875 64.725 0.975
-12.075 68.475 -0.075
-12.075 68.475 -3.075
-12.075 68.475 0.075
-8.475 63.975 0.525
-8.475 63.975 0.075
-3.075 63.975 -0.525
-12.225 69.675 0.825
-12.225 69.975 0.375
-12.225 69.975 0.975
-5.625 63.375 0.525
-3.825 63.675 -0.375
-9.075 64.275 1.125
-9.075 64.275 0.225
-11.325 66.525 -0.675
-11.775 72.225 1.575
-8.175 63.825 0.075
-1.275 65.175 1.425
-1.275 65.175 0.825
-12.075 68.325 1.875
-12.075 68.325 -0.075
-12.225 69.225 0.525
-12.225 69.225 1.125
-10.575 65.475 1.125
-2.175 64.425 1.125
-10.725 65.625 1.125
-10.725 65.625 -0.225
-1.575 64.875 0.975
-9.975 64.875 0.675
-11.925 67.725 -5.475
-8.625 63.975 -0.225
-2.925 63.975 0.825
-2.925 63.975 -1.425
-2.925 63.975 1.125
-2.925 63.975 -1.275
-2.925 63.975 -0.525
-2.925 63.975 -1.575
-11.625 66.975 -1.275
-11.625 66.975 -0.675
-12.075 68.175 0.075
-12.225 68.925 0.675
-8.925 64.125 -0.375
-8.925 64.125 0.825
-2.625 64.125 -0.675
-1.725 64.725 0.975
-11.775 67.275 -0.525
-2.325 64.275 1.125
-12.225 68.775 -0.375
-1.875 64.575 1.125
-1.875 64.575 0.975
-9.675 64.575 0.675
-9.675 64.575 1.125
0.375 67.575 0.375
-3.525 63.675 -0.525
-3.975 63.525 0.075
-3.975 63.525 0.525
-3.975 63.525 -0.225
-12.225 68.625 0.075
-11.175 66.075 -0.225
-8.775 63.975 0.075
-2.775 63.975 0.075
-2.775 63.975 -0.525
-2.775 63.975 -0.075
-10.275 65.025 -2.925
-10.275 65.025 0.375
-10.575 65.325 1.125
-8.475 63.825 -0.225
-11.775 67.125 -0.525
-11.775 67.125 -0.075
-9.075 64.125 0.975
-12.225 68.475 0.375
-12.225 68.475 1.575
-10.125 64.875 0.375
-7.125 63.375 0.075
-5.625 63.225 0.675
-3.375 63.675 -0.525
-3.375 63.675 -0.375
-12.375 69.525 0.375
-12.375 69.525 0.225
-0.675 65.625 0.975
-1.575 64.725 1.725
-9.375 64.275 0.225
-12.375 70.275 0.525
-12.225 68.325 0.075
-12.375 70.425 0.525
-12.375 69.225 -0.075
-0.525 65.775 0.975
-9.825 64.575 0.225
-1.725 64.575 0.975
-3.675 63.525 0.225
-12.375 69.075 0.225
-2.925 63.825 0.825
0.225 66.975 1.575
-2.625 63.975 -0.375
-11.925 67.275 -0.825
-11.925 67.275 -0.525
-11.925 67.275 -0.075
-0.375 65.925 0.975
-9.225 64.125 -0.075
-9.225 64.125 0.825
-9.225 64.125 -0.825
-2.325 64.125 0.675
-10.425 65.025 0.075
-12.375 68.775 0.075
-12.375 68.775 0.525
-12.375 68.775 -2.775
-12.375 68.775 -0.225
-12.375 68.775 -0.075
-10.575 65.175 -0.075
-0.975 65.175 1.575
-10.275 64.875 0.225
-1.275 64.875 1.275
-1.275 64.875 1.125
-3.525 63.525 0.225
-12.225 68.025 0.825
-9.525 64.275 0.975
-10.875 65.475 -0.375
-2.775 63.825 -0.375
-11.775 66.825 -0.675
-12.375 68.625 -0.225
-12.375 68.625 0.225
-9.075 63.975 0.675
0.375 67.125 1.275
-11.925 67.125 -0.525
-11.925 67.125 0.075
-11.925 67.125 2.025
-1.575 64.575 1.725
-0.525 65.625 1.425
-12.375 68.475 0.225
-12.375 68.475 -2.325
-12.225 67.875 -4.125
-7.725 63.375 -1.275
-3.825 63.375 0.525
-2.175 64.125 0.975
-2.175 64.125 1.125
-11.475 66.225 0.075
-12.525 69.825 -4.575
-9.825 64.425 -1.575
-1.725 64.425 0.825
-12.525 69.675 -4.575
-12.525 69.525 0.525
-2.925 63.675 -1.275
-3.675 63.375 -1.575
-12.525 69.075 -0.225
-12.525 69.075 0.075
-11.625 66.375 0.075
-2.325 63.975 -1.875
-2.325 63.975 0.675
-10.725 65.175 0.675
-12.075 67.275 1.425
-10.875 65.325 0.675
-10.875 65.325 -5.775
-1.275 64.725 1.275
-12.525 68.925 -0.075
-12.525 68.925 0.075
-12.525 68.925 -0.225
-10.125 64.575 0.525
-1.425 64.575 1.725
-0.525 65.475 1.275
-2.025 64.125 1.125
-12.525 68.775 -0.075
-12.525 68.775 -0.375
0.675 67.575 0.225
-3.525 63.375 -0.525
-9.975 64.425 0.375
-11.925 66.825 -0.675
-2.475 63.825 0.075
-12.075 67.125 0.225
-12.075 67.125 -0.675
-3.075 63.525 1.275
-12.525 68.625 0.075
-12.525 68.625 0.225
-2.175 63.975 0.825
-11.625 66.225 -0.675
-9.825 64.275 0.375
-11.325 65.775 -1.875
-12.375 71.775 0.975
-12.375 67.875 0.975
-12.375 67.875 -1.575
0.825 67.875 1.125
0.825 67.875 0.525
-3.825 63.225 0.675
-3.375 63.375 0.225
-12.525 68.475 -4.125
-10.725 65.025 0.375
-10.725 65.025 0.225
-10.575 64.875 0.375
-10.575 64.875 0.075
-0.975 64.875 1.425
-12.675 69.825 0.225
-0.675 65.175 0.825
-10.425 64.725 0.375
-12.675 69.525 0.525
-11.475 65.925 -4.875
-0.525 65.325 0.675
-0.525 65.325 1.125
-0.525 65.325 1.275
-12.525 68.325 1.275
-1.275 64.575 1.275
-12.675 69.375 -0.225
-12.675 69.375 1.875
-12.075 66.975 1.275
-2.325 63.825 0.525
-2.325 63.825 1.575
-11.775 66.375 0.975
-12.375 67.725 0.825
-11.175 65.475 0.675
-12.225 67.275 -1.575
0.675 67.275 0.525
-3.225 63.375 -0.225
-12.675 69.075 -0.225
-12.675 69.075 -1.425
-2.025 63.975 0.375
-12.675 68.925 -0.675
-12.675 68.925 -0.075
-12.675 68.925 -0.375
-12.675 68.925 -1.275
-9.975 64.275 0.825
-9.975 64.275 0.075
-0.225 65.625 0.225
-12.375 67.575 0.525
-12.375 67.575 0.825
-3.525 63.225 -0.525
-3.525 63.225 -0.375
-2.775 63.525 -0.525
-2.775 63.525 -0.375
-12.675 70.875 5.475
-12.675 68.775 0.825
-12.675 68.775 0.225
-12.675 68.775 -0.225
-2.475 63.675 -1.425
-12.225 67.125 0.075
-1.725 64.125 -1.425
-1.725 64.125 1.425
-9.375 63.825 -0.675
-10.725 64.875 0.375
-0.825 64.875 0.975
-0.675 65.025 1.425
-10.575 64.725 0.375
-0.975 64.725 1.575
-1.125 64.575 0.825
-10.425 64.575 0.675
-0.525 65.175 1.275
-3.375 63.225 -0.375
-3.375 63.225 -0.225
0.825 67.425 1.575
-12.525 67.875 0.375
-12.525 67.875 0.675
-11.175 65.325 0.675
-1.275 64.425 1.275
-1.275 64.425 1.575
-9.675 63.975 0.075
-12.675 68.475 -1.725
-7.125 62.925 -0.075
-2.625 63.525 -0.375
-8.925 63.525 -1.725
-10.125 64.275 -0.675
-11.925 66.375 0.975
-12.225 66.975 -0.675
-9.225 63.675 -0.075
-7.275 62.925 -0.525
-3.675 63.075 0.225
-12.525 67.725 0.675
-12.825 69.225 0.225
-9.525 63.825 -0.525
-9.525 63.825 0.075
-9.975 64.125 0.525
-11.475 65.625 0.075
-11.475 65.625 -5.625
-1.575 64.125 4.275
-12.825 69.075 0.375
-12.825 68.925 -0.225
-12.825 68.925 0.375
-2.475 63.525 -1.575
-2.475 63.525 -0.375
-2.475 63.525 -1.125
-2.475 63.525 -1.275
-2.475 63.525 0.975
-12.225 66.825 0.975
-12.525 67.575 0.975
-12.525 67.575 -0.525
-9.825 63.975 0.525
-1.725 63.975 0.675
-1.725 63.975 -1.125
-0.375 65.175 1.425
-11.175 65.175 0.225
-2.175 63.675 -0.675
-2.175 63.675 -0.975
-2.175 63.675 0.975
-12.825 68.775 0.525
-12.375 67.125 -1.725
-8.475 63.225 0.975
-1.275 64.275 1.275
-10.275 64.275 0.675
-11.325 65.325 0.075
-12.825 68.625 0.525
-12.825 68.625 0.075
-12.825 68.625 -1.575
-3.375 63.075 -0.075
-12.525 67.425 -0.525
-12.675 67.875 -0.075
-10.125 64.125 1.425
-10.125 64.125 2.025
-11.475 65.475 0.675
-0.075 65.475 -0.075
-9.225 63.525 -1.125
-2.325 63.525 -0.375
-2.325 63.525 0.225
-2.325 63.525 1.425
-2.925 63.225 0.975
-2.925 63.225 1.275
-12.975 69.825 0.825
-12.975 69.975 0.675
-1.575 63.975 1.725
-1.575 63.975 0.825
-12.975 70.125 -4.425
-12.675 67.725 0.525
1.125 67.725 0.975
-3.675 62.925 -0.525
-0.675 64.725 1.275
-12.975 69.375 0.075
-3.225 63.075 -0.225
-11.775 65.775 -5.325
-10.425 64.275 0.975
-10.425 64.275 0.675
-10.425 64.275 0.825
-12.225 66.525 -3.375
-2.475 63.375 -1.425
-2.475 63.375 0.225
-12.375 66.825 -0.675
-2.775 63.225 0.975
-2.175 63.525 0.075
-2.175 63.525 -0.375
-12.675 67.575 -0.825
-12.675 67.575 -1.275
-3.525 62.925 0.375
-11.475 65.325 0.675
-0.075 65.325 0.075
0.975 67.125 0.375
-12.825 68.025 0.375
-12.975 70.875 0.675
-12.975 70.875 0.825
1.275 68.025 0.975
-1.875 63.675 0.975
-1.875 63.675 0.825
-12.975 68.625 1.125
-12.975 68.625 0.825
-12.675 67.425 -0.525
-12.675 67.425 -0.075
-12.675 67.425 0.075
-12.375 66.675 0.975
-2.325 63.375 0.375
-2.325 63.375 0.225
-1.575 63.825 0.375
-11.775 65.625 0.225
-2.025 63.525 -0.375
-0.225 65.025 1.275
-13.125 69.675 0.075
-12.975 68.325 -0.675
-4.275 62.625 -0.225
-13.125 70.125 -0.675
-12.675 67.275 -1.575
-10.425 64.125 1.125
-1.125 64.125 1.575
-3.675 62.775 0.975
-3.675 62.775 0.075
-3.675 62.775 0.825
-3.225 62.925 -0.075
-9.825 63.675 0.375
-1.725 63.675 0.975
-13.125 69.225 0.675
-11.625 65.325 0.525
-2.175 63.375 -0.375
-13.125 70.575 0.375
-3.525 62.775 0.075
-3.525 62.775 -0.075
-3.525 62.775 0.375
-3.075 62.925 0.675
-11.775 65.475 0.525
-12.975 68.025 0.525
-13.125 70.875 0.225
-0.675 64.425 1.425
-13.125 68.625 0.675
-12.825 67.425 1.875
-12.825 67.425 0.225
-12.825 67.425 -1.275
-2.325 63.225 0.075
-2.325 63.225 0.675
-2.325 63.225 -1.725
-2.325 63.225 -0.075
-11.925 65.625 0.525
-11.925 65.625 -0.525
-11.925 65.625 0.075
-1.575 63.675 2.175
-1.575 63.675 0.825
-11.475 65.025 1.125
-0.975 64.125 0.075
-12.975 67.875 0.975
-3.825 62.625 -0.075
-2.025 63.375 1.275
-2.025 63.375 0.525
-12.675 66.975 -1.275
-2.925 62.925 0.225
-1.725 63.525 0.975
-1.725 63.525 -0.225
-12.825 67.275 -0.525
-3.675 62.625 1.125
-3.675 62.625 0.975
-13.275 69.975 -0.225
-13.275 69.675 -0.375
-13.125 68.175 0.075
-13.125 68.175 -0.825
-11.925 65.475 0.525
-1.875 63.375 1.125
-1.875 63.375 0.825
1.425 67.575 0.525
-3.525 62.625 1.125
-3.525 62.625 0.225
-12.825 67.125 -0.375
-13.275 68.925 -0.375
-12.075 65.625 0.525
-12.975 67.425 0.075
-3.375 62.625 -0.075
-11.775 65.175 0.375
-13.125 67.875 -0.525
-3.825 62.475 1.125
-1.725 63.375 -1.125
-12.975 67.275 -0.525
-13.125 67.725 -0.375
-0.075 64.725 0.675
-2.175 63.075 0.075
-13.425 69.825 -0.225
-13.425 69.825 0.375
-13.425 69.675 -1.125
-13.425 69.525 0.075
-13.425 69.375 0.225
0.075 64.875 0.975
-1.875 63.225 0.975
-1.875 63.225 1.125
-13.425 69.225 -3.375
-4.125 62.325 1.275
-13.125 67.575 -1.125
-3.525 62.475 0.075
-12.975 67.125 0.975
-12.975 67.125 -0.525
-12.975 72.525 0.675
-3.075 62.625 -0.225
-3.075 62.625 0.225
-1.575 63.375 1.125
-11.925 65.175 0.525
-13.275 68.025 0.525
-13.275 68.025 0.675
-13.275 68.025 -0.675
-2.325 62.925 -0.375
-2.625 62.775 0.675
-2.625 62.775 0.525
-2.625 62.775 1.125
-13.125 67.425 1.575
-3.375 62.475 0.525
-3.375 62.475 0.975
-12.075 65.325 0.975
-12.075 65.325 0.525
-12.975 72.675 0.675
-12.375 65.775 0.225
-12.975 66.975 0.975
-3.825 62.325 0.825
-13.275 67.875 -0.525
-13.275 67.875 -1.125
-13.275 67.875 0.075
-13.275 67.875 -0.975
-13.275 67.875 0.675
-13.275 67.875 0.225
-13.275 67.875 -0.075
-13.275 71.775 1.125
-13.125 67.275 0.675
-3.225 62.475 -0.225
-3.225 62.475 0.225
-12.225 65.475 0.525
-2.175 62.925 -0.375
-2.475 62.775 0.525
-13.275 67.725 -0.525
-13.425 68.325 0.975
-12.525 65.925 1.275
-13.575 69.825 0.075
-2.775 62.625 1.125
-13.575 69.975 -0.375
-11.925 65.025 0.375
-13.575 69.525 -0.075
-13.575 69.525 0.225
-13.575 69.375 0.225
-1.575 63.225 -1.125
-1.575 63.225 0.975
-13.125 67.125 -0.675
-12.075 65.175 0.525
-12.075 65.175 1.125
-2.325 62.775 -0.975
-0.075 64.425 0.525
-12.975 66.675 1.125
-3.975 62.175 0.375
-12.525 65.775 0.375
-12.525 65.775 -0.375
-3.375 62.325 0.075
-3.375 62.325 1.125
-13.275 67.425 0.525
-13.275 67.425 0.225
-13.275 67.425 1.725
1.725 67.425 0.825
0.225 64.725 0.675
0.225 64.725 0.975
-2.925 62.475 0.975
-13.125 66.975 1.425
-13.575 68.625 -1.125
-11.925 64.875 -1.125
-1.425 63.225 1.275
-12.375 65.475 0.225
-13.275 67.275 -1.725
-3.225 62.325 0.225
-3.225 62.325 1.125
-12.675 65.925 -0.075
-1.875 62.925 0.075
-1.875 62.925 1.575
-13.425 67.725 0.375
-13.425 67.725 -0.525
-3.675 62.175 0.675
-3.675 62.175 0.975
-13.125 66.825 0.975
-13.125 72.825 0.825
-13.725 69.825 0.375
-13.725 69.675 0.225
-13.725 69.675 0.075
-13.725 69.675 0.675
-1.125 63.375 0.975
-1.125 63.375 1.125
-12.225 65.175 -0.225
-13.725 69.525 2.175
-13.725 69.525 0.375
-13.725 69.375 0.525
-13.725 70.425 0.525
-13.725 69.225 -0.375
-13.725 69.225 0.375
-13.425 72.075 0.675
1.875 67.575 1.125
-2.325 62.625 -1.125
-13.725 69.075 0.675
-2.025 62.775 -0.375
-2.025 62.775 1.575
-12.375 65.325 0.225
-0.675 63.675 0.075
-11.925 64.725 -2.175
-13.725 68.925 0.975
-13.725 68.925 0.375
-13.575 68.025 0.525
-13.575 68.025 -1.275
-13.575 68.025 -1.125
-12.075 64.875 -0.675
-3.375 62.175 -0.525
-3.375 62.175 0.375
-12.225 65.025 0.525
-12.225 65.025 -1.875
-13.575 67.875 0.075
-13.725 68.625 0.225
-13.125 73.125 1.125
-12.825 65.925 1.425
-1.875 62.775 0.375
-1.875 62.775 -0.375
-13.425 67.275 0.675
-13.425 67.275 0.375
-13.425 67.275 1.125
-13.425 72.375 -0.225
-13.275 66.825 0.975
-13.575 67.725 -0.525
-3.675 62.025 1.875
0.375 64.575 0.375
-13.725 68.325 0.675
-13.725 71.325 -0.075
-13.875 69.825 -0.075
-13.875 69.825 0.825
-13.875 69.375 0.525
-1.275 63.075 -1.425
-1.275 63.075 0.525
-13.875 70.275 -0.225
-13.725 68.175 -6.375
-13.725 68.175 0.375
-1.725 62.775 -0.375
-1.725 62.775 1.425
-1.725 62.775 1.725
-1.725 62.775 0.075
-13.875 69.075 0.675
-13.875 70.575 0.375
-13.725 68.025 -1.125
-1.425 62.925 1.425
-1.425 62.925 -1.875
-12.675 65.475 -0.225
-12.675 65.475 0.975
-12.375 65.025 -5.175
-12.375 65.025 -0.225
-13.575 67.425 0.675
-3.375 62.025 0.975
-3.375 62.025 0.675
-13.425 66.975 0.825
-2.925 62.175 2.475
0.225 64.275 0.825
0.375 64.425 0.825
0.375 64.425 0.375
-13.725 67.875 -0.225
-13.875 68.625 0.375
-1.875 62.625 1.575
-13.275 66.525 1.575
-2.475 62.325 0.825
-1.125 63.075 -1.725
-12.525 65.175 -0.825
-13.575 67.275 0.975
-1.575 62.775 1.125
-1.575 62.775 -0.675
-3.225 62.025 0.525
-3.225 62.025 0.225
-13.875 68.475 -0.375
-12.225 64.725 -0.525
-12.675 65.325 -0.225
-14.025 69.825 0.075
-13.125 73.575 0.225
-14.025 69.675 -0.075
-14.025 69.675 0.075
-14.025 69.675 -0.825
-14.025 69.675 0.975
-2.025 62.475 1.575
-2.325 62.325 0.825
-2.325 62.325 -1.875
-14.025 69.525 0.675
-14.025 69.525 0.075
-1.725 62.625 0.225
-1.725 62.625 0.825
-1.725 62.625 -0.375
-1.725 62.625 0.975
-13.725 67.575 -0.525
-13.875 68.175 0.375
-4.125 61.725 -0.075
-13.425 66.675 0.675
-2.625 62.175 0.975
-12.825 65.475 -0.375
-13.875 68.025 -0.825
0.525 64.425 0.075
-14.025 68.925 -1.575
-14.025 68.925 -1.275
-13.725 72.225 1.125
-13.725 67.425 2.925
-13.725 67.425 3.075
-13.575 66.975 0.975
-13.575 66.975 0.675
-1.875 62.475 -0.825
-13.125 65.925 1.725
-12.675 65.175 -1.125
-1.125 62.925 0.675
-1.125 62.925 0.375
-13.425 73.125 1.275
-1.575 62.625 -0.375
-1.575 62.625 0.975
-0.675 63.225 1.425
-13.725 67.275 0.525
-13.725 67.275 0.375
-14.025 68.475 0.675
-14.025 68.475 0.525
-14.025 68.475 -0.525
-12.825 65.325 0.675
-12.825 65.325 -0.225
-3.675 61.725 0.525
-0.825 63.075 -1.875
-2.025 62.325 -0.375
-14.025 68.325 -0.375
-1.725 62.475 1.875
-14.175 69.825 0.075
-14.175 69.975 0.075
-14.175 69.975 -0.075
-14.175 69.675 -0.825
-14.175 69.675 -0.375
-14.175 69.525 -0.375
-14.175 70.125 -0.075
-13.875 67.575 -0.225
-3.525 61.725 0.225
-14.175 69.375 0.525
-12.975 65.475 0.225
-2.625 62.025 1.125
-14.025 68.025 0.675
-13.875 72.225 1.125
-3.375 61.725 0.225
-13.875 67.425 0.525
-1.875 62.325 2.325
-1.875 62.325 -0.525
-13.425 66.225 0.075
-1.575 62.475 0.375
-1.575 62.475 2.025
-13.575 66.525 0.525
-14.025 67.875 -4.425
-12.975 65.325 -0.375
-3.225 61.725 -0.375
-3.225 61.725 -1.575
-14.175 68.475 0.675
-14.175 68.475 -0.825
-14.175 68.475 -0.525
-14.175 68.475 0.075
-14.175 68.475 -0.075
-13.425 66.075 0.825
-13.425 66.075 0.375
-13.425 66.075 1.125
-1.725 62.325 1.575
-12.825 65.025 0.375
-13.575 73.275 -0.075
-14.175 68.325 -0.525
-3.075 61.725 -0.525
-13.125 65.475 0.075
-14.325 69.975 -0.225
-14.325 69.975 2.025
-14.325 69.675 0.225
-14.325 69.675 2.175
-14.325 69.675 0.825
-3.525 61.575 0.675
-14.025 67.575 0.525
-13.725 66.675 0.525
-14.325 69.375 0.525
-14.325 69.375 0.375
-1.125 62.625 0.075
-12.975 65.175 0.675
-0.675 62.925 1.425
-13.875 72.675 0.675
-13.425 65.925 -0.675
-13.425 65.925 0.225
-1.875 62.175 -1.125
-13.575 66.225 0.825
-3.375 61.575 -0.225
-13.725 73.125 -0.225
-2.475 61.875 0.825
-13.125 65.325 -0.075
-1.275 62.475 1.575
-14.175 67.875 0.675
-14.175 67.875 0.225
-3.225 61.575 0.525
-12.975 65.025 0.375
-0.975 62.625 -1.275
-13.575 66.075 1.125
-13.575 66.075 -0.225
-13.425 65.775 -0.225
-13.425 65.775 0.525
-14.325 68.475 0.525
-1.725 62.175 -0.375
-13.275 65.475 1.125
-0.525 62.925 0.675
-14.325 68.325 -1.425
-14.325 68.325 -0.525
-3.075 61.575 -0.075
-14.025 72.525 0.675
-13.875 66.675 0.375
-14.475 69.825 1.425
-14.475 69.825 0.825
-14.475 69.525 0.675
-14.325 68.175 0.825
-14.475 70.275 1.575
-14.475 69.225 -0.675
-13.575 65.925 -0.225
-13.425 65.625 -0.225
-13.425 65.625 0.525
-13.725 66.225 0.375
-1.575 62.175 -0.375
-2.925 61.575 1.275
-2.925 61.575 0.225
-14.025 66.975 -2.625
-3.375 61.425 0.825
-14.325 68.025 0.675
-14.325 68.025 0.375
-0.825 62.625 0.375
-1.275 62.325 -0.375
-13.275 65.325 -0.375
-13.275 65.325 0.375
-14.475 68.775 -0.525
-14.325 67.875 0.825
-14.325 67.875 0.675
-2.775 61.575 -0.075
-0.975 62.475 -1.125
-3.225 61.425 -0.225
-14.475 68.625 -0.525
-13.575 65.775 1.125
-13.575 65.775 1.275
-0.525 62.775 0.675
-1.425 62.175 0.225
-1.425 62.175 0.375
-13.875 66.375 0.075
-2.325 61.725 0.975
-2.325 61.725 0.075
0.075 63.225 -0.375
-13.275 65.175 0.975
-14.475 68.325 -0.525
-2.625 61.575 -0.675
-0.075 63.075 0.225
-14.325 67.575 -0.075
-14.625 69.825 0.225
-14.625 69.975 0.225
-14.625 69.675 -1.275
-14.625 69.675 0.525
-14.625 69.525 0.525
-13.725 65.925 1.125
-13.725 65.925 0.825
-13.725 65.925 -0.525
-1.875 61.875 2.175
-0.225 62.925 0.525
-13.575 65.625 -0.075
-14.625 69.375 0.675
-14.625 69.375 -0.375
-0.825 62.475 -2.325
-13.125 64.875 0.975
-13.125 64.875 0.525
-2.925 61.425 0.075
-0.375 62.775 0.675
-14.475 71.625 -0.975
-14.025 66.525 0.225
-14.025 66.525 -2.325
-14.025 66.525 -0.225
-14.025 66.525 0.525
-14.625 68.925 0.975
-14.625 68.925 1.275
-0.525 62.625 0.675
-14.625 68.775 -0.825
-14.625 68.775 -0.525
-14.625 68.775 -0.075
-14.625 68.775 0.075
-14.475 67.875 0.675
-13.725 65.775 -0.525
-13.725 65.775 -0.225
-13.725 65.775 0.975
-14.325 72.375 0.825
-3.225 61.275 0.525
-13.875 66.075 -0.075
-14.625 68.625 2.175
-14.625 68.625 0.375
-14.625 68.625 0.825
-13.575 65.475 0.375
-13.575 65.475 -1.575
-1.425 62.025 0.225
-1.425 62.025 -0.375
-2.325 61.575 1.425
-13.425 65.175 -0.375
-13.425 65.175 0.075
-14.175 66.675 0.075
-2.625 61.425 -0.375
-14.475 72.075 0.975
-14.475 72.075 0.675
-13.875 65.925 1.275
-13.725 65.625 0.975
-1.575 61.875 -1.725
-0.375 62.625 0.225
-2.175 61.575 0.225
-2.175 61.575 0.525
-2.175 61.575 0.975
-14.775 69.675 1.875
-2.175 61.575 1.125
-14.025 66.225 -0.075
-13.575 65.325 -0.225
-14.775 70.125 0.075
-14.775 70.125 1.875
-1.275 62.025 -0.675
-1.275 62.025 0.075
-1.275 62.025 -0.375
-13.425 65.025 0.075
-13.125 64.575 0.825
-13.875 65.775 -0.225
-1.725 61.725 -0.525
-1.725 61.725 0.075
-1.725 61.725 -0.375
-14.325 66.825 0.225
-2.775 61.275 1.275
-2.775 61.275 0.225
-14.025 66.075 0.525
-14.025 66.075 -0.075
-14.775 68.625 -0.525
-1.125 62.025 1.875
-14.775 68.475 0.525
-14.475 72.525 -0.075
-2.625 61.275 0.075
-14.775 68.325 0.525
-1.875 61.575 -0.525
-14.025 65.925 0.375
-14.025 65.925 0.825
-14.025 65.925 -0.075
-1.275 61.875 -0.375
-14.175 73.425 0.075
-14.175 66.225 0.225
-14.925 69.825 0.375
-0.525 62.325 0.825
-14.475 66.975 0.375
-2.925 61.125 -0.375
-13.575 65.025 0.825
-0.975 62.025 0.825
-0.975 62.025 1.875
-14.925 69.375 -1.125
0.075 62.775 -0.075
-14.325 66.525 0.225
-2.475 61.275 0.225
-14.925 69.225 -1.125
-14.925 70.575 -4.275
-14.925 70.575 0.525
-0.075 62.625 -0.375
-13.875 65.475 -1.125
-13.425 64.725 0.375
-14.175 66.075 -0.075
-2.025 61.425 0.825
-14.625 67.275 0.825
-14.625 67.275 0.525
-14.925 70.875 -0.525
-13.725 65.175 0.225
-14.925 68.625 -0.525
-12.375 63.375 0.375
-14.925 68.475 1.125
-14.625 67.125 0.525
-14.475 66.675 -0.075
-2.625 61.125 0.225
-2.625 61.125 -0.225
-14.925 68.325 0.675
-14.325 66.225 -0.225
-2.175 61.275 0.375
-14.925 68.175 -1.125
-0.075 62.475 -0.075
-14.475 66.525 -0.375
-14.475 66.525 -0.225
-14.775 67.425 0.225
-15.075 69.225 0.825
-13.575 64.725 0.225
-1.725 61.425 -0.525
-15.075 70.575 -0.225
-15.075 70.575 -0.075
-0.225 62.325 -0.225
-14.325 66.075 0.525
-12.525 63.375 0.375
-2.025 61.275 0.375
-2.025 61.275 0.825
-1.125 61.725 1.275
-14.775 67.275 0.525
-14.475 66.375 -0.975
-14.475 66.375 -0.825
-0.375 62.175 0.525
-0.825 61.875 1.125
-1.575 61.425 -0.375
-14.625 66.675 0.975
-15.075 68.475 -0.525
-15.075 68.475 0.675
-1.275 61.575 0.225
-14.325 65.925 -0.675
-0.525 62.025 1.125
-14.475 66.225 -1.725
-14.475 66.225 0.075
-2.175 61.125 0.675
-14.625 66.525 -0.075
-14.625 66.525 -0.525
-13.725 64.725 0.225
-15.225 69.825 1.125
-15.225 69.975 0.825
-15.225 69.975 0.375
-15.225 69.975 -0.075
-1.425 61.425 0.375
-1.425 61.425 -0.375
-1.725 61.275 -0.825
-15.225 70.425 -0.075
-15.225 69.225 -0.525
-15.075 68.025 -0.675
