# .PCD v0.7 - Point Cloud Data file format
VERSION 0.7
FIELDS x y z
SIZE 4 4 4
TYPE F F F
COUNT 1 1 1
WIDTH 2048
HEIGHT 1
VIEWPOINT 0 0 0 1 0 0 0
POINTS 2048
DATA ascii
-48.075 113.325 2.475
-48.525 113.475 2.325
-48.225 113.925 3.675
-48.375 113.925 2.775
-49.125 113.775 2.775
-48.075 114.075 3.975
-49.575 113.475 2.325
-49.575 113.625 2.475
-49.425 113.925 2.475
-48.675 114.375 4.125
-49.125 114.225 2.925
-47.775 114.525 4.575
-49.575 114.225 2.775
-48.075 114.675 3.225
-48.075 114.675 2.775
-49.125 114.525 3.075
-46.425 113.925 0.675
-48.975 114.675 3.075
-49.425 114.525 3.075
-48.525 114.825 3.525
-48.825 114.825 3.375
-49.275 114.675 3.225
-46.125 113.775 0.825
-46.875 114.525 2.325
-48.375 114.975 0.825
-49.875 114.375 4.275
-49.725 114.525 4.575
-47.775 115.275 -0.975
-49.725 114.975 2.925
-45.675 113.925 2.475
-48.225 115.425 2.325
-49.875 114.975 2.925
-46.725 115.125 1.575
-45.225 113.175 0.975
-45.675 114.375 0.525
-46.725 115.275 1.575
-46.425 115.125 2.775
-46.725 115.425 0.225
-46.425 115.275 2.025
-46.875 115.575 3.075
-46.875 115.575 0.375
-46.275 115.275 2.475
-46.275 115.275 0.075
-51.525 113.475 1.725
-46.725 115.575 2.025
-45.225 114.225 0.675
-46.425 115.425 0.225
-46.425 115.425 2.625
-46.125 115.275 -0.225
-50.925 114.825 2.025
-46.725 115.725 2.175
-46.725 115.725 -0.075
-51.075 114.675 2.025
-47.025 115.875 -0.525
-46.125 115.425 0.525
-51.225 114.525 2.775
-51.675 113.775 1.425
-46.275 115.575 2.925
-46.275 115.575 3.075
-45.975 115.425 -0.525
-46.425 115.725 2.925
-45.525 115.125 0.975
-45.525 115.125 2.775
-45.675 115.275 2.775
-45.675 115.275 0.375
-46.275 115.725 2.325
-45.825 115.425 -0.225
-46.425 115.875 2.325
-51.825 113.925 0.975
-45.525 115.275 1.275
-45.675 115.425 0.075
-45.825 115.575 0.825
-51.825 114.225 0.825
-45.375 115.275 0.525
-45.525 115.425 0.675
-51.675 114.525 2.475
-48.225 116.475 0.525
-45.375 115.425 1.125
-51.375 115.125 2.175
-45.675 115.725 2.175
-47.925 116.625 2.475
-47.025 116.475 -1.125
-46.275 116.175 3.075
-50.475 116.025 2.475
-52.125 114.225 0.825
-49.125 116.625 -0.375
-51.975 114.525 2.475
-52.125 114.375 2.175
-48.525 116.775 2.475
-49.875 116.475 2.175
-45.975 116.175 3.225
-46.125 116.325 3.525
-50.025 116.475 2.325
-45.525 116.025 2.025
-48.525 116.925 2.325
-47.925 116.925 2.625
-47.925 116.925 2.475
-49.875 116.625 2.325
-48.825 116.925 2.175
-45.075 115.725 1.275
-47.325 116.925 2.175
-47.175 116.925 2.325
-48.525 117.075 2.925
-44.925 115.725 1.125
-47.475 117.075 2.475
-48.975 117.075 2.475
-47.325 117.075 2.175
-47.175 117.075 2.775
-45.075 116.025 0.675
-50.025 116.925 1.575
-47.475 117.225 2.475
-49.125 117.225 0.375
-47.325 117.225 2.325
-49.125 117.225 2.175
-44.925 116.025 0.375
-45.075 116.175 0.525
-49.275 117.225 2.025
-45.225 116.325 0.525
-49.425 117.225 0.825
-47.025 117.225 2.775
-50.325 116.925 1.575
-50.025 117.075 1.725
-48.975 117.375 2.625
-49.125 117.375 2.175
-46.275 117.075 2.175
-47.175 117.375 2.025
-47.175 117.375 2.475
-49.875 117.225 1.875
-48.075 117.525 -0.375
-51.375 116.475 -4.425
-49.575 117.375 1.275
-47.625 117.525 2.475
-47.475 117.525 0.075
-45.975 117.075 2.625
-49.125 117.525 2.475
-49.125 117.525 2.175
-49.875 117.375 1.875
-49.875 117.375 0.525
-45.825 117.075 -2.025
-46.125 117.225 2.625
-48.075 117.675 0.825
-48.075 117.675 -3.375
-48.075 117.675 2.025
-48.375 117.675 2.325
-48.525 117.675 2.475
-49.575 117.525 0.975
-49.575 117.525 0.825
-47.625 117.675 1.725
-45.975 117.225 2.775
-49.725 117.525 1.725
-47.325 117.675 2.625
-49.275 117.675 2.025
-49.875 117.525 0.825
-50.325 117.375 2.325
-46.125 117.375 2.475
-49.425 117.675 1.575
-49.425 117.675 2.025
-47.025 117.675 2.325
-48.225 117.825 0.675
-48.525 117.825 0.975
-47.775 117.825 1.875
-48.825 117.825 2.325
-49.725 117.675 1.875
-46.725 117.675 1.875
-49.125 117.825 2.025
-47.175 117.825 2.625
-47.175 117.825 2.475
-49.875 117.675 0.975
-46.575 117.675 2.175
-47.025 117.825 2.625
-48.225 117.975 2.475
-50.025 117.675 0.975
-48.075 117.975 -0.675
-48.075 117.975 2.325
-48.525 117.975 -0.525
-46.875 117.825 2.325
-47.775 117.975 -0.525
-47.775 117.975 -0.375
-45.675 117.375 1.125
-48.825 117.975 2.625
-47.625 117.975 -0.675
-48.975 117.975 2.175
-49.725 117.825 -0.975
-49.725 117.825 1.425
-49.125 117.975 2.025
-47.325 117.975 2.325
-47.325 117.975 3.075
-43.125 114.825 1.875
-45.825 117.525 2.025
-49.875 117.825 1.875
-49.875 117.825 2.175
-49.275 117.975 2.775
-48.375 118.125 2.325
-48.525 118.125 2.175
-45.975 117.675 2.175
-44.325 116.625 2.175
-46.275 117.825 3.375
-46.725 117.975 2.175
-47.325 118.125 2.775
-49.875 117.975 0.825
-49.875 117.975 1.575
-49.275 118.125 1.575
-47.175 118.125 3.225
-47.175 118.125 2.625
-49.425 118.125 2.925
-50.025 117.975 0.975
-50.025 117.975 2.475
-46.425 117.975 3.225
-46.425 117.975 0.525
-46.425 117.975 1.425
-50.775 117.675 0.975
-45.375 117.525 1.125
-48.225 118.275 1.125
-48.225 118.275 -0.525
-48.375 118.275 -0.825
-49.575 118.125 1.125
-48.675 118.275 0.225
-47.775 118.275 -0.525
-47.625 118.275 1.575
-47.625 118.275 1.275
-46.275 117.975 1.575
-49.725 118.125 0.975
-47.475 118.275 0.375
-45.825 117.825 2.175
-46.125 117.975 2.325
-49.875 118.125 0.975
-49.875 118.125 1.275
-49.275 118.275 -0.225
-49.425 118.275 1.125
-47.025 118.275 2.475
-50.025 118.125 0.375
-50.025 118.125 1.425
-48.375 118.425 2.175
-46.875 118.275 2.025
-47.775 118.425 0.225
-50.175 118.125 0.375
-46.275 118.125 0.825
-48.825 118.425 2.025
-49.725 118.275 0.975
-46.725 118.275 2.325
-46.725 118.275 1.575
-49.725 118.275 -0.525
-49.725 118.275 0.525
-49.725 118.275 1.275
-49.125 118.425 -0.225
-49.875 118.275 0.825
-49.875 118.275 0.975
-46.575 118.275 2.325
-49.275 118.425 -0.225
-46.425 118.275 0.675
-46.875 118.425 2.775
-49.575 118.425 1.125
-48.225 118.575 2.175
-48.375 118.575 2.475
-48.075 118.575 -0.825
-48.075 118.575 2.925
-48.075 118.575 2.775
-48.075 118.575 -0.975
-48.825 118.575 -0.675
-49.725 118.425 1.275
-46.125 118.275 2.325
-46.125 118.275 1.275
-46.575 118.425 0.825
-49.875 118.425 1.125
-49.875 118.425 1.425
-47.025 118.575 2.925
-45.975 118.275 1.125
-45.975 118.275 2.775
-45.975 118.275 2.625
-48.225 118.725 2.925
-48.075 118.725 -0.975
-48.375 118.725 0.525
-48.525 118.725 -1.125
-46.275 118.425 2.025
-46.275 118.425 1.425
-48.825 118.725 -0.975
-46.725 118.575 3.075
-49.725 118.575 1.275
-49.725 118.575 0.375
-46.125 118.425 1.425
-46.125 118.425 0.975
-50.325 118.425 0.675
-46.125 118.425 2.175
-50.325 118.425 0.975
-49.875 118.575 0.525
-47.175 118.725 3.225
-45.975 118.425 1.875
-50.025 118.575 1.275
-46.425 118.575 2.175
-46.425 118.575 2.325
-45.525 118.275 2.625
-48.225 118.875 0.525
-48.075 118.875 -0.825
-50.175 118.575 0.975
-47.925 118.875 -0.825
-45.825 118.425 2.025
-47.775 118.875 0.525
-46.725 118.725 3.075
-49.725 118.725 1.125
-49.725 118.725 1.275
-48.825 118.875 -0.825
-46.125 118.575 1.275
-46.125 118.575 1.425
-49.875 118.725 0.975
-45.075 118.125 2.325
-45.075 118.125 2.025
-47.325 118.875 3.225
-45.675 118.425 0.075
-45.975 118.575 0.675
-46.425 118.725 1.575
-49.575 118.875 1.275
-49.575 118.875 1.725
-46.275 118.725 3.075
-46.275 118.725 2.475
-48.225 119.025 0.525
-45.825 118.575 1.725
-47.925 119.025 0.075
-47.775 119.025 0.525
-46.125 118.725 1.425
-50.325 118.725 1.425
-46.125 118.725 1.275
-46.125 118.725 0.825
-46.575 118.875 -1.875
-46.575 118.875 0.675
-49.875 118.875 -1.125
-46.575 118.875 2.025
-49.875 118.875 1.275
-49.125 119.025 -0.675
-49.275 119.025 -0.675
-50.475 118.725 2.625
-50.025 118.875 1.125
-46.425 118.875 1.125
-46.425 118.875 0.675
-46.425 118.875 1.425
-46.425 118.875 2.625
-45.525 118.575 1.425
-46.275 118.875 1.575
-46.275 118.875 1.425
-46.275 118.875 0.525
-46.275 118.875 1.875
-45.825 118.725 1.125
-45.825 118.725 2.625
-50.625 118.725 0.675
-48.225 119.175 0.525
-48.225 119.175 0.975
-48.225 119.175 0.825
-48.075 119.175 0.375
-48.075 119.175 0.075
-48.075 119.175 -0.525
-48.075 119.175 0.525
-48.375 119.175 -1.125
-48.525 119.175 3.075
-47.925 119.175 0.825
-47.925 119.175 0.975
-47.775 119.175 0.525
-47.775 119.175 0.075
-49.725 119.025 0.825
-46.725 119.025 0.075
-44.325 117.975 2.025
-46.125 118.875 0.525
-46.125 118.875 1.575
-47.325 119.175 -0.525
-49.125 119.175 1.425
-47.325 119.175 0.525
-47.175 119.175 -0.375
-45.525 118.725 0.075
-49.425 119.175 1.425
-47.025 119.175 -0.525
-44.625 118.275 2.325
-45.825 118.875 1.575
-45.825 118.875 1.125
-50.625 118.875 0.525
-50.625 118.875 1.275
-45.825 118.875 0.675
-46.275 119.025 -1.725
-46.275 119.025 0.525
-46.275 119.025 -1.575
-46.275 119.025 1.275
-49.575 119.175 1.575
-46.875 119.175 -0.375
-48.375 119.325 2.175
-48.375 119.325 1.875
-44.325 118.125 1.875
-47.925 119.325 0.375
-47.925 119.325 1.425
-45.375 118.725 -0.525
-46.725 119.175 2.325
-43.725 117.675 2.775
-47.775 119.325 0.525
-46.125 119.025 2.025
-46.125 119.025 1.575
-50.775 118.875 0.975
-45.675 118.875 0.675
-45.675 118.875 1.725
-46.575 119.175 2.775
-49.875 119.175 1.425
-46.575 119.175 0.675
-44.475 118.275 2.925
-47.325 119.325 -0.675
-47.325 119.325 0.375
-45.975 119.025 1.425
-49.275 119.325 1.575
-50.025 119.175 1.275
-50.025 119.175 0.975
-44.625 118.425 2.325
-44.625 118.425 1.875
-49.425 119.325 1.575
-45.825 119.025 0.375
-50.625 119.025 1.275
-50.175 119.175 0.975
-46.275 119.175 0.375
-46.275 119.175 3.225
-46.275 119.175 0.075
-46.875 119.325 2.175
-49.575 119.325 -0.375
-46.875 119.325 -0.375
-48.225 119.475 2.175
-48.225 119.475 1.875
-47.925 119.475 0.225
-47.925 119.475 1.425
-46.725 119.325 -0.825
-49.725 119.325 1.275
-49.725 119.325 -0.525
-49.725 119.325 1.575
-48.675 119.475 2.325
-46.125 119.175 2.025
-46.125 119.175 0.075
-46.125 119.175 1.875
-46.125 119.175 1.725
-47.625 119.475 0.975
-44.025 118.125 3.825
-47.475 119.475 0.375
-46.575 119.325 1.425
-46.575 119.325 1.875
-49.875 119.325 1.125
-47.325 119.475 -1.125
-51.225 118.875 0.375
-50.475 119.175 1.125
-50.475 119.175 0.975
-47.175 119.475 2.475
-50.025 119.325 1.575
-46.425 119.325 2.325
-49.425 119.475 1.125
-47.025 119.475 1.875
-45.825 119.175 0.975
-46.275 119.325 2.175
-49.575 119.475 1.575
-49.575 119.475 1.275
-48.075 119.625 -1.125
-48.075 119.625 2.025
-48.075 119.625 2.475
-48.375 119.625 2.175
-44.475 118.575 1.425
-48.525 119.625 0.525
-48.525 119.625 2.025
-47.925 119.625 2.325
-47.925 119.625 2.025
-50.325 119.325 0.975
-48.675 119.625 0.525
-45.675 119.175 0.675
-48.825 119.625 0.525
-47.625 119.625 0.075
-47.625 119.625 0.375
-47.625 119.625 0.825
-47.475 119.625 -1.125
-46.575 119.475 2.325
-46.575 119.475 -0.225
-44.625 118.725 2.475
-45.975 119.325 1.275
-45.975 119.325 0.825
-52.725 118.125 3.375
-45.525 119.175 1.425
-46.425 119.475 -0.375
-46.425 119.475 2.625
-46.425 119.475 1.875
-45.825 119.325 1.125
-51.375 119.025 0.675
-50.175 119.475 0.375
-52.425 118.425 3.375
-44.475 118.725 2.025
-48.075 119.775 -0.375
-49.725 119.625 2.925
-50.325 119.475 0.675
-46.125 119.475 1.125
-48.525 119.775 2.325
-48.525 119.775 0.375
-47.925 119.775 2.325
-48.675 119.775 0.825
-48.675 119.775 0.375
-48.675 119.775 0.075
-47.625 119.775 1.575
-47.625 119.775 0.375
-47.625 119.775 1.725
-45.225 119.175 -0.075
-46.575 119.625 -0.675
-49.875 119.625 1.125
-47.475 119.775 0.525
-50.475 119.475 1.125
-49.125 119.775 1.575
-43.875 118.425 2.175
-50.025 119.625 0.675
-46.425 119.625 0.825
-46.425 119.625 2.625
-46.425 119.625 1.125
-49.275 119.775 1.725
-50.625 119.475 0.525
-49.425 119.775 1.725
-47.025 119.775 -1.275
-47.025 119.775 2.325
-50.175 119.625 0.225
-46.275 119.625 1.125
-51.075 119.325 1.125
-45.675 119.475 1.275
-48.225 119.925 2.325
-50.325 119.625 0.975
-48.375 119.925 2.175
-47.925 119.925 2.325
-46.575 119.775 -0.675
-50.475 119.625 1.125
-50.475 119.625 0.825
-45.525 119.475 -1.575
-49.125 119.925 1.425
-46.425 119.775 2.625
-46.425 119.775 1.875
-47.175 119.925 -2.025
-45.075 119.325 -3.525
-49.425 119.925 1.725
-45.375 119.475 -0.825
-45.375 119.475 -0.375
-46.275 119.775 2.025
-46.875 119.925 3.675
-46.125 119.775 1.875
-46.125 119.775 2.325
-46.725 119.925 -0.675
-48.225 120.075 2.175
-48.075 120.075 -0.675
-48.075 120.075 2.175
-48.525 120.075 2.625
-47.925 120.075 2.325
-47.775 120.075 -1.125
-47.775 120.075 -0.975
-47.625 120.075 -1.725
-46.575 119.925 -0.525
-49.875 119.925 -0.525
-43.425 118.425 3.975
-47.475 120.075 -0.675
-50.475 119.775 1.425
-47.325 120.075 -1.875
-47.325 120.075 -0.825
-55.125 115.875 1.725
-45.075 119.475 -3.525
-45.825 119.775 1.275
-49.425 120.075 1.725
-49.425 120.075 1.575
-47.025 120.075 -0.375
-42.675 117.825 2.325
-46.275 119.925 -2.325
-46.875 120.075 -0.525
-46.875 120.075 -0.825
-49.575 120.075 1.725
-45.675 119.775 1.425
-50.325 119.925 0.675
-48.225 120.225 2.175
-51.225 119.625 1.725
-51.225 119.625 0.975
-48.075 120.225 -0.675
-48.075 120.225 2.475
-48.525 120.225 2.025
-47.925 120.225 2.625
-48.675 120.225 2.625
-47.625 120.225 2.025
-47.625 120.225 -0.675
-46.575 120.075 -0.375
-46.575 120.075 -0.075
-43.575 118.725 4.575
-45.975 119.925 0.525
-53.775 117.975 2.775
-47.325 120.225 -1.125
-47.325 120.225 0.675
-51.375 119.625 1.275
-50.025 120.075 1.575
-50.025 120.075 1.425
-50.025 120.075 0.075
-46.425 120.075 1.875
-43.725 118.875 2.025
-47.175 120.225 0.225
-45.825 119.925 1.275
-45.825 119.925 0.975
-50.625 119.925 0.825
-45.375 119.775 1.125
-51.075 119.775 1.575
-47.025 120.225 0.225
-50.175 120.075 1.425
-46.275 120.075 2.175
-46.275 120.075 0.225
-46.875 120.225 4.125
-46.875 120.225 2.325
-46.875 120.225 -1.125
-49.575 120.225 1.725
-45.675 119.925 1.575
-46.125 120.075 1.725
-51.225 119.775 0.525
-46.725 120.225 2.025
-46.725 120.225 2.475
-48.225 120.375 2.025
-48.075 120.375 -0.675
-48.525 120.375 2.625
-48.525 120.375 1.725
-49.875 120.225 0.525
-46.575 120.225 1.725
-44.475 119.475 3.075
-47.475 120.375 -0.075
-47.475 120.375 0.675
-47.475 120.375 0.225
-47.325 120.375 0.225
-46.425 120.225 2.175
-45.825 120.075 0.825
-45.825 120.075 1.725
-45.825 120.075 1.575
-50.625 120.075 1.125
-45.825 120.075 0.975
-50.625 120.075 0.825
-47.175 120.375 -0.825
-51.075 119.925 0.975
-51.075 119.925 1.275
-50.175 120.225 1.575
-46.275 120.225 2.325
-55.425 116.025 1.425
-42.525 118.125 1.725
-46.875 120.375 0.375
-50.775 120.075 1.125
-45.675 120.075 1.425
-46.125 120.225 1.275
-46.125 120.225 0.975
-46.125 120.225 2.175
-51.225 119.925 1.725
-45.225 119.925 -4.275
-46.725 120.375 -0.075
-46.725 120.375 2.175
-49.725 120.375 1.425
-48.075 120.525 0.225
-47.925 120.525 2.025
-47.925 120.525 -0.975
-48.525 120.525 2.625
-50.925 120.075 1.275
-50.925 120.075 0.975
-47.775 120.525 1.725
-45.975 120.225 2.025
-51.975 119.625 0.825
-51.975 119.625 0.675
-47.625 120.525 2.325
-47.625 120.525 -0.675
-51.375 119.925 0.375
-47.475 120.525 -0.375
-47.475 120.525 -0.225
-47.475 120.525 0.225
-47.325 120.525 0.375
-50.025 120.375 2.025
-46.425 120.375 4.125
-46.425 120.375 -0.675
-46.425 120.375 2.025
-51.075 120.075 0.675
-46.275 120.375 2.325
-45.675 120.225 1.425
-46.875 120.525 -0.975
-50.325 120.375 1.575
-50.325 120.375 0.675
-49.725 120.525 1.275
-48.225 120.675 2.625
-48.375 120.675 2.775
-48.075 120.675 2.175
-48.375 120.675 2.325
-48.075 120.675 -0.075
-51.975 119.775 0.975
-50.925 120.225 1.725
-45.525 120.225 1.125
-45.525 120.225 2.025
-45.525 120.225 1.575
-45.525 120.225 -4.275
-47.925 120.675 -0.675
-47.925 120.675 2.025
-48.675 120.675 1.575
-50.475 120.375 1.575
-45.975 120.375 2.025
-46.575 120.525 1.875
-49.875 120.525 1.725
-54.225 118.125 2.025
-54.975 117.225 0.375
-50.025 120.525 2.625
-50.025 120.525 1.575
-46.425 120.525 2.625
-46.425 120.525 2.025
-47.325 120.675 -0.975
-45.375 120.225 1.575
-47.175 120.675 -0.375
-52.125 119.775 0.525
-51.525 120.075 1.125
-51.525 120.075 1.875
-46.275 120.525 2.325
-46.275 120.525 2.475
-47.025 120.675 -0.525
-50.775 120.375 2.175
-45.675 120.375 0.975
-46.125 120.525 0.825
-50.325 120.525 2.325
-50.325 120.525 1.725
-46.125 120.525 2.325
-51.975 119.925 0.675
-55.875 115.875 1.275
-51.675 120.075 1.725
-51.675 120.075 0.675
-45.525 120.375 0.075
-45.525 120.375 1.875
-48.225 120.825 2.625
-48.375 120.825 -0.225
-48.375 120.825 -0.525
-47.925 120.825 -1.125
-47.925 120.825 2.325
-50.475 120.525 1.875
-45.975 120.525 1.575
-50.475 120.525 2.475
-50.475 120.525 1.575
-45.075 120.225 0.225
-45.075 120.225 0.525
-46.575 120.675 2.025
-47.475 120.825 0.675
-48.975 120.825 0.375
-50.025 120.675 1.275
-46.425 120.675 1.725
-55.275 117.075 1.125
-51.075 120.375 1.425
-45.375 120.375 0.375
-45.375 120.375 1.275
-45.825 120.525 1.575
-45.825 120.525 1.875
-55.875 116.025 1.275
-51.825 120.075 1.575
-47.175 120.825 0.225
-44.925 120.225 0.675
-50.175 120.675 1.875
-46.275 120.675 2.625
-46.275 120.675 2.475
-47.025 120.825 2.475
-50.775 120.525 2.025
-50.775 120.525 0.225
-50.775 120.525 1.575
-45.675 120.525 1.875
-45.675 120.525 1.725
-50.325 120.675 1.725
-51.975 120.075 0.825
-51.675 120.225 0.525
-51.675 120.225 0.975
-44.775 120.225 0.525
-43.425 119.475 2.775
-46.725 120.825 2.175
-50.925 120.525 1.875
-55.575 116.775 1.575
-52.575 119.775 -0.225
-48.075 120.975 2.475
-48.375 120.975 3.225
-50.475 120.675 1.575
-51.375 120.375 1.725
-45.075 120.375 0.975
-51.375 120.375 1.575
-47.925 120.975 1.725
-47.775 120.975 3.075
-47.625 120.975 0.225
-47.625 120.975 1.875
-47.475 120.975 2.475
-47.475 120.975 0.225
-47.475 120.975 -0.075
-48.975 120.975 0.375
-48.975 120.975 0.075
-47.475 120.975 0.675
-52.125 120.075 0.675
-44.625 120.225 0.375
-50.625 120.675 2.175
-47.325 120.975 0.225
-49.125 120.975 0.375
-49.125 120.975 0.825
-51.525 120.375 1.425
-44.925 120.375 0.825
-49.275 120.975 0.375
-47.175 120.975 2.925
-47.175 120.975 2.175
-47.175 120.975 2.475
-47.175 120.975 -0.225
-43.725 119.775 3.375
-42.675 119.025 2.475
-50.775 120.675 2.025
-45.225 120.525 0.525
-51.975 120.225 0.975
-51.675 120.375 1.125
-51.675 120.375 1.425
-50.925 120.675 1.425
-50.925 120.675 2.175
-50.925 120.675 0.525
-45.525 120.675 0.975
-51.375 120.525 2.175
-48.225 121.125 2.925
-48.075 121.125 3.675
-48.075 121.125 2.325
-48.075 121.125 3.225
-48.075 121.125 -1.575
-48.075 121.125 3.075
-47.925 121.125 2.925
-47.775 121.125 2.925
-47.775 121.125 3.375
-47.775 121.125 2.325
-52.125 120.225 0.975
-52.125 120.225 1.575
-52.125 120.225 0.675
-47.625 121.125 -0.375
-47.625 121.125 2.475
-53.925 119.025 1.275
-51.825 120.375 2.025
-52.425 120.075 0.675
-44.625 120.375 1.575
-48.975 121.125 -1.725
-47.475 121.125 0.225
-47.475 121.125 -0.375
-45.825 120.825 0.075
-50.625 120.825 2.325
-45.825 120.825 -4.725
-53.175 119.625 0.825
-47.325 121.125 -0.375
-47.325 121.125 5.025
-49.125 121.125 -1.425
-51.525 120.525 1.725
-47.175 121.125 2.025
-47.175 121.125 2.175
-47.175 121.125 2.475
-46.275 120.975 2.325
-50.775 120.825 1.875
-53.025 119.775 0.525
-47.025 121.125 2.625
-52.275 120.225 0.225
-51.975 120.375 2.025
-51.975 120.375 1.875
-50.325 120.975 1.575
-46.875 121.125 2.475
-49.575 121.125 2.175
-51.675 120.525 0.675
-51.675 120.525 -0.225
-51.675 120.525 1.575
-53.325 119.625 0.075
-45.525 120.825 1.875
-52.875 119.925 0.375
-46.725 121.125 2.325
-50.475 120.975 2.025
-48.375 121.275 3.075
-48.075 121.275 3.075
-49.875 121.125 2.475
-48.675 121.275 1.425
-47.775 121.275 -0.375
-51.825 120.525 0.975
-51.825 120.525 2.175
-51.075 120.825 1.575
-51.075 120.825 1.875
-47.625 121.275 0.375
-50.625 120.975 2.325
-47.475 121.275 0.375
-47.475 121.275 2.475
-47.475 121.275 2.625
-50.025 121.125 0.525
-51.525 120.675 -3.525
-53.025 119.925 0.525
-47.175 121.275 2.025
-50.175 121.125 1.875
-46.275 121.125 2.025
-50.775 120.975 1.875
-50.775 120.975 2.025
-45.675 120.975 2.325
-52.275 120.375 1.575
-51.975 120.525 1.275
-51.975 120.525 0.975
-52.575 120.225 1.575
-47.025 121.275 2.775
-54.075 119.175 0.975
-43.125 119.775 2.475
-46.125 121.125 2.175
-46.125 121.125 2.625
-46.125 121.125 2.925
-43.575 120.075 3.075
-46.875 121.275 2.175
-49.575 121.275 -0.525
-50.925 120.975 1.875
-50.925 120.975 2.175
-51.375 120.825 2.325
-46.725 121.275 2.175
-49.725 121.275 2.175
-53.175 119.925 0.225
-50.475 121.125 2.625
-48.225 121.425 3.075
-48.225 121.425 -1.425
-48.225 121.425 2.475
-53.625 119.625 1.125
-53.625 119.625 1.425
-48.075 121.425 3.075
-48.075 121.425 -0.075
-48.075 121.425 0.375
-48.075 121.425 -1.575
-48.075 121.425 -1.425
-51.825 120.675 0.225
-46.575 121.275 2.325
-49.875 121.275 1.275
-49.875 121.275 2.025
-56.025 116.925 2.475
-47.925 121.425 0.375
-47.925 121.425 0.825
-47.925 121.425 0.675
-48.675 121.425 2.175
-47.775 121.425 0.375
-48.825 121.425 2.475
-51.525 120.825 1.575
-44.925 120.825 2.025
-48.975 121.425 -0.225
-48.975 121.425 -0.825
-47.475 121.425 2.325
-53.025 120.075 0.675
-50.025 121.275 1.875
-52.275 120.525 1.575
-51.225 120.975 2.175
-51.225 120.975 2.025
-47.175 121.425 2.625
-44.475 120.675 0.375
-51.975 120.675 1.575
-46.275 121.275 -1.275
-49.425 121.425 2.025
-47.025 121.425 4.575
-53.775 119.625 0.675
-50.325 121.275 2.475
-49.575 121.425 1.575
-49.575 121.425 1.275
-46.875 121.425 -0.975
-50.925 121.125 2.325
-53.175 120.075 0.375
-53.175 120.075 0.675
-53.625 119.775 0.525
-49.725 121.425 2.175
-49.725 121.425 -1.125
-49.725 121.425 0.075
-52.425 120.525 2.175
-52.125 120.675 1.275
-45.975 121.275 2.025
-44.625 120.825 0.975
-44.625 120.825 1.425
-44.625 120.825 0.075
-51.825 120.825 2.475
-49.875 121.425 1.875
-49.875 121.425 -1.725
-48.225 121.575 -0.675
-48.225 121.575 -0.375
-48.075 121.575 -1.125
-51.075 121.125 2.175
-45.375 121.125 2.175
-47.925 121.575 -0.825
-47.925 121.575 0.375
-54.075 119.475 1.575
-48.675 121.575 3.375
-51.525 120.975 2.175
-51.525 120.975 2.025
-44.925 120.975 1.575
-47.625 121.575 -0.825
-47.625 121.575 2.775
-50.025 121.425 2.025
-50.025 121.425 1.875
-48.975 121.575 -0.225
-48.975 121.575 -0.675
-53.925 119.625 0.525
-53.925 119.625 0.825
-52.275 120.675 2.025
-52.275 120.675 2.325
-52.275 120.675 1.875
-49.125 121.575 -1.125
-52.575 120.525 0.825
-51.975 120.825 1.425
-51.225 121.125 2.025
-50.175 121.425 -0.825
-49.275 121.575 2.325
-53.775 119.775 1.125
-53.775 119.775 0.375
-47.175 121.575 0.075
-51.675 120.975 2.175
-51.675 120.975 2.625
-49.425 121.575 -1.425
-49.425 121.575 2.175
-49.425 121.575 2.025
-47.025 121.575 2.475
-47.025 121.575 0.975
-53.175 120.225 0.975
-53.625 119.925 1.125
-53.625 119.925 1.275
-51.375 121.125 2.325
-51.375 121.125 2.175
-52.725 120.525 1.875
-52.725 120.525 0.825
-52.725 120.525 1.125
-51.825 120.975 2.025
-45.975 121.425 2.775
-54.075 119.625 0.825
-53.475 120.075 0.825
-53.025 120.375 0.825
-49.875 121.575 2.025
-48.075 121.725 -0.675
-53.925 119.775 1.125
-47.925 121.725 -0.975
-48.525 121.725 2.025
-48.825 121.725 2.325
-53.325 120.225 0.825
-53.325 120.225 1.725
-50.025 121.575 1.575
-44.475 120.975 0.525
-52.875 120.525 2.475
-52.875 120.525 1.575
-55.125 118.725 2.475
-49.125 121.725 2.325
-49.125 121.725 -0.675
-47.325 121.725 2.625
-51.225 121.275 2.325
-51.225 121.275 2.475
-50.775 121.425 1.425
-45.675 121.425 2.625
-50.175 121.575 0.675
-49.275 121.725 -0.675
-49.275 121.725 3.375
-47.175 121.725 0.225
-47.175 121.725 2.325
-47.175 121.725 2.625
-53.175 120.375 0.525
-53.175 120.375 0.975
-53.175 120.375 1.275
-54.225 119.625 1.875
-47.025 121.725 0.375
-50.325 121.575 2.325
-50.325 121.575 1.875
-52.425 120.825 2.175
-52.425 120.825 1.575
-52.425 120.825 1.725
-51.375 121.275 2.475
-54.075 119.775 0.825
-44.325 120.975 0.525
-52.125 120.975 -0.225
-49.575 121.725 -0.825
-52.725 120.675 2.025
-52.725 120.675 2.175
-52.725 120.675 1.875
-53.475 120.225 1.275
-51.825 121.125 1.875
-44.625 121.125 1.275
-53.025 120.525 0.675
-53.025 120.525 2.025
-53.025 120.525 1.575
-53.025 120.525 1.725
-53.925 119.925 0.975
-53.925 119.925 0.825
-53.925 119.925 1.725
-49.725 121.725 0.375
-49.725 121.725 -1.125
-50.475 121.575 -0.525
-45.975 121.575 -3.375
-51.075 121.425 2.475
-51.075 121.425 2.175
-45.375 121.425 0.675
-45.375 121.425 2.025
-54.975 119.025 2.625
-49.875 121.725 -1.425
-49.875 121.725 2.175
-49.875 121.725 2.025
-54.675 119.325 1.725
-53.325 120.375 0.825
-51.525 121.275 2.625
-48.225 121.875 -0.975
-48.375 121.875 -0.525
-48.375 121.875 -0.675
-53.775 120.075 1.275
-53.775 120.075 0.825
-53.775 120.075 2.025
-55.275 118.725 2.625
-54.525 119.475 1.725
-47.925 121.875 -0.675
-48.525 121.875 -0.525
-48.525 121.875 0.825
-50.625 121.575 2.325
-52.575 120.825 2.175
-52.575 120.825 1.725
-52.575 120.825 1.575
-48.675 121.875 -0.225
-54.375 119.625 0.675
-54.375 119.625 1.125
-48.825 121.875 -0.375
-52.875 120.675 2.475
-52.875 120.675 1.275
-50.025 121.725 0.375
-50.025 121.725 2.175
-50.025 121.725 1.275
-50.025 121.725 0.225
-50.025 121.725 -1.125
-51.975 121.125 1.425
-48.975 121.875 2.325
-48.975 121.875 -1.275
-48.975 121.875 -0.525
-47.475 121.875 2.625
-53.625 120.225 0.975
-54.225 119.775 1.275
-49.125 121.875 -0.525
-49.125 121.875 -0.675
-49.125 121.875 2.325
-53.175 120.525 0.675
-51.675 121.275 2.025
-50.175 121.725 0.375
-50.175 121.725 1.575
-50.175 121.725 1.425
-52.425 120.975 2.325
-52.425 120.975 2.175
-49.425 121.875 2.475
-49.425 121.875 -0.675
-47.025 121.875 2.925
-53.475 120.375 1.275
-53.475 120.375 2.025
-53.475 120.375 2.625
-53.475 120.375 -0.225
-53.475 120.375 1.125
-52.725 120.825 1.875
-50.325 121.725 2.025
-50.325 121.725 0.375
-50.325 121.725 2.175
-52.125 121.125 1.425
-51.375 121.425 2.625
-53.925 120.075 1.275
-50.925 121.575 2.025
-50.925 121.575 -1.125
-50.925 121.575 -0.975
-53.025 120.675 1.425
-53.025 120.675 2.025
-49.575 121.875 -0.525
-54.825 119.325 0.975
-44.625 121.275 0.975
-44.625 121.275 2.475
-51.825 121.275 2.475
-55.275 118.875 2.025
-54.525 119.625 0.825
-54.525 119.625 0.975
-49.725 121.875 -1.425
-49.725 121.875 2.175
-49.725 121.875 3.375
-49.725 121.875 0.375
-49.725 121.875 -0.525
-49.725 121.875 -0.075
-53.325 120.525 0.675
-53.325 120.525 1.425
-53.775 120.225 1.725
-51.075 121.575 2.475
-51.075 121.575 2.175
-51.525 121.425 2.325
-44.925 121.425 2.175
-52.575 120.975 2.025
-52.575 120.975 2.475
-49.875 121.875 0.375
-49.875 121.875 0.675
-49.875 121.875 0.825
-52.275 121.125 2.175
-52.275 121.125 2.475
-48.225 122.025 2.475
-48.375 122.025 -0.525
-48.375 122.025 2.025
-48.075 122.025 -1.275
-48.075 122.025 2.025
-48.375 122.025 0.375
-50.625 121.725 2.775
-50.625 121.725 2.175
-48.525 122.025 0.225
-53.625 120.375 1.125
-47.775 122.025 2.925
-51.975 121.275 1.275
-48.825 122.025 2.325
-50.025 121.875 -0.375
-50.025 121.875 2.025
-50.025 121.875 2.325
-50.025 121.875 -0.975
-47.475 122.025 2.475
-48.975 122.025 -0.225
-48.975 122.025 2.325
-51.675 121.425 0.525
-51.675 121.425 2.025
-50.775 121.725 2.325
-50.775 121.725 2.475
-50.775 121.725 0.375
-50.175 121.875 1.875
-50.175 121.875 2.175
-50.175 121.875 0.825
-54.975 119.325 2.475
-53.475 120.525 1.125
-53.475 120.525 1.425
-49.275 122.025 2.475
-47.175 122.025 2.775
-52.425 121.125 2.625
-52.425 121.125 2.175
-52.425 121.125 2.025
-52.725 120.975 1.875
-52.125 121.275 1.425
-52.125 121.275 1.875
-53.025 120.825 2.325
-49.425 122.025 2.325
-49.425 122.025 0.225
-49.425 122.025 -2.625
-49.425 122.025 -0.375
-47.025 122.025 1.725
-51.375 121.575 -0.975
-45.075 121.575 2.175
-50.325 121.875 1.575
-54.525 119.775 0.825
-54.525 119.775 1.275
-51.825 121.425 2.325
-53.775 120.375 1.425
-53.325 120.675 1.425
-53.325 120.675 1.725
-53.325 120.675 0.675
-50.475 121.875 -0.375
-49.725 122.025 0.075
-49.725 122.025 2.325
-49.725 122.025 -0.225
-54.225 120.075 1.275
-54.225 120.075 1.125
-51.075 121.725 -0.825
-45.375 121.725 2.475
-52.575 121.125 1.875
-51.525 121.575 2.175
-51.525 121.575 2.625
-52.875 120.975 2.025
-52.275 121.275 1.725
-49.875 122.025 -0.375
-49.875 122.025 2.625
-49.875 122.025 -1.425
-49.875 122.025 -1.125
-54.075 120.225 1.875
-54.075 120.225 1.575
-51.975 121.425 2.025
-50.625 121.875 2.175
-50.625 121.875 0.375
-50.625 121.875 0.525
-50.625 121.875 -0.825
-53.175 120.825 2.325
-48.375 122.175 0.375
-48.375 122.175 2.475
-48.525 122.175 1.875
-48.525 122.175 2.325
-48.525 122.175 0.375
-48.525 122.175 -0.525
-54.975 119.475 2.775
-54.975 119.475 0.975
-48.675 122.175 2.175
-48.675 122.175 -0.375
-48.675 122.175 2.475
-48.675 122.175 0.375
-47.775 122.175 -0.975
-50.025 122.025 -0.525
-50.025 122.025 2.175
-48.825 122.175 0.825
-48.825 122.175 0.075
-48.825 122.175 0.375
-48.975 122.175 0.375
-48.975 122.175 1.425
-48.975 122.175 -0.525
-48.975 122.175 2.475
-56.475 117.675 -3.675
-53.475 120.675 1.125
-55.575 118.875 1.275
-51.675 121.575 1.275
-51.675 121.575 2.025
-44.775 121.575 1.875
-44.775 121.575 1.425
-53.925 120.375 1.125
-53.925 120.375 1.875
-50.775 121.875 2.325
-50.775 121.875 2.625
-50.775 121.875 -0.525
-50.775 121.875 0.375
-45.675 121.875 3.975
-49.125 122.175 -0.375
-49.125 122.175 1.725
-47.325 122.175 2.625
-52.725 121.125 2.025
-52.725 121.125 1.875
-52.425 121.275 3.075
-50.175 122.025 1.875
-50.175 122.025 0.375
-50.175 122.025 -0.375
-50.175 122.025 -0.675
-50.175 122.025 2.325
-50.175 122.025 2.025
-46.275 122.025 2.175
-46.275 122.025 2.475
-53.025 120.975 2.025
-53.025 120.975 2.325
-53.025 120.975 2.175
-49.275 122.175 2.475
-49.275 122.175 2.175
-47.175 122.175 2.475
-52.125 121.425 1.575
-54.375 120.075 1.275
-51.375 121.725 2.625
-45.075 121.725 2.325
-53.775 120.525 1.125
-49.425 122.175 2.475
-49.425 122.175 2.175
-53.325 120.825 2.175
-53.325 120.825 1.725
-50.325 122.025 1.875
-50.925 121.875 2.475
-50.925 121.875 2.625
-51.825 121.575 1.125
-51.825 121.575 0.225
-51.825 121.575 2.025
-49.575 122.175 -1.275
-49.575 122.175 -0.675
-49.575 122.175 2.475
-53.625 120.675 1.575
-50.475 122.025 1.875
-50.475 122.025 0.225
-50.475 122.025 2.025
-55.125 119.475 2.325
-49.725 122.175 -0.975
-49.725 122.175 2.625
-55.275 119.325 -1.125
-52.875 121.125 2.025
-52.875 121.125 1.275
-51.525 121.725 -1.125
-52.275 121.425 2.325
-54.825 119.775 1.125
-54.825 119.775 1.425
-53.175 120.975 2.025
-56.775 117.375 -3.375
-49.875 122.175 -0.375
-49.875 122.175 -0.525
-49.875 122.175 -1.275
-49.875 122.175 2.475
-46.575 122.175 0.825
-44.475 121.575 1.275
-50.625 122.025 0.225
-50.625 122.025 1.275
-48.225 122.325 2.025
-48.375 122.325 -1.275
-53.925 120.525 1.575
-53.925 120.525 1.275
-53.925 120.525 0.825
-48.525 122.325 2.325
-47.925 122.325 -0.825
-53.475 120.825 1.575
-53.475 120.825 1.275
-53.475 120.825 -0.825
-54.525 120.075 1.875
-54.525 120.075 1.575
-48.675 122.325 1.275
-47.775 122.325 -1.125
-50.025 122.175 3.225
-50.025 122.175 2.475
-50.025 122.175 2.625
-50.025 122.175 -0.975
-50.025 122.175 2.325
-45.225 121.875 1.125
-51.225 121.875 1.425
-48.825 122.325 2.175
-48.825 122.325 0.375
-47.625 122.325 2.625
-47.625 122.325 3.675
-51.675 121.725 -0.825
-51.675 121.725 -1.575
-51.675 121.725 -0.075
-51.675 121.725 -1.275
-51.675 121.725 -1.425
-44.775 121.725 2.025
-48.975 122.325 2.325
-47.475 122.325 3.075
-52.725 121.275 0.225
-52.725 121.275 2.175
-52.425 121.425 -1.125
-42.075 120.225 -1.575
-50.775 122.025 -0.825
-50.775 122.025 -0.975
-50.775 122.025 -1.125
-53.025 121.125 1.875
-53.025 121.125 1.725
-53.025 121.125 2.025
-49.125 122.325 -0.375
-49.125 122.325 2.475
-47.325 122.325 2.925
-50.175 122.175 -1.575
-50.175 122.175 0.225
-46.275 122.175 2.475
-53.325 120.975 2.025
-54.225 120.375 1.575
-51.375 121.875 2.475
-45.075 121.875 2.175
-51.825 121.725 -0.375
-51.825 121.725 2.475
-55.125 119.625 0.675
-49.425 122.325 -0.525
-49.425 122.325 2.775
-49.425 122.325 2.325
-47.025 122.325 1.875
-50.925 122.025 2.625
-50.325 122.175 -0.075
-50.325 122.175 -1.125
-50.325 122.175 0.675
-50.325 122.175 3.075
-50.325 122.175 0.375
-54.975 119.775 2.025
-53.625 120.825 1.725
-53.625 120.825 1.425
-53.625 120.825 1.275
-54.825 119.925 1.125
-54.825 119.925 1.575
-55.725 119.025 2.775
-46.875 122.325 1.125
-49.575 122.325 -0.525
-54.075 120.525 1.875
-54.075 120.525 1.575
-52.575 121.425 -1.125
-52.575 121.425 2.325
-52.875 121.275 -0.075
-50.475 122.175 -1.125
-50.475 122.175 0.825
-50.475 122.175 1.425
-55.875 118.875 2.325
-54.675 120.075 1.875
-52.275 121.575 2.325
-44.175 121.575 0.375
-53.175 121.125 2.025
-51.525 121.875 3.075
-44.925 121.875 2.175
-46.725 122.325 1.275
-54.525 120.225 1.425
-53.925 120.675 2.175
-51.975 121.725 2.925
-53.475 120.975 1.875
-49.875 122.325 2.325
-49.875 122.325 -0.825
-50.625 122.175 1.575
-50.625 122.175 0.825
-50.625 122.175 -1.125
-50.625 122.175 -0.975
-48.225 122.475 1.725
-48.075 122.475 2.025
-48.075 122.475 -0.975
-48.075 122.475 2.175
-54.375 120.375 1.875
-48.525 122.475 2.025
-48.525 122.475 -0.825
-48.675 122.475 -0.375
-51.675 121.875 2.925
-51.675 121.875 2.625
-50.025 122.325 -0.825
-50.025 122.325 -0.375
-50.025 122.325 -0.675
-50.025 122.325 -1.275
-48.825 122.475 -0.525
-47.625 122.475 2.025
-47.625 122.475 3.075
-57.075 117.225 -2.775
-52.425 121.575 2.325
-53.775 120.825 1.725
-55.275 119.625 0.975
-55.275 119.625 1.575
-55.275 119.625 3.375
-48.975 122.475 0.375
-47.475 122.475 2.625
-50.775 122.175 -1.425
-50.775 122.175 -2.325
-50.775 122.175 1.725
-54.225 120.525 2.325
-55.125 119.775 2.325
-55.125 119.775 0.525
-55.125 119.775 0.675
-55.125 119.775 1.875
-52.125 121.725 1.125
-52.125 121.725 2.325
-53.325 121.125 1.425
-53.325 121.125 2.025
-53.325 121.125 0.375
-53.325 121.125 2.175
-53.325 121.125 1.875
-49.125 122.475 0.375
-49.125 122.475 -0.975
-49.125 122.475 1.875
-49.125 122.475 -0.825
-54.975 119.925 1.275
-54.975 119.925 1.425
-54.975 119.925 1.575
-50.175 122.325 -0.675
-51.375 122.025 1.875
-49.275 122.475 2.475
-49.275 122.475 0.825
-42.825 120.975 -3.075
-51.825 121.875 1.725
-54.075 120.675 2.025
-50.325 122.325 -1.125
-50.325 122.325 2.025
-54.675 120.225 1.575
-54.675 120.225 1.425
-49.425 122.475 0.075
-49.425 122.475 0.375
-52.875 121.425 -0.225
-49.575 122.475 1.875
-49.575 122.475 2.475
-53.175 121.275 2.175
-52.275 121.725 -0.525
-52.275 121.725 -0.225
-52.275 121.725 1.875
-54.525 120.375 1.575
-54.525 120.375 -0.075
-54.525 120.375 2.325
-53.925 120.825 1.725
-51.525 122.025 -0.525
-50.475 122.325 1.725
-50.475 122.325 1.575
-51.075 122.175 -1.725
-51.075 122.175 1.725
-51.075 122.175 2.025
-51.075 122.175 1.875
-49.725 122.475 2.925
-49.725 122.475 -1.275
-53.475 121.125 0.975
-53.475 121.125 1.875
-53.475 121.125 1.725
-53.475 121.125 1.125
-51.975 121.875 -0.375
-54.375 120.525 1.875
-54.375 120.525 2.175
-50.625 122.325 1.575
-55.125 119.925 1.725
-55.725 119.325 2.325
-53.775 120.975 2.175
-53.775 120.975 2.325
-53.775 120.975 2.775
-53.775 120.975 1.875
-53.775 120.975 2.025
-42.675 120.975 3.975
-52.725 121.575 -0.075
-48.225 122.625 2.025
-48.075 122.625 3.675
-48.375 122.625 -0.375
-48.375 122.625 2.175
-51.675 122.025 -0.525
-51.675 122.025 0.375
-55.875 119.175 1.125
-52.425 121.725 -0.675
-44.025 121.725 0.375
-44.025 121.725 0.675
-48.525 122.625 -0.075
-48.675 122.625 2.325
-48.825 122.625 -0.525
-52.125 121.875 1.575
-52.125 121.875 1.425
-48.975 122.625 2.625
-47.475 122.625 2.025
-47.475 122.625 1.875
-47.475 122.625 2.325
-54.075 120.825 1.575
-54.075 120.825 3.975
-54.075 120.825 2.025
-50.175 122.475 0.225
-46.275 122.475 2.625
-46.275 122.475 2.925
-54.675 120.375 -0.075
-54.675 120.375 1.125
-53.625 121.125 3.075
-53.625 121.125 2.025
-49.125 122.625 0.375
-49.125 122.625 -0.675
-51.375 122.175 -0.225
-51.825 122.025 0.375
-51.825 122.025 2.625
-49.275 122.625 -0.975
-49.275 122.625 -0.825
-49.275 122.625 0.375
-50.925 122.325 -1.125
-50.325 122.475 -0.675
-50.325 122.475 1.875
-52.575 121.725 1.875
-43.875 121.725 0.675
-49.425 122.625 0.375
-49.425 122.625 2.175
-53.175 121.425 2.325
-53.175 121.425 2.175
-53.175 121.425 2.625
-53.175 121.425 2.775
-52.275 121.875 1.725
-49.575 122.625 -0.975
-49.575 122.625 -0.675
-55.425 119.775 1.575
-55.425 119.775 1.125
-55.575 119.625 1.725
-53.475 121.275 -0.975
-53.475 121.275 0.825
-53.475 121.275 -1.125
-55.275 119.925 0.825
-55.275 119.925 1.725
-55.725 119.475 2.325
-51.525 122.175 2.025
-51.525 122.175 0.375
-51.525 122.175 1.875
-51.525 122.175 -0.225
-55.125 120.075 1.875
-55.125 120.075 1.725
-51.075 122.325 -2.325
-51.075 122.325 2.175
-51.075 122.325 -1.575
-51.075 122.325 1.425
-51.975 122.025 1.725
-51.975 122.025 -0.075
-46.725 122.625 3.675
-49.725 122.625 -1.125
-54.975 120.225 1.725
-54.975 120.225 2.175
-53.775 121.125 4.275
-54.225 120.825 1.875
-54.225 120.825 2.025
-52.725 121.725 2.325
-50.625 122.475 2.025
-54.825 120.375 0.525
-53.025 121.575 2.625
-53.025 121.575 1.575
-53.025 121.575 -0.975
-52.425 121.875 1.875
-52.425 121.875 0.075
-51.675 122.175 0.375
-51.675 122.175 -0.375
-51.675 122.175 0.525
-57.225 117.525 -3.375
-51.225 122.325 -0.225
-51.225 122.325 2.175
-48.225 122.775 2.475
-48.075 122.775 2.325
-48.075 122.775 3.075
-48.375 122.775 -1.125
-48.375 122.775 2.175
-48.375 122.775 3.075
-54.675 120.525 2.025
-48.525 122.775 2.325
-50.025 122.625 -1.425
-54.075 120.975 1.725
-56.775 118.275 3.825
-47.775 122.775 2.775
-48.675 122.775 2.475
-52.125 122.025 1.725
-52.125 122.025 0.525
-50.775 122.475 2.025
-50.775 122.475 2.475
-47.475 122.775 0.075
-47.475 122.775 2.625
-48.975 122.775 2.775
-54.525 120.675 1.875
-54.525 120.675 1.725
-50.175 122.625 -1.425
-50.175 122.625 -1.125
-51.375 122.325 2.175
-51.375 122.325 2.475
-51.375 122.325 0.375
-45.075 122.325 -1.275
-51.825 122.175 2.025
-55.575 119.775 1.575
-55.425 119.925 2.025
-55.425 119.925 1.725
-55.425 119.925 2.325
-55.725 119.625 1.425
-55.725 119.625 2.025
-52.875 121.725 -0.225
-55.875 119.475 1.575
-55.275 120.075 0.825
-55.275 120.075 1.875
-52.575 121.875 -0.375
-49.275 122.775 0.375
-49.275 122.775 -0.825
-50.925 122.475 -0.975
-50.925 122.475 2.025
-50.925 122.475 -2.025
-54.375 120.825 2.025
-55.125 120.225 1.575
-55.125 120.225 1.725
-50.325 122.625 2.175
-50.325 122.625 2.025
-53.475 121.425 -0.825
-53.475 121.425 2.475
-52.275 122.025 -0.525
-52.275 122.025 -0.675
-49.425 122.775 0.375
-44.175 122.025 0.825
-54.975 120.375 1.725
-54.975 120.375 2.325
-51.525 122.325 2.025
-51.525 122.325 0.675
-51.525 122.325 0.825
-51.525 122.325 2.175
-49.575 122.775 0.825
-49.575 122.775 2.175
-49.575 122.775 0.375
-54.225 120.975 1.575
-54.225 120.975 1.875
-56.775 118.425 3.825
-50.475 122.625 -0.675
-51.075 122.475 2.025
-51.075 122.475 -0.825
-57.075 117.975 3.525
-51.975 122.175 0.225
-54.825 120.525 2.475
-49.725 122.775 0.075
-49.725 122.775 0.375
-49.725 122.775 0.825
-49.725 122.775 -0.675
-49.725 122.775 1.875
-46.725 122.775 2.625
-52.725 121.875 1.725
-52.725 121.875 -0.075
-53.325 121.575 2.775
-53.325 121.575 1.875
-50.625 122.625 -0.825
-50.625 122.625 2.175
-52.425 122.025 2.175
-52.425 122.025 -0.675
-49.875 122.775 -0.525
-49.875 122.775 -0.225
-49.875 122.775 -0.675
-49.875 122.775 0.375
-54.075 121.125 2.025
-51.675 122.325 2.025
-51.675 122.325 0.825
-51.225 122.475 2.025
-51.225 122.475 2.175
-51.225 122.475 2.925
-51.225 122.475 -1.725
-51.225 122.475 -0.375
-45.225 122.475 3.525
-53.625 121.425 2.775
-53.625 121.425 -0.525
-53.625 121.425 1.725
-48.075 122.925 2.625
-52.125 122.175 -0.675
-48.375 122.925 3.975
-52.125 122.175 -0.825
-52.125 122.175 -0.525
-55.575 119.925 0.975
-55.725 119.775 0.825
-55.875 119.625 1.725
-55.875 119.625 2.025
-55.425 120.075 0.825
-55.425 120.075 1.425
-47.775 122.925 0.075
-55.275 120.225 2.175
-55.275 120.225 1.425
-50.775 122.625 2.175
-50.775 122.625 2.625
-48.825 122.925 3.225
-48.825 122.925 0.075
-48.975 122.925 1.275
-55.125 120.375 2.175
-55.125 120.375 2.325
-53.925 121.275 1.725
-53.925 121.275 2.625
-51.375 122.475 -0.075
-51.375 122.475 0.375
-51.375 122.475 -0.525
-51.375 122.475 2.925
-45.075 122.475 2.025
-52.875 121.875 1.875
-50.175 122.775 1.875
-51.825 122.325 0.075
-51.825 122.325 2.175
-51.825 122.325 1.875
-53.175 121.725 -0.075
-53.175 121.725 2.025
-53.175 121.725 1.875
-53.175 121.725 0.375
-49.125 122.925 2.025
-49.125 122.925 -0.225
-52.575 122.025 -0.375
-52.575 122.025 2.175
-52.575 122.025 -0.225
-52.575 122.025 1.875
-43.875 122.025 0.375
-54.975 120.525 2.325
-53.475 121.575 2.925
-53.475 121.575 1.875
-53.475 121.575 -0.225
-50.925 122.625 -0.225
-50.925 122.625 2.175
-49.275 122.925 2.925
-49.275 122.925 -0.525
-52.275 122.175 -0.525
-54.825 120.675 2.325
-49.425 122.925 1.875
-49.425 122.925 0.675
-49.425 122.925 3.225
-49.425 122.925 2.175
-49.425 122.925 -0.525
-54.225 121.125 2.025
-53.775 121.425 1.875
-49.575 122.925 2.025
-51.975 122.325 2.025
-51.975 122.325 -0.675
-54.675 120.825 -1.275
-51.075 122.625 -0.375
-51.075 122.625 -0.075
-51.075 122.625 2.325
-50.475 122.775 -0.975
-52.725 122.025 -0.375
-52.725 122.025 1.875
-52.725 122.025 -0.825
-53.325 121.725 2.775
-49.725 122.925 0.375
-55.725 119.925 0.675
-55.575 120.075 0.975
-55.575 120.075 1.875
-55.875 119.775 1.275
-54.075 121.275 1.725
-54.075 121.275 3.225
-56.025 119.625 1.575
-52.425 122.175 -0.525
-52.425 122.175 2.775
-54.525 120.975 3.525
-53.625 121.575 -1.125
-53.625 121.575 2.025
-53.625 121.575 -1.275
-53.625 121.575 -0.375
-50.625 122.775 -0.975
-50.625 122.775 -0.825
-55.275 120.375 1.875
-55.275 120.375 2.025
-49.875 122.925 3.075
-51.225 122.625 -1.125
-52.125 122.325 2.325
-52.125 122.325 -1.275
-53.925 121.425 3.075
-50.025 122.925 1.875
-50.025 122.925 0.075
-54.375 121.125 -1.425
-54.975 120.675 2.175
-48.675 123.075 0.075
-48.675 123.075 1.875
-47.775 123.075 2.925
-47.775 123.075 2.475
-52.875 122.025 -0.375
-53.175 121.875 2.475
-53.175 121.875 -0.375
-44.625 122.475 2.625
-44.625 122.475 1.275
-51.825 122.475 -0.525
-51.375 122.625 2.175
-52.575 122.175 -0.375
-48.975 123.075 0.225
-53.475 121.725 -0.375
-53.475 121.725 -3.375
-53.475 121.725 1.425
-53.475 121.725 2.775
-57.525 117.675 1.725
-50.175 122.925 0.075
-54.225 121.275 1.425
-50.925 122.775 1.725
-53.775 121.575 2.775
-49.275 123.075 1.275
-54.675 120.975 3.675
-54.675 120.975 1.725
-55.875 119.925 1.425
-55.725 120.075 0.975
-55.725 120.075 0.675
-55.575 120.225 1.875
-55.575 120.225 0.525
-56.025 119.775 0.975
-56.025 119.775 1.275
-56.025 119.775 1.575
-49.425 123.075 1.125
-49.425 123.075 2.925
-51.525 122.625 -0.975
-51.525 122.625 -0.675
-51.525 122.625 2.325
-55.425 120.375 2.025
-51.975 122.475 -0.525
-51.975 122.475 -0.825
-53.025 122.025 0.375
-53.025 122.025 -0.225
-54.075 121.425 -0.675
-49.575 123.075 2.475
-49.575 123.075 1.875
-49.575 123.075 -0.375
-49.575 123.075 2.025
-49.575 123.075 2.325
-56.325 119.475 1.125
-52.725 122.175 -0.375
-50.475 122.925 2.025
-53.325 121.875 -0.525
-53.325 121.875 1.875
-53.325 121.875 -0.375
-55.275 120.525 2.475
-52.425 122.325 -0.225
-52.425 122.325 -0.825
-55.125 120.675 1.725
-51.675 122.625 -0.975
-51.675 122.625 2.025
-51.225 122.775 2.475
-51.225 122.775 2.925
-51.225 122.775 -0.225
-54.375 121.275 2.025
-49.875 123.075 -0.525
-49.875 123.075 2.025
-49.875 123.075 2.925
-54.375 121.275 -0.375
-52.125 122.475 2.325
-57.375 118.125 2.625
-53.925 121.575 -1.275
-48.075 123.225 2.625
-54.825 120.975 2.925
-50.025 123.075 3.525
-53.175 122.025 2.625
-52.875 122.175 -0.525
-52.875 122.175 -0.825
-52.875 122.175 -0.975
-52.875 122.175 0.375
-50.775 122.925 3.225
-53.475 121.875 -1.275
-53.475 121.875 -0.375
-53.475 121.875 -0.525
-53.475 121.875 1.875
-48.825 123.225 2.925
-48.825 123.225 2.325
-54.225 121.425 -0.525
-54.225 121.425 1.875
-55.875 120.075 1.875
-56.025 119.925 0.975
-55.725 120.225 1.275
-56.175 119.775 0.975
-55.575 120.375 2.475
-50.175 123.075 2.325
-53.775 121.725 -0.525
-53.775 121.725 -1.125
-52.275 122.475 1.725
-49.125 123.225 0.525
-55.425 120.525 1.875
-49.275 123.225 3.225
-50.325 123.075 0.375
-50.325 123.075 0.975
-50.325 123.075 0.825
-50.325 123.075 0.075
-57.375 118.275 2.175
-54.525 121.275 2.025
-54.525 121.275 1.875
-51.525 122.775 -1.575
-53.025 122.175 0.375
-55.125 120.825 -1.875
-55.125 120.825 1.725
-53.325 122.025 -0.675
-53.325 122.025 -1.125
-53.325 122.025 -0.525
-52.725 122.325 0.525
-52.725 122.325 0.075
-53.625 121.875 -0.525
-50.475 123.075 0.375
-52.425 122.475 -0.675
-44.025 122.475 0.075
-54.975 120.975 0.825
-54.375 121.425 2.475
-54.375 121.425 2.625
-54.375 121.425 1.875
-49.725 123.225 -0.375
-49.725 123.225 0.075
-49.725 123.225 2.175
-53.925 121.725 -0.075
-53.925 121.725 -0.525
-51.675 122.775 -0.675
-50.625 123.075 2.025
-50.625 123.075 0.975
-51.225 122.925 -0.525
-51.225 122.925 -0.225
-51.225 122.925 -0.825
-52.125 122.625 1.275
-54.825 121.125 1.875
-54.825 121.125 1.725
-55.875 120.225 1.425
-55.875 120.225 0.975
-55.875 120.225 2.175
-55.875 120.225 1.725
-56.025 120.075 1.125
-56.025 120.075 0.975
-56.025 120.075 1.425
-56.175 119.925 0.975
-56.175 119.925 0.825
-55.725 120.375 2.325
-55.725 120.375 2.175
-55.725 120.375 2.475
-55.725 120.375 1.725
-52.875 122.325 2.175
-52.875 122.325 -0.675
-52.875 122.325 0.975
-52.875 122.325 0.375
-52.875 122.325 0.825
-56.325 119.775 0.825
-55.575 120.525 2.325
-54.225 121.575 1.575
-54.225 121.575 2.325
-53.475 122.025 -0.525
-53.475 122.025 2.475
-50.025 123.225 0.375
-50.025 123.225 2.325
-55.425 120.675 4.125
-56.475 119.625 1.725
-52.575 122.475 -0.525
-52.575 122.475 -1.275
-48.075 123.375 3.225
-51.825 122.775 0.225
-51.825 122.775 -0.225
-53.775 121.875 2.325
-53.775 121.875 2.475
-50.175 123.225 0.375
-50.175 123.225 -0.225
-52.275 122.625 0.975
-52.275 122.625 0.525
-52.275 122.625 0.825
-52.275 122.625 2.175
-54.525 121.425 -1.425
-54.525 121.425 1.725
-55.125 120.975 2.775
-47.325 123.375 3.675
-57.525 118.275 2.625
-57.525 118.275 2.325
-50.925 123.075 0.975
-50.925 123.075 3.075
-50.925 123.075 -0.675
-50.925 123.075 2.775
-49.275 123.375 2.025
-49.275 123.375 3.075
-49.275 123.375 2.325
-47.175 123.375 2.475
-58.125 117.225 2.025
-50.325 123.225 2.325
-53.025 122.325 2.625
-53.025 122.325 3.525
-52.725 122.475 2.175
-52.725 122.475 0.375
-54.975 121.125 2.175
-49.425 123.375 -0.375
-56.025 120.225 1.275
-56.025 120.225 2.025
-52.425 122.625 -0.375
-52.425 122.625 0.075
-52.425 122.625 0.375
-52.425 122.625 2.475
-52.425 122.625 1.725
-52.425 122.625 -0.075
-50.475 123.225 0.675
