# .PCD v0.7 - Point Cloud Data file format
VERSION 0.7
FIELDS x y z
SIZE 4 4 4
TYPE F F F
COUNT 1 1 1
WIDTH 2048
HEIGHT 1
VIEWPOINT 0 0 0 1 0 0 0
POINTS 2048
DATA ascii
-72.825 29.325 0.975
-72.825 29.325 0.825
-72.975 29.325 0.675
-72.975 29.325 0.825
-72.975 29.325 0.975
-72.825 29.175 0.975
-72.825 29.175 1.125
-72.825 29.475 0.825
-72.825 29.475 0.675
-72.675 29.325 0.675
-72.675 29.325 0.825
-72.975 29.175 1.125
-72.975 29.475 0.825
-72.975 29.475 0.975
-72.675 29.175 1.725
-72.675 29.475 0.825
-72.675 29.475 0.675
-72.525 29.325 0.375
-72.525 29.325 1.425
-72.525 29.325 0.525
-73.125 29.325 0.975
-72.525 29.325 0.975
-72.825 29.025 0.975
-72.525 29.175 0.825
-72.525 29.175 0.075
-72.525 29.175 0.225
-72.975 29.025 0.825
-73.125 29.175 1.125
-73.125 29.475 0.825
-73.125 29.475 0.525
-73.125 29.475 1.125
-73.125 29.025 1.125
-72.525 29.025 0.825
-72.525 29.025 1.275
-72.825 28.875 0.975
-72.375 29.325 1.125
-73.275 29.325 1.125
-72.375 29.325 -1.575
-72.375 29.325 0.675
-72.975 28.875 0.825
-72.975 29.775 0.375
-72.675 28.875 -0.075
-72.675 28.875 0.675
-72.375 29.175 1.125
-72.375 29.175 0.825
-72.375 29.175 0.525
-73.275 29.475 1.275
-73.275 29.475 0.825
-73.275 29.475 0.975
-73.125 28.875 0.675
-73.125 28.875 1.875
-73.125 28.875 1.725
-73.125 29.775 1.425
-73.125 28.875 0.825
-73.275 29.025 0.675
-72.375 29.025 1.125
-73.275 29.625 1.575
-73.425 29.325 0.525
-73.425 29.325 0.825
-72.825 28.725 0.975
-72.825 28.725 2.325
-72.225 29.325 0.675
-72.225 29.325 1.125
-72.225 29.325 1.575
-73.425 29.175 1.125
-73.425 29.475 0.975
-73.425 29.475 0.525
-72.975 28.725 0.825
-72.975 28.725 0.975
-72.675 28.725 0.825
-72.975 29.925 0.975
-72.225 29.175 1.125
-72.225 29.175 0.525
-72.225 29.475 1.125
-72.375 28.875 0.375
-73.275 28.875 0.975
-73.275 28.875 2.025
-73.275 28.875 0.825
-73.425 29.025 0.525
-73.425 29.025 0.075
-73.425 29.025 0.975
-73.425 29.025 1.275
-73.125 28.725 0.825
-73.125 29.925 1.125
-72.225 29.025 1.575
-72.225 29.025 1.275
-72.225 29.025 0.825
-72.225 29.025 0.975
-73.425 28.875 0.225
-73.425 28.875 0.825
-73.425 29.775 1.575
-73.425 28.875 1.125
-72.375 28.725 0.525
-73.575 29.325 0.525
-72.825 30.075 0.975
-72.375 28.725 0.825
-73.575 29.325 0.675
-73.575 29.325 0.825
-73.275 28.725 0.975
-73.575 29.325 0.375
-72.075 29.325 1.275
-72.825 28.575 0.975
-73.575 29.325 3.525
-72.825 28.575 -0.525
-72.975 28.575 0.975
-72.975 28.575 0.525
-73.575 29.175 0.525
-72.075 29.175 1.125
-73.575 29.475 0.525
-73.575 29.475 0.825
-73.575 29.475 0.675
-72.675 28.575 1.125
-73.125 30.075 1.275
-73.125 28.575 -1.575
-73.125 28.575 1.875
-72.525 28.575 0.825
-73.575 29.025 1.125
-73.575 29.025 0.975
-73.575 29.025 0.075
-73.575 29.625 2.175
-72.075 29.025 1.575
-73.575 29.025 1.425
-73.575 29.025 1.275
-72.225 28.725 1.425
-73.575 28.875 1.575
-73.575 29.775 0.825
-73.575 29.775 2.775
-73.575 28.875 0.525
-73.575 28.875 0.975
-72.075 28.875 0.825
-73.275 28.575 -3.375
-72.375 28.575 0.975
-73.725 29.325 0.975
-73.725 29.325 0.525
-73.725 29.325 0.375
-72.825 28.425 2.175
-72.825 28.425 1.275
-71.925 29.325 1.125
-73.725 29.175 0.675
-73.725 29.475 1.875
-72.975 28.425 1.125
-72.975 28.425 0.525
-72.675 28.425 0.975
-71.925 29.175 1.125
-71.925 29.175 0.825
-73.725 29.025 3.675
-73.725 29.025 -0.075
-73.725 29.025 0.675
-73.725 29.025 0.825
-73.725 29.025 1.125
-72.525 28.425 0.825
-73.125 30.225 1.125
-71.925 29.025 0.825
-71.925 29.025 2.475
-73.425 30.075 1.425
-73.425 28.575 -0.525
-73.425 28.575 0.825
-72.075 28.725 0.675
-72.075 28.725 1.125
-73.575 28.725 0.675
-73.575 29.925 1.425
-72.225 28.575 1.125
-73.725 29.775 1.275
-73.725 29.775 1.575
-73.725 28.875 0.675
-73.725 28.875 1.725
-73.725 28.875 1.275
-73.275 28.425 0.075
-72.375 28.425 1.725
-72.375 28.425 1.125
-72.375 28.425 0.975
-72.375 28.425 0.825
-71.925 28.875 1.125
-71.925 28.875 1.875
-71.925 28.875 0.825
-73.875 29.325 0.825
-73.875 29.325 0.675
-73.875 29.325 0.525
-72.825 28.275 0.675
-73.875 29.175 0.675
-71.775 29.175 1.725
-73.875 29.175 0.075
-73.875 29.175 -0.225
-71.775 29.175 2.625
-73.875 29.175 0.825
-73.875 29.475 0.225
-73.875 29.475 0.525
-72.975 30.375 0.825
-72.975 28.275 3.975
-72.075 28.575 1.725
-73.575 30.075 1.875
-72.075 28.575 -1.575
-72.675 28.275 -1.425
-73.725 28.725 1.275
-73.725 29.925 0.675
-73.425 28.425 1.275
-73.425 28.425 -0.075
-72.225 28.425 1.125
-72.225 28.425 1.425
-72.225 28.425 -0.675
-71.775 29.025 0.975
-73.875 29.025 1.425
-73.875 29.625 0.975
-73.875 29.025 0.975
-71.775 29.025 1.725
-73.875 29.625 0.225
-72.525 28.275 -0.825
-73.875 28.875 1.125
-73.875 28.875 1.425
-71.775 28.875 1.875
-71.775 28.875 0.975
-73.875 28.875 1.875
-73.275 28.275 0.825
-73.275 30.375 1.425
-73.275 28.275 0.225
-73.275 28.275 2.325
-73.725 28.575 1.575
-73.725 28.575 2.025
-73.725 28.575 0.525
-72.075 28.425 0.975
-73.575 28.425 1.125
-72.075 28.425 1.125
-71.625 29.325 0.075
-74.025 29.325 0.675
-71.775 28.725 1.575
-73.875 28.725 1.425
-73.425 28.275 0.075
-73.875 29.925 1.125
-73.875 29.925 1.425
-72.975 28.125 1.275
-72.975 28.125 0.675
-72.975 28.125 -0.075
-72.675 28.125 1.425
-72.675 28.125 -2.025
-72.675 28.125 1.275
-74.025 29.175 1.125
-74.025 29.475 0.975
-74.025 29.475 0.825
-72.225 28.275 0.075
-72.225 28.275 0.525
-72.525 28.125 -0.075
-73.125 28.125 1.275
-73.125 28.125 0.825
-72.525 28.125 1.125
-72.525 28.125 0.075
-71.625 29.025 0.975
-73.725 28.425 1.125
-73.725 28.425 1.275
-73.275 28.125 0.825
-72.375 28.125 0.675
-72.375 28.125 0.225
-73.275 30.525 1.425
-74.025 28.875 1.125
-71.625 28.875 1.125
-74.025 28.875 1.875
-74.025 28.875 0.975
-71.775 28.575 0.825
-73.875 28.575 -2.325
-73.875 28.575 -0.525
-71.775 28.575 0.975
-73.575 28.275 1.275
-73.575 28.275 -2.175
-72.075 28.275 0.675
-72.075 28.275 0.825
-74.025 28.725 3.525
-71.625 28.725 0.675
-72.225 28.125 -1.275
-72.225 28.125 0.825
-74.175 29.325 0.225
-74.175 29.325 0.675
-74.175 29.325 1.125
-74.175 29.325 0.825
-72.825 27.975 -0.375
-71.475 29.325 1.725
-74.175 29.475 0.675
-72.975 27.975 0.375
-72.975 27.975 1.425
-72.975 27.975 -0.225
-72.675 27.975 0.075
-72.675 27.975 1.275
-71.475 29.175 2.925
-74.175 29.025 1.425
-74.175 29.625 0.525
-74.175 29.025 1.275
-74.175 29.625 0.975
-73.725 28.275 -1.875
-73.725 28.275 1.275
-73.875 28.425 0.675
-73.125 27.975 1.275
-73.125 27.975 0.825
-72.525 27.975 -0.675
-73.125 27.975 0.075
-72.525 27.975 0.975
-73.125 27.975 0.375
-73.125 27.975 0.525
-71.475 29.025 1.125
-71.475 29.025 0.975
-72.075 28.125 0.975
-73.575 28.125 -2.925
-74.025 28.575 -0.525
-74.025 28.575 1.575
-74.175 28.875 1.575
-74.175 29.775 2.025
-74.175 28.875 0.975
-72.375 27.975 2.175
-72.375 27.975 0.075
-73.275 27.975 0.825
-72.375 27.975 0.825
-72.375 27.975 1.275
-71.475 28.875 1.425
-71.475 28.875 0.975
-71.475 28.875 0.825
-74.175 28.725 0.525
-72.225 27.975 0.975
-72.225 27.975 1.425
-71.475 28.725 0.825
-71.475 28.725 1.275
-71.475 28.725 1.425
-71.775 28.275 1.125
-73.875 28.275 0.825
-73.875 28.275 1.575
-73.875 28.275 2.325
-73.875 28.275 1.275
-71.775 28.275 1.575
-73.875 28.275 2.025
-73.875 28.275 0.225
-73.725 28.125 1.275
-74.325 29.325 0.825
-72.825 27.825 1.725
-72.825 27.825 1.875
-74.325 29.325 0.375
-71.625 28.425 1.125
-74.025 28.425 0.075
-71.625 30.225 0.525
-72.975 27.825 0.675
-71.325 29.175 2.325
-74.325 29.475 0.675
-74.325 29.475 1.125
-74.325 29.475 0.825
-72.525 27.825 -0.675
-72.525 27.825 1.575
-73.125 27.825 0.525
-72.525 27.825 0.825
-72.525 27.825 1.875
-74.325 29.025 1.425
-74.325 29.625 1.275
-71.325 29.025 1.125
-74.325 29.025 1.275
-71.325 29.025 1.425
-71.325 29.025 0.975
-74.175 30.075 0.825
-74.175 28.575 1.275
-72.075 27.975 1.575
-72.075 27.975 1.275
-73.575 27.975 1.575
-73.575 27.975 0.675
-73.575 27.975 0.375
-73.575 27.975 0.525
-71.475 28.575 0.975
-71.325 28.875 1.275
-74.325 29.775 0.525
-74.325 29.775 0.825
-72.375 27.825 0.825
-72.375 27.825 0.675
-72.375 27.825 0.975
-73.275 27.825 0.975
-72.375 27.825 0.375
-72.375 27.825 0.225
-72.375 27.825 0.525
-73.875 28.125 2.025
-71.775 28.125 1.425
-73.875 28.125 1.125
-71.625 28.275 0.975
-71.625 28.275 1.275
-74.025 28.275 0.675
-71.625 30.375 1.725
-73.425 27.825 -0.375
-73.425 27.825 -0.075
-73.425 27.825 -0.975
-73.425 27.825 0.375
-71.325 28.725 0.525
-74.325 28.725 1.425
-74.325 28.725 0.675
-71.325 28.725 1.425
-74.325 28.725 0.825
-74.325 29.925 1.875
-74.325 29.925 0.975
-72.225 27.825 1.125
-73.725 27.975 0.975
-74.175 28.425 1.125
-74.175 30.225 -1.275
-71.925 27.975 0.975
-71.475 28.425 0.675
-71.475 30.225 0.375
-72.825 27.675 1.725
-72.825 27.675 -3.525
-71.175 29.325 1.125
-74.475 29.175 0.675
-74.475 29.175 -0.225
-74.475 29.175 0.525
-74.475 29.475 -0.975
-74.475 29.475 -0.825
-74.475 29.475 1.125
-74.475 29.475 0.675
-72.975 27.675 1.725
-72.975 27.675 0.675
-72.675 27.675 0.525
-72.675 27.675 2.775
-72.675 27.675 0.225
-71.175 29.475 1.125
-74.475 29.625 0.675
-73.125 27.675 1.725
-73.125 27.675 1.875
-73.125 27.675 0.525
-72.525 27.675 0.525
-73.575 27.825 0.675
-74.325 28.575 0.675
-73.575 27.825 -3.075
-71.325 28.575 0.975
-71.175 29.025 1.275
-71.625 28.125 1.575
-71.625 28.125 0.825
-74.025 28.125 1.725
-74.025 28.125 0.675
-71.625 28.125 1.275
-74.025 28.125 0.525
-74.025 28.125 0.075
-74.025 28.125 -2.475
-74.475 29.775 0.825
-74.175 28.275 0.825
-71.775 27.975 0.825
-73.275 27.675 0.525
-73.275 27.675 1.125
-73.275 30.975 -3.675
-71.175 28.875 1.275
-71.475 28.275 0.825
-71.475 28.275 1.125
-71.475 28.275 1.275
-73.725 27.825 0.525
-74.325 28.425 1.575
-71.925 27.825 0.525
-71.925 27.825 -0.225
-71.925 27.825 0.975
-72.225 27.675 3.075
-72.225 27.675 -0.225
-71.175 29.925 0.675
-74.625 29.325 0.675
-74.625 29.325 1.125
-71.025 29.325 1.125
-72.825 27.525 1.125
-72.825 27.525 0.975
-72.825 27.525 0.525
-74.175 28.125 0.825
-74.175 28.125 0.675
-74.175 28.125 0.075
-74.175 28.125 2.025
-74.625 29.175 0.675
-71.025 29.175 1.125
-71.025 29.175 -0.975
-71.025 29.175 1.575
-74.625 29.475 0.825
-74.025 27.975 2.025
-71.625 27.975 0.825
-72.675 27.525 2.475
-72.675 27.525 1.875
-71.475 28.125 0.675
-71.475 28.125 0.825
-74.475 30.075 -0.225
-74.475 28.575 1.575
-74.475 28.575 1.425
-72.075 27.675 1.425
-71.175 28.575 1.425
-74.625 29.025 0.825
-74.625 29.025 0.975
-74.625 29.025 1.575
-74.625 29.025 -0.225
-74.625 29.625 0.825
-74.625 29.625 0.075
-71.025 29.025 1.125
-71.025 29.625 1.125
-71.025 29.025 1.575
-73.125 27.525 1.125
-72.525 27.525 0.675
-73.125 27.525 -0.675
-72.525 27.525 -0.075
-73.125 27.525 -0.225
-73.875 27.825 0.525
-73.875 27.825 1.125
-71.775 27.825 1.275
-71.775 27.825 2.475
-71.775 27.825 0.975
-71.325 30.375 1.275
-71.325 28.275 0.225
-71.325 28.275 0.825
-74.625 28.875 1.425
-74.625 28.875 2.025
-74.625 28.875 0.975
-73.275 27.525 0.525
-72.375 27.525 0.375
-72.375 27.525 2.325
-73.275 31.125 -3.525
-74.475 28.425 -0.075
-74.475 28.425 1.575
-74.475 28.425 0.675
-74.475 28.425 1.275
-71.925 27.675 0.675
-71.175 28.425 0.525
-71.175 28.425 0.975
-71.175 28.425 -3.675
-74.625 28.725 1.425
-74.625 28.725 1.725
-71.025 28.725 1.575
-71.025 28.725 1.275
-74.625 29.925 -0.675
-73.425 31.125 1.725
-73.425 27.525 -0.225
-74.175 27.975 -0.225
-74.175 27.975 0.675
-71.475 27.975 1.725
-71.475 27.975 0.825
-71.475 27.975 1.875
-71.475 27.975 -0.675
-71.475 27.975 2.025
-74.325 28.125 0.225
-71.325 28.125 1.425
-71.325 28.125 0.675
-71.325 28.125 1.575
-74.325 30.525 -0.975
-74.025 27.825 -2.625
-71.625 27.825 -0.375
-71.625 27.825 1.425
-74.625 30.075 0.525
-71.025 28.575 2.925
-71.025 28.575 0.975
-74.625 28.575 1.725
-72.825 27.375 0.525
-72.075 27.525 1.725
-74.775 29.325 1.575
-74.775 29.325 1.725
-70.875 29.325 0.975
-70.875 29.325 1.125
-74.475 28.275 1.125
-74.475 28.275 1.275
-74.475 30.375 -0.975
-73.875 27.675 0.525
-73.875 27.675 -0.225
-73.875 27.675 2.025
-71.775 27.675 2.175
-71.775 27.675 -1.575
-72.975 27.375 0.525
-72.975 31.275 1.425
-70.875 29.175 1.725
-74.775 29.175 0.825
-74.775 29.175 0.975
-70.875 29.175 1.575
-74.775 29.475 0.375
-71.175 28.275 0.825
-73.125 27.375 1.125
-73.125 27.375 1.575
-70.875 29.025 1.425
-74.775 29.625 0.225
-70.875 29.025 0.975
-74.775 29.025 0.975
-74.775 29.025 0.825
-74.775 29.025 2.775
-74.775 29.025 1.425
-72.375 27.375 2.025
-72.375 27.375 -0.375
-73.275 27.375 0.975
-70.875 28.875 0.225
-70.875 28.875 1.575
-74.775 28.875 0.675
-74.775 28.875 1.425
-74.625 28.425 0.675
-74.625 28.425 -0.525
-73.725 27.525 -2.625
-74.175 27.825 0.525
-74.325 27.975 0.525
-71.325 27.975 -1.275
-74.325 27.975 0.975
-74.325 27.975 -0.375
-71.475 27.825 1.275
-71.475 27.825 0.975
-72.225 27.375 0.075
-72.225 27.375 0.375
-70.875 28.725 1.425
-70.875 28.725 1.125
-70.875 28.725 0.975
-74.775 28.725 1.425
-74.775 28.725 1.725
-74.775 28.725 1.575
-74.775 29.925 0.375
-71.175 28.125 0.225
-71.175 28.125 1.275
-74.625 28.275 0.825
-74.625 28.275 0.675
-71.025 28.275 0.975
-74.625 28.275 0.525
-72.075 27.375 -0.075
-72.075 27.375 1.875
-73.575 31.275 -3.675
-74.775 30.075 0.525
-70.875 28.575 0.975
-70.875 28.575 1.425
-74.925 29.325 0.375
-74.925 29.325 0.525
-74.925 29.325 0.975
-74.925 29.325 1.875
-74.925 29.175 1.275
-74.925 29.175 0.675
-74.925 29.175 0.225
-74.925 29.175 0.375
-74.925 29.175 1.575
-74.925 29.175 0.975
-72.975 27.225 1.575
-72.675 27.225 1.125
-70.725 29.175 1.125
-70.725 29.175 0.975
-70.725 29.175 1.425
-70.725 29.475 1.125
-74.925 29.625 1.125
-74.925 29.025 1.425
-74.925 29.025 2.175
-74.925 29.025 0.675
-72.525 27.225 -0.075
-73.125 27.225 0.525
-73.125 27.225 1.875
-71.325 27.825 -1.125
-74.325 27.825 0.525
-74.325 27.825 2.775
-74.475 27.975 1.125
-74.475 30.675 0.525
-74.175 27.675 2.025
-71.475 27.675 2.475
-71.475 27.675 0.825
-74.925 29.775 0.975
-74.925 29.775 1.125
-74.925 29.775 0.675
-74.925 29.775 0.825
-74.925 28.875 -0.075
-72.375 27.225 1.275
-72.375 27.225 0.075
-72.375 27.225 1.125
-71.925 27.375 -0.225
-70.875 28.425 1.275
-74.775 28.425 0.825
-74.775 28.425 -0.225
-70.725 28.875 1.575
-70.725 28.875 0.975
-71.025 28.125 0.675
-71.025 28.125 0.525
-74.025 27.525 0.525
-74.025 27.525 0.375
-74.925 28.725 0.225
-74.925 28.725 1.725
-74.925 28.725 0.375
-73.425 27.225 0.975
-72.225 27.225 0.675
-72.225 27.225 -0.075
-71.775 27.375 0.075
-70.875 28.275 1.275
-74.775 28.275 -0.825
-74.475 27.825 1.275
-74.475 27.825 -0.375
-74.475 27.825 0.525
-74.925 30.075 0.975
-72.075 27.225 0.675
-71.325 27.675 0.675
-71.325 27.675 0.825
-71.325 27.675 0.975
-71.175 27.825 0.825
-71.175 27.825 -2.025
-70.725 28.575 1.875
-71.025 27.975 0.075
-71.025 27.975 1.275
-71.025 27.975 0.825
-71.025 27.975 1.875
-75.075 29.325 0.975
-72.825 27.075 2.325
-75.075 29.325 2.175
-71.475 31.125 2.175
-71.475 27.525 1.425
-72.975 31.575 1.425
-75.075 29.175 1.425
-75.075 29.475 1.275
-75.075 29.475 0.375
-75.075 29.475 0.675
-75.075 29.475 1.125
-70.575 29.475 1.275
-75.075 29.475 0.975
-72.525 27.075 -0.075
-72.525 27.075 0.525
-73.125 27.075 0.675
-73.125 27.075 -0.675
-75.075 29.625 1.125
-75.075 29.025 0.975
-75.075 29.625 0.975
-75.075 29.625 0.525
-74.925 28.425 2.025
-71.925 27.225 -0.375
-71.925 27.225 -0.225
-71.625 27.375 -1.125
-74.025 27.375 -3.675
-74.775 28.125 1.875
-70.875 28.125 0.675
-70.875 28.125 1.425
-74.775 28.125 1.725
-74.775 28.125 1.425
-75.075 29.775 0.675
-75.075 28.875 -0.075
-75.075 29.775 0.975
-70.575 28.875 1.575
-70.575 28.875 1.125
-73.275 27.075 3.825
-72.375 27.075 0.525
-73.275 27.075 0.525
-73.425 27.075 -0.225
-73.425 27.075 1.425
-70.575 28.725 1.125
-75.075 29.925 1.125
-75.075 29.925 0.975
-75.075 29.925 1.275
-72.225 27.075 0.225
-72.225 27.075 0.675
-72.225 27.075 0.075
-72.225 27.075 1.875
-72.225 27.075 -0.375
-74.475 27.675 0.525
-74.475 27.675 1.275
-71.175 27.675 1.275
-71.175 27.675 1.425
-71.025 27.825 1.275
-74.625 27.825 2.925
-74.625 27.825 1.125
-71.325 27.525 2.025
-74.325 27.525 1.425
-74.325 27.525 1.125
-74.925 28.275 1.575
-71.775 27.225 -2.175
-73.875 27.225 2.025
-70.725 28.275 0.975
-74.175 27.375 0.375
-74.175 27.375 -0.525
-70.575 28.575 1.275
-70.575 28.575 1.125
-72.075 27.075 1.125
-72.075 27.075 2.025
-75.075 28.575 -0.075
-75.075 28.575 1.425
-75.075 28.575 2.325
-72.075 27.075 0.675
-73.575 27.075 0.975
-73.575 27.075 1.425
-70.875 27.975 1.575
-74.775 27.975 0.675
-70.875 27.975 -2.175
-74.775 27.975 -1.575
-70.875 27.975 0.825
-71.475 27.375 2.025
-71.475 27.375 1.875
-75.225 29.325 0.825
-75.225 29.325 0.975
-75.225 29.325 1.575
-75.225 29.325 1.125
-72.825 26.925 0.375
-72.825 26.925 1.275
-75.225 29.175 1.725
-75.225 29.175 -1.125
-75.225 29.475 0.525
-75.225 29.475 1.125
-72.975 26.925 1.275
-72.975 26.925 0.675
-72.975 26.925 2.175
-72.675 26.925 1.125
-72.675 26.925 0.675
-72.675 26.925 0.525
-75.225 29.025 2.025
-75.225 29.025 1.575
-75.225 29.625 0.675
-75.225 29.025 1.425
-75.225 29.025 0.975
-75.225 29.625 0.975
-75.225 29.625 1.125
-74.925 28.125 0.675
-74.925 28.125 0.375
-74.925 30.525 0.825
-73.125 26.925 1.125
-72.525 26.925 0.375
-71.625 27.225 3.375
-74.025 27.225 0.675
-70.725 28.125 1.725
-70.725 28.125 1.575
-70.725 28.125 0.975
-70.725 28.125 1.425
-73.725 27.075 2.025
-75.075 28.425 -0.375
-70.575 28.425 1.425
-75.075 28.425 0.975
-75.075 30.225 0.075
-71.925 27.075 1.125
-75.225 29.775 0.525
-75.225 29.775 1.275
-75.225 28.875 -0.075
-75.225 29.775 1.425
-74.475 27.525 0.075
-74.625 27.675 0.525
-72.375 26.925 2.625
-73.275 26.925 1.275
-70.425 28.875 0.825
-74.325 27.375 1.575
-74.325 27.375 1.125
-70.875 27.825 1.425
-70.875 27.825 2.025
-75.225 28.725 1.275
-75.225 28.725 2.175
-75.225 29.925 1.125
-72.225 26.925 1.575
-72.225 26.925 2.625
-72.225 26.925 2.475
-70.425 28.725 0.225
-70.425 28.725 1.125
-73.875 27.075 0.675
-73.875 27.075 -4.425
-70.575 28.275 0.675
-70.575 28.275 0.975
-74.925 27.975 1.125
-74.925 27.975 0.525
-71.475 27.225 0.375
-71.475 27.225 0.675
-70.725 27.975 1.425
-75.225 28.575 -0.225
-74.625 27.525 0.675
-74.625 27.525 0.375
-74.625 27.525 0.825
-75.375 29.325 0.525
-75.375 29.325 1.425
-75.375 29.325 1.125
-70.575 28.125 0.675
-70.575 28.125 0.825
-75.075 28.125 -0.525
-72.825 26.775 0.525
-72.825 26.775 0.975
-72.825 26.775 1.425
-72.825 26.775 1.125
-71.625 27.075 0.375
-74.025 27.075 1.575
-74.475 27.375 1.275
-74.475 27.375 0.375
-74.475 27.375 -0.075
-75.375 29.175 -0.225
-75.375 29.175 -3.225
-75.375 29.175 -4.425
-72.975 26.775 -4.725
-72.975 26.775 0.675
-70.875 27.675 -0.075
-74.775 27.675 0.225
-70.875 27.675 0.975
-71.175 27.375 -1.875
-75.225 28.425 -0.375
-75.225 28.425 1.125
-73.725 26.925 1.275
-71.925 26.925 2.775
-71.925 26.925 2.325
-71.925 26.925 -0.525
-70.425 28.425 0.975
-70.425 28.425 1.425
-75.375 29.625 0.075
-75.375 29.625 0.525
-75.375 29.025 -1.725
-73.125 26.775 1.275
-73.125 26.775 2.175
-72.525 26.775 0.975
-72.525 26.775 1.125
-74.325 27.225 0.825
-70.725 27.825 0.825
-70.725 27.825 1.725
-75.375 29.775 1.425
-75.375 29.775 1.275
-75.375 29.775 0.075
-75.375 29.775 2.325
-75.375 29.775 0.675
-75.375 28.875 2.325
-73.275 26.775 0.975
-73.275 26.775 1.575
-72.375 26.775 1.125
-75.225 30.375 0.225
-75.225 28.275 -2.625
-75.225 28.275 -0.375
-75.225 28.275 -0.525
-70.275 28.725 0.375
-70.275 28.725 1.125
-70.275 28.725 1.875
-70.275 28.725 0.975
-71.775 26.925 0.075
-71.775 26.925 2.625
-71.775 26.925 1.125
-73.425 26.775 0.975
-70.425 28.275 1.125
-70.575 27.975 1.275
-75.075 27.975 0.975
-75.075 27.975 0.375
-75.075 27.975 -0.525
-71.475 27.075 1.725
-71.475 27.075 -2.775
-71.025 31.275 2.625
-70.875 27.525 0.975
-74.775 27.525 0.375
-74.775 27.525 0.825
-70.875 27.525 -0.825
-75.375 28.575 0.525
-70.275 28.575 1.425
-75.375 28.575 -0.075
-70.275 28.575 0.975
-73.575 26.775 0.075
-74.925 27.675 2.025
-70.725 27.675 0.825
-70.725 27.675 2.175
-75.225 28.125 0.675
-71.625 26.925 3.075
-71.625 26.925 2.025
-71.625 26.925 0.375
-71.625 26.925 0.675
-70.425 28.125 0.975
-70.425 28.125 1.275
-72.825 26.625 0.375
-72.825 26.625 -2.925
-75.525 29.325 2.175
-70.125 29.325 5.025
-75.375 28.425 0.525
-70.275 28.425 1.125
-75.375 28.425 1.425
-75.375 28.425 1.875
-70.575 27.825 -0.975
-70.575 27.825 0.825
-70.575 27.825 1.275
-75.075 27.825 0.525
-75.075 27.825 -0.975
-71.325 27.075 -0.375
-71.325 27.075 1.875
-71.925 26.775 0.075
-71.925 26.775 -0.075
-75.525 29.175 0.075
-75.525 29.175 -0.225
-75.525 29.475 1.125
-75.525 29.475 0.675
-73.125 26.625 2.175
-72.525 26.625 0.975
-72.525 26.625 1.425
-75.525 29.025 2.175
-75.525 29.025 0.075
-75.525 29.025 -0.225
-75.525 29.025 -0.075
-70.125 29.025 2.325
-73.275 26.625 1.125
-73.275 26.625 -0.075
-72.375 26.625 0.675
-72.375 26.625 1.425
-75.525 29.775 0.375
-75.225 27.975 -0.225
-75.225 27.975 0.675
-75.225 27.975 -0.825
-75.225 27.975 -0.075
-74.175 26.925 -2.925
-71.475 26.925 0.675
-71.475 26.925 -0.075
-71.475 26.925 1.425
-71.475 26.925 -0.225
-70.425 27.975 0.375
-70.425 27.975 0.825
-70.425 27.975 1.125
-75.375 28.275 0.825
-75.375 28.275 0.525
-75.375 28.275 2.025
-75.375 28.275 0.975
-73.875 26.775 -3.075
-71.775 26.775 0.975
-71.775 26.775 0.675
-74.775 27.375 0.825
-72.225 26.625 0.975
-72.225 26.625 0.825
-75.525 28.725 -0.525
-75.525 29.925 0.075
-75.525 29.925 0.525
-70.725 27.525 0.675
-70.575 27.675 1.275
-70.575 27.675 1.425
-75.075 30.975 1.275
-70.125 28.575 0.975
-75.525 28.575 -0.225
-75.525 28.575 -0.375
-75.525 28.575 0.525
-70.125 28.575 2.025
-75.525 30.075 0.675
-75.375 28.125 1.125
-70.275 28.125 0.675
-70.275 28.125 1.275
-75.375 28.125 0.675
-75.375 28.125 1.875
-75.375 28.125 3.075
-75.375 28.125 0.375
-71.625 26.775 0.675
-71.625 26.775 1.575
-71.625 26.775 0.825
-71.325 26.925 0.075
-70.425 27.825 2.175
-70.425 27.825 1.575
-73.725 26.625 0.225
-71.925 26.625 2.625
-71.925 26.625 0.675
-75.525 28.425 1.125
-75.525 28.425 -0.375
-70.125 28.425 1.425
-70.125 28.425 0.975
-70.125 28.425 0.675
-70.125 28.425 1.275
-75.525 28.425 -0.525
-75.525 28.425 0.525
-75.675 29.175 1.725
-75.675 29.475 0.075
-75.675 29.475 0.525
-75.675 29.475 0.825
-72.975 26.475 -1.425
-72.975 26.475 1.125
-69.975 29.175 0.675
-75.675 29.025 3.675
-75.675 29.025 -0.825
-75.675 29.025 1.275
-75.675 29.625 2.175
-75.675 29.625 -0.075
-75.675 29.625 0.525
-75.675 29.625 2.775
-74.925 27.375 0.375
-73.125 26.475 1.725
-69.975 29.025 0.825
-71.025 27.075 1.575
-75.075 27.525 0.225
-75.675 28.875 1.275
-75.675 29.775 0.525
-70.275 27.975 0.225
-70.275 27.975 1.125
-75.375 27.975 0.675
-74.175 26.775 0.675
-73.275 26.475 2.025
-72.375 26.475 2.325
-71.475 26.775 1.125
-71.475 26.775 0.825
-73.875 26.625 0.975
-71.775 26.625 0.975
-70.125 28.275 0.975
-75.525 28.275 0.975
-75.525 28.275 -0.375
-75.525 28.275 0.675
-75.225 27.675 0.525
-75.675 28.725 -0.375
-75.675 28.725 -0.225
-74.475 26.925 1.275
-73.425 26.475 1.875
-72.225 26.475 1.275
-70.425 27.675 -0.075
-69.975 28.725 1.875
-75.675 30.075 0.375
-75.675 30.075 -2.175
-75.675 30.075 0.675
-69.975 28.575 0.675
-69.975 28.575 1.275
-69.975 28.575 1.875
-69.975 28.575 1.425
-71.625 26.625 0.825
-70.125 28.125 0.975
-75.525 28.125 1.125
-75.525 28.125 0.375
-75.525 28.125 1.725
-75.525 28.125 0.675
-75.375 27.825 0.825
-71.325 26.775 1.725
-74.325 26.775 0.675
-70.725 27.225 -3.675
-75.075 27.375 0.075
-75.075 27.375 -0.075
-75.075 27.375 0.975
-75.675 28.425 0.525
-75.675 28.425 1.425
-73.725 26.475 0.525
-73.725 26.475 1.575
-69.975 28.425 1.275
-69.975 28.425 1.425
-75.225 27.525 0.075
-75.225 27.525 0.375
-75.225 27.525 1.425
-75.225 31.125 0.825
-74.625 26.925 1.725
-71.025 26.925 0.375
-71.025 26.925 1.425
-72.825 26.325 2.025
-72.825 26.325 0.675
-72.825 26.325 1.425
-72.825 26.325 0.975
-75.825 29.325 3.825
-72.975 26.325 0.675
-75.825 29.175 -3.375
-75.825 29.475 -0.075
-75.825 29.475 0.675
-72.525 26.325 1.125
-73.125 26.325 0.075
-75.825 29.625 1.125
-75.825 29.625 2.325
-75.825 29.625 -0.075
-75.825 29.025 -0.225
-73.125 32.325 -1.275
-74.175 26.625 0.825
-75.525 27.975 0.525
-71.475 26.625 0.975
-71.475 26.625 1.125
-71.475 26.625 0.825
-75.825 29.775 -0.225
-75.825 29.775 0.825
-75.825 29.775 -1.125
-75.825 29.775 0.075
-75.825 29.775 0.675
-75.825 28.875 -0.225
-69.825 28.875 0.675
-72.375 26.325 0.975
-75.675 28.275 -0.075
-75.675 28.275 0.525
-70.275 27.675 1.275
-73.875 26.475 0.675
-71.775 26.475 1.275
-75.375 30.975 1.425
-71.175 26.775 0.075
-71.175 26.775 1.125
-69.975 28.275 0.825
-69.825 28.725 1.275
-69.825 28.725 0.375
-75.825 29.925 0.375
-69.825 29.925 -0.075
-72.225 26.325 0.975
-75.075 27.225 0.525
-71.325 26.625 0.975
-71.325 26.625 0.525
-71.325 26.625 0.225
-71.325 26.625 1.725
-74.325 26.625 0.675
-75.525 27.825 -0.225
-75.525 27.825 -0.825
-75.225 27.375 0.675
-75.225 27.375 0.825
-75.225 27.375 0.375
-75.225 27.375 1.575
-75.225 27.375 0.975
-75.225 27.375 0.225
-75.675 28.125 0.675
-75.675 28.125 0.225
-75.675 28.125 0.525
-75.675 28.125 -0.075
-74.025 26.475 0.675
-75.825 30.075 -0.075
-75.825 30.075 -0.225
-75.825 30.075 0.375
-69.825 28.575 1.425
-69.825 28.575 1.125
-72.075 26.325 0.825
-72.075 26.325 0.975
-75.825 28.575 1.425
-75.825 28.575 -0.075
-70.875 26.925 0.675
-74.775 26.925 1.875
-70.425 27.375 1.275
-75.375 27.525 0.375
-75.375 27.525 0.525
-75.375 27.525 -0.075
-71.025 26.775 0.675
-71.025 26.775 2.025
-69.825 28.425 1.575
-69.825 28.425 0.975
-69.825 28.425 1.875
-75.825 28.425 -0.375
-75.825 28.425 0.825
-75.825 30.225 0.825
-71.925 26.325 1.425
-75.975 29.325 -0.375
-75.975 29.325 3.825
-72.825 26.175 2.175
-72.825 26.175 0.825
-72.825 26.175 0.975
-75.975 29.175 -0.225
-75.975 29.175 -0.825
-75.975 29.175 -0.075
-75.975 29.475 -0.075
-75.975 29.475 -0.375
-75.675 27.975 1.125
-75.675 27.975 -0.525
-74.175 26.475 0.825
-72.975 26.175 2.025
-72.975 26.175 0.975
-72.675 26.175 0.825
-71.475 26.475 1.275
-71.475 26.475 0.975
-69.975 27.975 0.675
-69.975 27.975 1.575
-69.975 27.975 0.975
-75.975 29.625 0.825
-75.975 29.625 1.425
-75.975 29.625 0.975
-75.975 29.625 1.575
-75.975 29.625 0.075
-75.975 29.025 0.075
-75.975 29.025 -0.525
-74.475 26.625 0.975
-74.475 26.625 2.175
-74.475 26.625 0.525
-72.525 26.175 0.975
-72.525 26.175 2.475
-73.125 26.175 0.525
-75.525 27.675 -0.675
-70.125 27.675 0.975
-70.125 27.675 1.125
-70.125 27.675 1.425
-71.175 26.625 1.575
-71.175 26.625 0.675
-73.875 26.325 0.975
-75.825 28.275 0.675
-75.825 28.275 0.375
-69.825 28.275 1.125
-75.975 29.775 0.975
-75.975 29.775 0.075
-75.975 29.775 0.375
-75.975 28.875 1.425
-75.975 28.875 0.375
-75.975 28.875 -0.075
-72.375 26.175 0.825
-73.275 26.175 1.725
-75.075 27.075 1.575
-70.575 27.075 1.875
-69.675 29.775 1.125
-75.225 27.225 0.825
-75.225 27.225 1.125
-75.225 27.225 0.525
-75.225 27.225 0.675
-70.725 26.925 -0.675
-75.975 28.725 1.575
-75.975 28.725 0.075
-75.975 29.925 0.075
-73.425 26.175 0.825
-75.375 27.375 1.125
-75.375 27.375 1.275
-75.375 27.375 0.975
-70.875 26.775 0.225
-70.875 26.775 -0.825
-70.875 26.775 0.825
-75.675 27.825 -0.225
-75.675 27.825 -0.825
-75.675 27.825 2.025
-75.675 27.825 0.525
-71.325 26.475 1.275
-71.325 26.475 0.975
-74.325 26.475 0.675
-69.975 27.825 0.225
-69.975 27.825 1.275
-69.975 27.825 1.425
-69.825 28.125 1.125
-75.825 28.125 -0.525
-75.825 28.125 0.675
-74.025 26.325 0.675
-74.025 26.325 1.125
-71.625 26.325 -0.375
-71.625 26.325 0.075
-75.975 30.075 -0.075
-75.975 30.075 1.875
-75.975 30.075 0.075
-75.975 30.075 1.425
-75.975 30.075 0.375
-75.975 28.575 -0.225
-75.975 28.575 0.075
-72.075 26.175 0.975
-73.575 26.175 0.825
-73.575 26.175 1.575
-69.675 28.575 0.975
-69.675 28.575 0.825
-69.675 28.575 1.575
-71.025 26.625 0.975
-74.625 26.625 0.825
-74.625 26.625 0.975
-75.525 27.525 -0.825
-75.525 27.525 -0.075
-70.125 27.525 0.975
-75.975 28.425 -0.375
-73.725 26.175 1.275
-71.925 26.175 0.975
-69.675 28.425 1.275
-69.675 28.425 1.575
-69.675 28.425 1.425
-69.675 28.425 0.975
-69.675 28.425 -0.225
-75.225 27.075 2.025
-75.225 27.075 1.275
-74.175 26.325 1.575
-74.175 26.325 1.275
-69.825 27.975 1.275
-75.825 27.975 -0.225
-75.825 27.975 -0.075
-75.075 26.925 2.025
-70.575 26.925 -0.225
-74.475 26.475 0.525
-75.675 27.675 0.825
-75.675 27.675 0.525
-75.675 27.675 -0.375
-69.975 27.675 -2.025
-69.975 27.675 1.425
-69.975 27.675 0.975
-69.975 27.675 0.525
-72.825 26.025 1.125
-72.825 26.025 0.975
-75.375 27.225 0.375
-75.375 27.225 0.525
-74.925 26.775 2.175
-76.125 29.475 1.125
-69.525 29.475 3.825
-72.975 26.025 1.275
-72.975 26.025 0.975
-72.975 26.025 0.225
-72.675 26.025 1.125
-76.125 29.625 0.075
-76.125 29.625 1.275
-76.125 29.025 0.375
-72.525 26.025 0.825
-71.775 26.175 1.425
-73.875 26.175 1.125
-69.675 28.275 1.275
-76.125 29.775 1.125
-76.125 29.775 0.975
-72.375 26.025 1.425
-70.875 26.625 2.025
-70.875 26.625 0.075
-70.875 26.625 0.975
-74.775 26.625 0.675
-75.525 27.375 0.975
-75.525 27.375 -0.375
-75.525 27.375 0.525
-76.125 28.725 1.575
-76.125 28.725 0.375
-76.125 29.925 0.225
-76.125 29.925 -1.275
-73.425 26.025 0.375
-73.425 26.025 1.275
-69.825 27.825 0.825
-69.825 27.825 1.725
-69.825 27.825 1.125
-69.825 27.825 0.975
-74.325 26.325 0.825
-75.825 27.825 -0.675
-71.325 26.325 0.675
-72.225 26.025 0.525
-72.225 26.025 1.275
-75.975 28.125 1.125
-75.975 28.125 0.975
-75.675 27.525 0.675
-75.675 27.525 0.375
-75.675 27.525 0.825
-75.675 27.525 0.525
-74.625 26.475 0.375
-74.625 26.475 0.825
-71.025 26.475 2.025
-71.625 26.175 0.675
-71.625 26.175 0.525
-74.025 26.175 1.125
-69.975 27.525 0.675
-69.975 27.525 2.025
-69.975 27.525 0.975
-69.525 28.575 1.425
-69.525 28.575 1.725
-76.125 30.075 0.225
-76.125 28.575 0.375
-72.075 26.025 0.675
-72.075 26.025 1.125
-73.575 26.025 1.125
-72.075 26.025 0.825
-75.225 26.925 0.675
-75.225 26.925 0.375
-70.425 26.925 -0.375
-70.275 27.075 0.075
-70.575 26.775 0.975
-70.575 26.775 0.675
-70.575 26.775 0.525
-75.075 26.775 0.825
-75.075 26.775 1.125
-74.925 26.625 0.225
-69.525 28.425 0.675
-69.525 28.425 2.175
-69.525 28.425 0.525
-69.525 28.425 1.125
-76.125 28.425 -0.225
-76.125 28.425 0.375
-76.125 28.425 -1.725
-76.125 30.225 1.425
-76.125 30.225 0.525
-73.725 26.025 0.675
-73.725 26.025 1.575
-73.725 26.025 1.125
-75.525 27.225 1.125
-75.525 27.225 0.975
-75.525 27.225 0.525
-71.925 26.025 0.525
-71.925 26.025 1.425
-70.725 26.625 1.575
-74.475 26.325 1.725
-69.825 27.675 0.975
-69.825 27.675 1.275
-69.825 27.675 1.425
-75.825 27.675 0.825
-75.825 27.675 -0.375
-71.175 26.325 1.725
-71.175 26.325 0.525
-75.975 27.975 0.525
-75.975 27.975 0.675
-75.975 27.975 -0.375
-74.175 26.175 1.275
-71.475 26.175 0.825
-71.475 26.175 0.525
-69.675 27.975 1.425
-69.675 27.975 0.975
-69.675 27.975 1.275
-76.275 29.325 0.075
-75.675 27.375 1.425
-75.675 27.375 0.375
-72.675 25.875 1.575
-74.775 26.475 0.225
-74.775 26.475 0.525
-74.775 26.475 1.575
-74.775 26.475 1.125
-69.525 28.275 1.275
-76.125 28.275 0.825
-76.125 28.275 0.975
-76.125 28.275 1.725
-76.125 28.275 0.225
-76.125 30.375 0.675
-76.125 30.375 0.825
-72.525 25.875 1.425
-72.525 25.875 0.825
-71.775 26.025 0.825
-73.875 26.025 1.125
-76.275 29.625 2.175
-76.275 29.625 -0.075
-76.275 29.625 0.825
-76.275 29.025 0.675
-72.375 25.875 1.125
-72.375 25.875 1.425
-76.275 29.775 0.825
-71.325 26.175 0.975
-71.325 26.175 1.725
-74.325 26.175 0.975
-69.675 27.825 1.725
-69.675 27.825 1.275
-74.625 26.325 0.675
-74.625 26.325 0.525
-75.825 27.525 0.825
-75.825 27.525 0.375
-75.825 31.125 -1.425
-75.225 26.775 0.525
-72.225 25.875 0.825
-76.275 28.725 0.675
-76.275 28.725 -1.425
-76.275 28.725 -0.375
-76.275 28.725 1.725
-76.275 28.725 1.275
-69.375 28.725 1.575
-76.275 29.925 0.075
-70.425 26.775 0.825
-76.125 28.125 -0.225
-76.125 28.125 -0.975
-71.625 26.025 0.525
-71.625 26.025 2.325
-71.625 26.025 0.675
-71.625 26.025 0.975
-74.025 26.025 1.425
-74.025 26.025 1.125
-70.575 26.625 1.125
-70.575 26.625 0.675
-70.575 26.625 1.425
-75.075 26.625 0.675
-75.075 26.625 -0.075
-75.525 27.075 1.275
-73.575 25.875 1.125
-69.375 28.575 2.025
-76.275 30.075 1.725
-76.275 30.075 -1.275
-75.675 27.225 0.825
-75.675 27.225 0.225
-74.925 26.475 1.575
-74.925 26.475 0.825
-74.925 26.475 0.675
-74.925 26.475 0.525
-70.725 26.475 0.675
-70.725 26.475 1.575
-70.725 26.475 1.875
-75.975 27.675 0.375
-74.475 26.175 0.975
-71.175 26.175 0.825
-71.175 26.175 0.525
-69.675 27.675 0.975
-76.125 27.975 -0.525
-71.925 25.875 0.675
-69.375 28.425 1.125
-69.375 28.425 1.275
-76.275 28.425 0.375
-76.275 28.425 -0.225
-76.275 30.225 0.375
-71.475 26.025 1.425
-69.825 27.375 2.025
-75.825 27.375 1.725
-75.825 27.375 0.675
-75.825 27.375 1.575
-74.775 26.325 0.225
-70.875 26.325 1.575
-76.425 29.325 -4.425
-76.425 29.325 1.425
-72.825 25.725 -0.525
-72.825 25.725 1.575
-76.425 29.475 -0.525
-76.425 29.475 -0.375
-72.975 25.725 1.425
-72.675 25.725 1.425
-71.775 25.875 0.825
-73.875 25.875 1.425
-70.275 26.775 2.775
-70.275 26.775 1.875
-75.375 26.775 0.075
-76.275 28.275 0.525
-76.275 30.375 0.375
-76.275 30.375 1.425
-76.275 30.375 0.825
-75.225 26.625 0.525
-75.225 26.625 0.825
-76.425 29.625 -0.375
-72.525 25.725 1.275
-72.525 25.725 1.425
-72.525 25.725 1.125
-70.425 26.625 1.125
-70.425 26.625 0.825
-70.425 26.625 1.275
-70.425 26.625 2.025
-69.525 27.825 1.575
-69.525 27.825 1.425
-69.525 27.825 0.375
-69.525 27.825 0.975
-76.125 27.825 0.525
-69.525 27.825 1.275
-71.325 26.025 0.675
-71.325 26.025 0.825
-76.425 29.775 -0.225
-76.425 28.875 3.525
-71.025 26.175 0.825
-69.675 27.525 -0.375
-75.675 27.075 -0.525
-75.675 27.075 1.125
-70.575 26.475 0.675
-70.575 26.475 -0.225
-75.075 26.475 0.675
-76.425 28.725 -0.525
-76.425 28.725 -0.375
-76.425 29.925 0.675
-69.225 28.725 2.175
-71.625 25.875 1.425
-71.625 25.875 0.975
-71.625 25.875 1.125
-76.275 28.125 -0.525
-76.275 28.125 0.525
-76.275 28.125 0.225
-69.375 30.525 1.275
-76.275 30.525 1.275
-74.925 26.325 0.525
-75.825 27.225 0.375
-75.825 27.225 0.825
-75.825 27.225 0.975
-75.825 27.225 1.125
-69.825 27.225 1.425
-70.725 26.325 0.825
-76.425 28.575 -0.525
-76.425 28.575 0.225
-76.425 30.075 -1.575
-76.425 30.075 0.225
-72.075 25.725 -0.975
-72.075 25.725 1.575
-69.225 28.575 1.125
-69.525 27.675 0.975
-69.525 27.675 0.375
-69.525 27.675 0.525
-69.525 27.675 1.875
-76.125 27.675 0.525
-76.125 27.675 -0.675
-71.175 26.025 0.525
-75.975 27.375 0.675
-75.975 31.275 0.525
-70.875 26.175 0.825
-70.875 26.175 0.975
-69.375 27.975 2.175
-69.375 27.975 1.275
-69.375 27.975 1.425
-76.275 27.975 0.975
-71.475 25.875 0.825
-71.475 25.875 0.375
-71.475 25.875 0.975
-69.675 27.375 1.275
-69.675 27.375 0.225
-69.675 27.375 2.025
-69.675 27.375 1.425
-76.425 28.425 0.375
-76.425 28.425 -0.075
-76.425 30.225 0.225
-76.425 30.225 0.375
-71.925 25.725 1.575
-69.225 28.425 1.125
-69.225 28.425 1.575
-69.225 30.225 1.425
-70.275 26.625 1.125
-75.375 26.625 0.675
-75.525 26.775 0.075
-75.225 26.475 0.675
-75.225 26.475 0.825
-75.675 26.925 0.525
-69.975 26.925 -3.825
-76.425 28.275 0.825
-76.425 28.275 0.525
-76.425 28.275 0.375
-76.425 30.375 -0.225
-75.825 27.075 0.675
-75.825 27.075 0.825
-75.825 27.075 0.525
-70.575 26.325 1.275
-70.575 26.325 0.975
-76.575 29.325 -0.375
-76.575 29.325 0.075
-69.225 28.275 1.725
-69.225 28.275 1.125
-69.075 29.175 1.575
-76.575 29.175 -0.525
-72.675 25.575 1.575
-76.575 29.475 -0.525
-76.575 29.475 0.225
-76.125 27.525 -0.825
-71.025 26.025 0.825
-71.025 26.025 1.125
-74.625 26.025 -4.875
-71.325 25.875 0.525
-71.325 25.875 0.825
-72.525 25.575 0.975
-76.575 29.625 0.225
-76.575 29.025 -0.525
-76.575 29.025 1.875
-69.375 27.825 1.575
-69.375 27.825 1.425
-76.275 27.825 -0.075
-76.575 29.775 1.275
-76.575 29.775 1.425
-76.575 28.875 0.675
-69.075 29.775 -0.375
-75.975 27.225 0.825
-75.975 27.225 0.975
-75.975 27.225 1.425
-74.925 26.175 2.625
-74.925 26.175 0.825
-74.925 26.175 1.875
-70.725 26.175 0.975
-70.725 26.175 0.525
-76.425 28.125 -0.525
-76.425 28.125 2.325
-76.425 28.125 0.525
-76.425 30.525 0.975
-71.625 25.725 0.225
-71.625 25.725 1.875
-76.575 28.725 1.575
-76.575 28.725 1.875
-76.575 29.925 -0.075
-76.575 29.925 0.675
-70.125 26.625 1.275
-70.125 26.625 1.575
-70.125 26.625 0.975
-70.125 26.625 1.125
-75.525 26.625 1.275
-75.675 26.775 0.975
-75.675 26.775 -1.125
-75.675 26.775 0.225
-70.275 26.475 0.675
-70.275 26.475 0.225
-75.375 26.475 0.675
-75.375 26.475 1.275
-75.375 26.475 2.175
-76.575 30.075 1.575
-76.575 30.075 1.725
-76.575 30.075 0.375
-76.575 28.575 -0.525
-76.575 28.575 -0.375
-76.575 28.575 -3.675
-69.075 28.575 1.575
-69.375 27.675 1.725
-69.375 27.675 2.325
-69.375 27.675 1.125
-69.375 27.675 1.425
-71.175 25.875 0.975
-71.175 25.875 0.525
-71.175 25.875 0.675
-76.275 27.675 -2.325
-69.975 26.775 0.525
-69.975 26.775 0.825
-69.525 27.375 0.075
-76.125 27.375 -0.675
-76.125 27.375 2.325
-70.875 26.025 0.825
-75.225 26.325 0.825
-69.825 26.925 3.525
-75.825 26.925 0.525
-70.425 26.325 1.275
-70.425 26.325 0.825
-70.425 26.325 0.525
-76.425 27.975 -0.525
-69.225 27.975 1.725
-73.725 25.575 1.275
-76.575 28.425 -0.675
-76.575 28.425 -0.525
-76.575 28.425 -0.075
-69.075 28.425 0.975
-69.075 28.425 1.275
-75.975 27.075 0.525
-75.975 27.075 0.825
-75.975 27.075 0.225
-75.975 27.075 0.975
-75.075 26.175 1.875
-75.075 26.175 0.975
-71.025 25.875 0.675
-71.025 25.875 0.975
-71.025 25.875 1.875
-71.025 25.875 1.575
-69.375 27.525 1.725
-76.275 27.525 0.075
-76.275 27.525 0.375
-76.275 27.525 0.525
-73.875 25.575 1.275
-76.575 28.275 0.075
-76.575 28.275 0.375
-69.075 28.275 2.625
-76.575 30.375 0.375
-76.425 27.825 -0.075
-76.425 27.825 -0.225
-76.425 27.825 -0.375
-74.325 25.725 0.225
-69.225 27.825 1.125
-69.225 27.825 1.425
-69.225 27.825 1.575
-76.725 29.175 1.875
-76.725 29.175 -0.525
-72.675 25.425 -3.975
-76.125 27.225 -0.375
-76.125 27.225 2.325
-74.925 26.025 2.925
-70.725 26.025 0.375
-70.725 26.025 1.425
-70.725 26.025 0.825
-68.925 29.025 1.275
-76.725 29.775 2.325
-76.725 29.775 -0.225
-75.675 26.625 0.225
-70.125 26.475 1.575
-70.125 26.475 0.675
-68.925 28.875 1.425
-69.975 26.625 0.825
-69.975 26.625 -0.225
-70.275 26.325 1.425
-70.275 26.325 0.975
-70.275 26.325 -0.525
-70.275 26.325 0.825
-76.575 28.125 0.375
-76.575 28.125 0.075
-69.075 28.125 2.475
-76.575 30.525 0.375
-69.825 26.775 0.825
-69.825 26.775 1.875
-69.825 26.775 0.975
-75.825 26.775 1.125
-76.725 28.725 1.425
-76.725 29.925 0.675
-76.725 29.925 1.725
-68.925 28.725 0.975
-75.975 26.925 0.675
-75.975 26.925 0.825
-75.975 26.925 0.075
-75.225 26.175 1.875
-75.225 26.175 1.425
-76.425 27.675 -0.375
-76.425 27.675 0.525
-70.425 26.175 1.125
-69.225 27.675 0.675
-70.875 25.875 0.225
-69.375 27.375 1.275
-76.275 27.375 0.675
-69.375 31.275 1.425
-76.725 28.575 -0.675
-76.725 30.075 -0.225
-76.575 27.975 0.375
-69.075 27.975 1.125
-69.075 27.975 1.875
-76.125 27.075 0.825
-76.125 27.075 0.675
-76.125 27.075 0.975
-76.125 27.075 0.525
-76.125 27.075 0.375
-76.125 27.075 -0.075
-70.575 26.025 1.275
-70.575 26.025 0.975
-76.725 28.425 -0.525
-76.725 28.425 2.475
-76.725 28.425 -0.375
-76.725 28.425 2.325
-76.725 28.425 -0.225
-76.725 30.225 0.225
-68.925 28.425 0.825
-68.925 30.225 1.275
-76.425 27.525 0.825
-71.025 25.725 1.125
-69.225 27.525 0.675
-69.225 27.525 1.725
-69.225 27.525 0.225
-75.675 26.475 3.075
-75.675 26.475 1.275
-75.675 26.475 0.975
-69.825 26.625 1.575
-69.825 26.625 0.825
-75.825 26.625 0.675
-75.825 26.625 0.225
-70.125 26.325 1.275
-75.525 26.325 0.525
-76.725 28.275 -1.425
-76.725 30.375 0.525
-69.075 27.825 0.975
-69.075 27.825 1.575
-69.075 27.825 1.125
-71.325 25.575 0.525
-71.325 25.575 6.075
-76.575 27.825 -0.225
-76.575 27.825 -0.075
-76.575 27.825 -1.275
-69.375 27.225 2.325
-76.275 27.225 -0.225
-76.275 27.225 1.125
-76.275 27.225 2.325
-76.275 27.225 0.225
-70.725 25.875 1.275
-70.725 25.875 1.575
-68.775 29.325 0.825
-76.875 29.325 1.125
-70.275 26.175 2.025
-70.275 26.175 1.425
-68.775 29.475 0.675
-68.775 29.475 -0.225
-76.875 29.175 1.125
-69.675 26.775 -2.175
-76.875 29.025 -0.075
-76.875 29.775 -0.525
-68.775 28.875 1.425
-76.875 29.775 1.125
-76.875 29.775 0.525
-76.875 28.875 0.075
-76.725 28.125 0.525
-76.725 28.125 0.825
-76.725 28.125 0.975
-76.725 30.525 0.225
-76.125 26.925 0.375
-74.025 25.425 3.525
-70.425 26.025 0.975
-68.925 28.125 2.475
-68.925 28.125 1.725
-68.925 28.125 2.175
-76.425 27.375 -0.225
-76.425 27.375 0.075
-76.425 27.375 0.375
-76.875 28.725 -0.525
-69.225 27.375 1.875
-74.475 25.575 0.225
-69.075 27.675 1.425
-69.075 27.675 1.575
-69.075 27.675 -0.075
-69.075 27.675 1.725
-76.575 27.675 -0.525
-76.575 27.675 -0.375
-76.575 27.675 1.425
-76.575 27.675 -0.975
-76.875 28.575 -0.075
-76.875 28.575 0.075
-76.875 28.575 -0.375
-76.875 30.075 -0.075
-70.575 25.875 1.275
-76.275 27.075 1.425
-76.275 27.075 0.675
-76.275 27.075 2.025
-76.275 27.075 0.825
-69.375 27.075 3.375
-69.375 27.075 0.825
-76.725 27.975 0.375
-76.725 27.975 0.225
-76.725 27.975 1.125
-68.925 27.975 -0.525
-68.925 27.975 1.275
-68.925 27.975 2.025
-68.925 27.975 1.875
-75.675 26.325 0.975
-75.825 26.475 0.825
-69.825 26.475 0.225
-75.825 26.475 0.375
-75.975 26.625 -0.075
-68.775 28.425 2.175
-68.775 28.425 0.975
-68.775 28.425 0.825
-76.875 28.425 -0.525
-76.875 28.425 1.575
-76.875 28.425 0.675
-76.875 28.425 -0.225
-70.125 26.175 2.175
-70.125 26.175 1.425
-69.675 26.625 2.175
-69.675 26.625 3.375
-71.025 25.575 1.125
-76.575 27.525 0.375
-76.575 27.525 -0.525
-69.075 27.525 1.125
-69.075 27.525 0.825
-69.075 27.525 -0.225
-69.075 27.525 1.275
-69.525 26.775 1.875
-70.275 26.025 0.825
-70.275 26.025 0.975
-70.275 26.025 1.875
-76.725 27.825 -0.675
-76.725 27.825 -0.525
-68.925 27.825 1.575
-68.925 27.825 1.425
-68.925 27.825 -0.975
-68.775 28.275 0.975
-68.775 28.275 0.825
-76.875 28.275 0.675
-76.875 30.375 0.225
-73.875 25.275 1.725
-77.025 29.325 0.975
-76.275 26.925 0.675
-76.275 26.925 0.525
-76.275 26.925 -0.075
-76.275 26.925 -0.225
-70.425 25.875 1.125
-70.425 25.875 0.675
-70.425 25.875 0.825
-77.025 29.475 2.025
-77.025 29.175 1.425
-77.025 29.175 1.575
-76.875 28.125 -0.825
-76.875 28.125 1.725
-68.775 28.125 0.975
-76.875 30.525 0.975
-68.625 28.875 1.275
-68.625 28.875 1.725
-68.625 29.775 1.575
-77.025 28.875 3.225
-69.075 27.375 1.275
-69.075 27.375 0.975
-76.575 27.375 0.225
-76.575 27.375 0.075
-76.725 27.675 0.825
-76.725 27.675 -0.225
-68.925 27.675 0.375
-68.925 27.675 -1.275
-75.825 26.325 0.375
-68.625 28.725 -0.525
-76.425 27.075 1.575
-76.425 27.075 1.275
-76.425 27.075 0.675
-70.575 25.725 1.275
-69.225 27.075 1.275
-75.975 26.475 0.825
-69.675 26.475 0.825
-69.675 26.475 1.575
-69.525 26.625 1.425
-69.525 26.625 0.225
-70.125 26.025 2.025
-77.025 28.575 0.225
-68.625 28.575 1.875
-77.025 28.575 -0.975
-68.775 27.975 1.125
-68.775 27.975 2.025
-76.875 27.975 0.375
-76.875 30.675 0.525
-70.275 25.875 1.725
-70.275 25.875 -0.225
-70.275 25.875 1.275
-70.275 25.875 1.425
-70.275 25.875 0.675
-69.375 26.775 2.475
-76.725 27.525 -0.375
-77.025 28.425 0.225
-77.025 28.425 0.375
-77.025 28.425 -0.525
-77.025 28.425 0.075
-77.025 30.225 1.275
-77.025 30.225 0.075
-68.925 27.525 0.975
-69.075 27.225 2.025
-76.575 27.225 1.125
-76.575 31.425 2.175
-70.725 25.575 1.575
-76.875 27.825 0.375
-68.775 27.825 1.275
-76.425 26.925 0.825
-70.425 25.725 0.825
-70.425 25.725 1.275
-71.775 25.125 2.025
-77.025 30.375 0.825
-77.025 28.275 0.825
-77.025 28.275 0.375
-77.025 28.275 -1.425
-77.025 30.375 0.975
-68.625 28.275 1.425
-68.625 28.275 1.875
-75.975 26.325 1.425
-77.175 29.325 0.975
-69.675 26.325 1.125
-69.675 26.325 1.575
-69.675 26.325 0.825
-76.725 27.375 -0.675
-76.125 26.475 0.225
-69.525 26.475 1.125
-76.125 26.475 0.975
-69.525 26.475 -0.075
-75.675 26.025 2.025
-74.775 25.425 6.075
-68.925 27.375 0.675
-69.975 26.025 1.725
-68.475 29.025 0.975
-77.025 30.525 1.275
-68.625 28.125 1.125
-68.625 28.125 1.725
-77.025 30.525 0.825
-77.025 30.525 -0.525
-77.025 28.125 0.825
-76.875 27.675 -0.825
-76.875 27.675 0.825
-68.775 27.675 1.575
-68.775 27.675 0.975
-68.775 27.675 1.275
-76.575 27.075 0.975
-68.475 28.875 -1.725
-68.475 28.875 0.225
-70.125 25.875 0.825
-70.125 25.875 1.275
