# .PCD v0.7 - Point Cloud Data file format
VERSION 0.7
FIELDS x y z
SIZE 4 4 4
TYPE F F F
COUNT 1 1 1
WIDTH 2048
HEIGHT 1
VIEWPOINT 0 0 0 1 0 0 0
POINTS 2048
DATA ascii
35.025 -24.975 -0.525
34.875 -25.125 -0.825
34.725 -24.975 -1.125
34.875 -25.125 -1.275
34.875 -24.825 -1.125
34.875 -24.825 -0.825
34.725 -25.125 -0.675
35.025 -25.125 -1.125
35.025 -24.825 0.375
34.725 -24.825 0.525
35.025 -24.825 2.625
34.575 -24.975 2.175
34.875 -25.275 -1.275
34.875 -25.275 -0.825
34.875 -25.275 -0.525
35.025 -25.275 -0.075
35.175 -25.125 -0.225
35.025 -25.275 -1.125
35.025 -25.275 -0.975
35.025 -25.275 3.075
34.725 -25.275 -0.525
35.175 -25.125 -1.575
35.025 -25.275 -0.675
34.575 -24.825 0.225
35.175 -24.825 -0.675
35.175 -24.825 -1.125
35.025 -24.675 2.775
34.725 -24.675 0.225
35.175 -24.675 2.475
34.875 -25.425 -0.375
34.875 -25.425 -0.525
34.875 -24.525 0.525
35.025 -25.425 -0.525
35.025 -25.425 -0.825
34.425 -25.125 -0.825
34.725 -24.525 -0.675
35.325 -25.125 -0.375
35.325 -25.125 -1.125
35.325 -25.125 -1.275
35.025 -24.525 0.375
35.025 -24.525 2.625
35.325 -24.825 -0.975
34.425 -24.825 1.575
35.175 -25.425 -1.125
34.575 -24.525 0.225
34.575 -24.525 -0.225
34.425 -24.675 -1.125
35.325 -24.675 -0.975
34.425 -24.675 -1.875
35.325 -24.675 2.625
34.875 -25.575 1.275
35.475 -24.975 -1.275
34.275 -24.975 3.225
34.275 -24.975 2.025
34.875 -24.375 -1.125
35.025 -25.575 2.775
35.025 -25.575 -1.125
35.025 -25.575 4.725
34.275 -25.125 -0.075
34.725 -24.375 2.025
35.475 -25.125 -1.125
34.275 -24.825 -0.675
35.475 -24.825 0.975
34.425 -24.525 -1.425
34.425 -24.525 0.825
35.325 -24.525 1.575
34.425 -24.525 -1.275
35.175 -25.575 -0.375
35.175 -25.575 -0.825
34.575 -24.375 -0.675
34.575 -24.375 -0.825
34.575 -24.375 -2.475
35.175 -24.375 -1.125
34.275 -24.675 -1.425
34.875 -24.225 2.325
34.875 -25.725 -0.675
35.625 -24.975 -1.425
35.625 -24.975 -0.675
34.875 -24.225 -0.825
34.875 -24.225 -1.725
34.875 -24.225 -1.125
34.275 -25.425 2.475
34.275 -24.525 1.125
34.275 -24.525 -1.425
34.425 -24.375 2.025
35.475 -24.525 -1.125
34.275 -24.525 -1.725
35.625 -25.125 -1.125
34.125 -25.125 1.275
34.725 -25.725 -0.975
35.025 -25.725 -0.975
34.575 -25.725 -0.975
35.175 -25.725 -0.675
35.175 -25.725 -0.525
35.625 -25.275 -0.375
35.175 -24.225 2.025
34.575 -24.225 1.575
35.175 -25.725 2.325
35.175 -24.225 0.675
35.175 -24.225 1.725
34.125 -25.275 -0.525
34.575 -25.725 -1.275
34.125 -25.275 -0.375
34.575 -25.725 0.375
35.625 -24.675 3.525
35.625 -24.675 0.225
35.475 -25.575 3.075
35.475 -25.575 -0.375
35.475 -25.575 -0.825
35.475 -25.575 -0.975
34.275 -24.375 -0.225
34.275 -24.375 0.825
34.275 -24.375 -1.575
35.625 -25.425 -0.975
35.625 -25.425 -1.125
34.125 -25.425 2.475
34.125 -25.425 0.675
35.325 -24.225 0.225
34.425 -24.225 -0.825
35.625 -24.525 -1.575
35.625 -24.525 -1.425
34.425 -25.725 -0.975
35.325 -25.725 -0.825
33.975 -24.975 2.625
33.975 -24.975 2.025
34.875 -24.075 1.875
35.775 -25.125 -1.275
35.775 -25.125 -1.125
33.975 -25.125 0.975
33.975 -24.825 -0.375
35.775 -24.825 -1.425
35.775 -24.825 -0.975
35.025 -24.075 -2.025
35.025 -24.075 1.725
35.775 -25.275 -1.425
35.175 -25.875 -1.575
35.775 -25.275 -1.125
33.975 -24.675 2.325
35.775 -24.675 -0.825
35.775 -24.675 0.225
33.975 -24.675 1.575
35.775 -24.675 -0.675
35.775 -24.675 -1.125
34.575 -24.075 -0.225
34.125 -25.575 0.525
34.125 -25.575 2.475
35.625 -25.575 -0.525
34.125 -25.575 0.375
35.625 -25.575 -1.725
34.125 -24.375 0.525
35.475 -24.225 -2.025
34.125 -24.375 0.975
35.475 -25.725 -0.975
34.275 -25.725 -0.975
35.475 -24.225 0.225
34.125 -24.375 2.325
34.275 -24.225 1.275
35.775 -25.425 -0.975
33.975 -24.525 -0.675
35.325 -25.875 -1.125
35.325 -25.875 -0.675
34.425 -25.875 2.775
33.975 -24.525 2.625
35.325 -24.075 -0.975
34.425 -24.075 -0.675
33.825 -24.975 1.875
34.875 -26.025 3.825
33.825 -24.975 0.075
33.825 -24.975 2.025
35.925 -24.975 -0.825
34.875 -23.925 -1.125
35.025 -26.025 0.975
33.825 -25.125 2.175
33.825 -25.125 -0.375
33.825 -25.125 0.525
33.825 -25.125 -0.225
33.825 -25.125 0.975
35.925 -25.125 -0.975
35.925 -25.125 -0.825
33.825 -24.825 2.325
33.825 -24.825 0.075
35.925 -24.825 -1.425
35.925 -24.825 -0.975
35.925 -24.825 -1.275
34.125 -25.725 0.225
34.125 -24.225 -0.975
34.125 -25.725 -0.975
34.125 -24.225 -1.125
34.125 -24.225 -0.825
35.625 -24.225 0.225
34.125 -24.225 2.325
35.025 -23.925 -0.975
34.725 -23.925 -1.125
34.725 -23.925 -1.275
35.775 -25.575 -0.825
33.975 -25.575 -0.675
35.775 -25.575 -0.675
35.775 -24.375 -1.125
35.775 -24.375 0.675
35.475 -24.075 -0.825
35.475 -24.075 0.075
35.925 -25.275 -1.275
35.925 -25.275 -1.125
35.925 -25.275 -0.975
33.825 -25.275 2.175
35.175 -26.025 0.825
33.825 -24.675 1.425
35.925 -24.675 0.225
33.825 -24.675 1.275
33.825 -24.675 1.875
35.925 -24.675 -2.025
35.925 -24.675 -0.675
33.825 -24.675 0.525
34.575 -23.925 -0.525
35.175 -23.925 -1.275
35.925 -25.425 2.025
35.925 -25.425 -0.675
35.925 -24.525 0.225
33.825 -24.525 1.575
35.925 -24.525 0.525
33.825 -24.525 -1.575
35.325 -26.025 -1.275
35.925 -24.525 -0.075
33.825 -24.525 1.725
35.325 -26.025 2.775
35.325 -23.925 2.025
35.325 -23.925 0.675
35.625 -25.875 2.025
34.125 -25.875 0.975
35.625 -25.875 -0.675
35.625 -25.875 -1.275
33.975 -25.725 0.075
35.775 -24.225 -1.275
33.975 -25.725 -0.225
33.975 -24.225 -1.125
33.975 -25.725 2.925
35.625 -25.875 -1.425
35.775 -24.225 0.675
35.775 -24.225 -0.225
35.775 -24.225 -2.325
35.625 -25.875 5.025
35.625 -24.075 -0.225
35.625 -24.075 0.525
35.625 -24.075 0.675
35.625 -24.075 0.075
34.875 -26.175 3.975
36.075 -24.975 -1.575
34.875 -23.775 -1.125
33.675 -24.975 0.825
36.075 -24.975 -1.425
33.675 -24.975 0.075
36.075 -24.975 -1.125
33.825 -25.575 2.475
33.825 -25.575 2.625
35.925 -25.575 1.575
35.475 -26.025 -0.975
35.475 -26.025 2.925
35.925 -24.375 0.675
35.925 -24.375 2.325
35.475 -26.025 -0.675
35.925 -24.375 0.225
33.825 -24.375 -0.075
35.025 -26.175 0.525
35.025 -26.175 2.175
34.275 -23.925 -0.675
34.725 -23.775 -0.975
36.075 -25.125 -0.975
35.025 -23.775 -0.825
36.075 -25.125 0.225
34.725 -23.775 -0.825
33.675 -25.125 1.275
36.075 -25.125 0.075
33.675 -25.125 1.425
35.025 -23.775 4.425
33.675 -24.825 0.975
33.675 -24.825 1.425
33.675 -24.825 1.125
33.675 -24.825 0.825
33.675 -24.825 1.275
36.075 -24.825 -0.975
36.075 -24.825 4.275
35.175 -26.175 -0.975
33.675 -25.275 -0.075
33.675 -25.275 0.975
35.175 -23.775 0.675
33.675 -24.675 2.025
33.675 -24.675 1.725
36.075 -24.675 0.525
36.075 -24.675 -1.425
36.075 -24.675 -0.225
36.075 -24.675 0.675
36.075 -24.675 -1.125
36.075 -24.675 2.025
33.675 -24.675 1.125
36.075 -24.675 -0.675
36.075 -24.675 -1.275
33.675 -24.675 1.275
35.775 -25.875 -1.125
33.975 -25.875 0.225
35.775 -25.875 -0.675
33.975 -25.875 -0.225
35.775 -24.075 0.075
35.325 -26.175 -0.975
33.675 -25.425 -0.375
36.075 -25.425 -1.125
36.075 -25.425 -1.425
33.675 -25.425 0.975
33.675 -25.425 2.025
36.075 -24.525 0.225
33.675 -24.525 0.825
34.425 -23.775 -0.375
36.075 -24.525 0.075
36.075 -24.525 2.325
34.425 -23.775 0.675
35.925 -24.225 0.225
33.825 -25.725 1.875
33.825 -24.225 0.225
35.625 -26.025 -0.975
35.625 -26.025 -1.125
33.825 -24.225 3.225
35.925 -24.225 0.075
35.625 -23.925 0.225
35.625 -23.925 0.675
35.625 -23.925 -1.125
35.475 -26.175 -1.275
33.675 -25.575 2.625
36.075 -25.575 1.875
36.075 -24.375 1.275
35.475 -23.775 0.225
33.675 -24.375 0.525
33.675 -24.375 0.375
36.075 -24.375 0.525
34.875 -26.325 0.825
33.525 -24.975 0.525
34.875 -23.625 -0.975
34.875 -23.625 -1.125
33.525 -24.975 0.975
36.225 -24.975 0.075
36.225 -24.975 0.225
36.225 -24.975 2.925
36.225 -24.975 -0.525
33.525 -24.975 1.275
35.025 -26.325 -0.675
33.525 -25.125 0.075
35.025 -23.625 -1.125
34.725 -23.625 -1.125
36.225 -25.125 1.875
34.725 -23.625 -0.375
36.225 -25.125 0.075
35.025 -23.625 -0.975
33.525 -25.125 1.425
35.025 -23.625 0.075
33.525 -25.125 1.575
33.525 -24.825 0.975
36.225 -24.825 0.975
35.925 -25.875 -5.175
33.825 -25.875 2.175
35.775 -26.025 -0.525
33.825 -25.875 2.025
35.925 -24.075 0.075
33.825 -24.075 2.175
35.775 -23.925 0.675
35.775 -23.925 0.525
35.175 -23.625 -0.225
36.225 -25.275 -0.825
36.225 -25.275 -0.975
35.175 -23.625 0.225
35.175 -23.625 0.525
34.575 -23.625 -0.975
36.225 -24.675 0.225
36.225 -24.675 0.825
36.225 -24.675 3.075
36.225 -24.675 0.525
35.625 -26.175 -0.375
36.075 -25.725 2.175
36.075 -25.725 -1.725
33.675 -24.225 -0.675
35.625 -23.775 0.225
36.075 -24.225 0.225
33.675 -24.225 -0.075
33.675 -24.225 -2.775
33.675 -25.725 -0.225
35.325 -26.325 -1.725
36.225 -25.425 -0.375
36.225 -25.425 2.775
33.525 -25.425 2.025
33.525 -25.425 0.525
33.525 -25.425 0.225
35.325 -23.625 0.225
35.325 -23.625 -1.125
33.525 -24.525 0.675
33.525 -24.525 0.825
36.225 -24.525 3.675
33.525 -24.525 1.275
33.525 -24.525 0.975
36.225 -24.525 0.225
35.325 -23.625 -1.425
36.225 -24.525 0.075
34.425 -23.625 -1.125
35.475 -26.325 -1.875
36.225 -25.575 -0.975
36.225 -25.575 -0.675
33.525 -24.375 0.675
35.475 -23.625 -0.975
36.225 -24.375 3.525
33.525 -24.375 -2.175
34.275 -23.625 -1.125
33.825 -26.025 0.075
35.925 -26.025 5.025
35.925 -26.025 2.025
35.775 -26.175 3.225
35.775 -26.175 -1.725
36.375 -24.975 -0.225
36.375 -24.975 -0.675
33.375 -24.975 0.375
33.375 -24.975 0.225
33.375 -24.975 0.825
36.375 -24.975 0.075
36.375 -24.975 0.225
36.375 -24.975 0.525
33.675 -25.875 0.225
35.775 -23.775 -1.275
33.975 -23.775 -0.825
36.075 -24.075 2.475
36.075 -24.075 2.325
35.025 -23.475 -0.975
36.375 -25.125 -1.125
34.725 -23.475 -0.675
35.025 -23.475 0.225
35.025 -23.475 -0.525
35.025 -23.475 -0.675
33.375 -24.825 0.675
33.375 -24.825 0.525
33.375 -24.825 0.825
36.375 -24.825 1.275
36.375 -24.825 0.075
36.375 -24.825 -1.725
36.375 -24.825 0.225
36.375 -25.275 -0.675
33.375 -25.275 -0.225
35.175 -23.475 0.375
36.375 -25.275 2.775
35.175 -23.475 0.225
33.375 -24.675 0.825
33.375 -24.675 1.125
36.375 -24.675 0.225
33.525 -24.225 0.375
33.525 -24.225 0.825
36.225 -25.725 -0.975
36.225 -24.225 2.475
36.225 -24.225 -0.075
36.225 -24.225 -1.125
33.375 -25.425 0.225
36.375 -25.425 -0.225
34.425 -23.475 -0.375
36.375 -24.525 2.325
33.375 -24.525 0.825
35.925 -26.175 -1.725
33.825 -26.175 0.825
36.075 -26.025 0.825
36.075 -26.025 -1.425
35.925 -23.775 -1.575
36.375 -25.575 2.025
36.375 -25.575 0.075
36.375 -25.575 0.375
36.375 -25.575 -0.975
36.375 -25.575 -1.125
33.375 -24.375 0.975
36.375 -24.375 -1.125
33.375 -24.375 0.825
36.375 -24.375 3.225
34.275 -23.475 -1.125
35.475 -23.475 2.475
35.475 -23.475 2.925
34.275 -23.475 2.775
36.375 -24.375 2.925
34.275 -26.475 4.425
35.775 -26.325 -1.875
35.775 -26.325 2.925
33.975 -26.325 0.075
33.525 -25.875 1.125
33.525 -25.875 1.275
33.525 -25.875 0.075
33.525 -25.875 -0.075
36.225 -25.875 -1.425
33.975 -23.625 -0.825
33.525 -24.075 0.975
36.225 -24.075 2.025
33.525 -24.075 0.225
36.525 -24.975 0.225
33.225 -24.975 0.675
36.525 -24.975 -0.825
36.525 -24.975 0.675
33.225 -24.975 0.075
34.875 -23.325 0.075
36.525 -25.125 0.675
33.225 -25.125 1.275
33.225 -25.125 -0.825
35.025 -26.625 3.075
33.225 -25.125 0.525
36.525 -24.825 -0.225
36.525 -24.825 0.225
33.225 -24.825 2.025
36.525 -24.825 0.075
33.225 -24.825 0.825
34.725 -23.325 0.675
34.725 -23.325 0.075
34.725 -23.325 -0.225
34.725 -23.325 0.525
35.025 -23.325 0.075
35.025 -23.325 -0.375
35.175 -26.625 -0.225
36.525 -25.275 -1.275
36.525 -24.675 0.075
33.225 -24.675 1.425
36.525 -24.675 0.225
33.225 -24.675 0.975
33.225 -24.675 0.675
33.375 -24.225 1.125
33.375 -24.225 0.375
35.625 -26.475 2.475
33.375 -25.725 0.675
33.375 -25.725 3.525
33.375 -25.725 1.275
33.375 -25.725 1.575
35.625 -23.475 3.225
33.375 -25.725 1.425
36.375 -25.725 0.525
36.375 -25.725 -1.425
34.125 -23.475 -0.975
35.625 -23.475 2.475
36.375 -25.725 -0.975
35.175 -23.325 0.075
35.175 -23.325 3.975
34.575 -23.325 -0.975
36.075 -26.175 3.075
33.675 -26.175 1.125
33.675 -26.175 -0.075
33.675 -23.775 1.575
35.925 -26.325 -1.275
35.925 -26.325 -1.425
35.925 -26.325 -0.075
33.825 -26.325 3.075
33.825 -26.325 0.075
36.525 -25.425 2.925
36.525 -25.425 0.075
36.525 -25.425 2.775
36.525 -25.425 -0.225
36.525 -25.425 -0.675
36.225 -26.025 -1.125
33.525 -26.025 0.825
33.525 -26.025 -0.375
35.925 -23.625 2.325
33.825 -23.625 -0.225
33.825 -23.625 3.375
36.525 -24.525 2.925
33.225 -24.525 0.075
33.225 -24.525 0.975
34.425 -26.625 3.975
33.525 -23.925 0.975
35.325 -23.325 0.075
35.325 -23.325 -0.225
35.775 -23.475 3.375
33.975 -26.475 0.375
33.375 -25.875 0.075
33.975 -26.475 -0.675
33.375 -25.875 0.825
36.375 -25.875 -1.125
33.375 -24.075 0.975
36.375 -24.075 -2.475
36.525 -25.575 0.525
36.525 -25.575 -0.825
36.525 -25.575 0.375
36.525 -25.575 -1.125
36.525 -25.575 0.075
36.525 -25.575 3.075
33.225 -24.375 -0.525
33.225 -24.375 0.975
33.225 -24.375 0.525
33.225 -24.375 1.125
33.225 -24.375 0.825
35.475 -23.325 0.075
35.475 -23.325 -1.125
36.675 -24.975 2.925
36.675 -24.975 -1.275
36.675 -24.975 0.525
36.675 -24.975 0.075
33.075 -24.975 2.175
34.875 -23.175 0.075
34.875 -23.175 0.225
36.675 -25.125 0.225
35.025 -26.775 4.575
36.675 -25.125 0.075
33.075 -25.125 0.525
36.675 -24.825 -0.975
33.075 -24.825 1.275
36.075 -26.325 -0.975
33.525 -26.175 1.275
34.725 -23.175 0.075
35.025 -23.175 0.075
33.525 -26.175 2.025
36.525 -25.725 0.075
36.525 -25.725 -0.075
36.525 -25.725 -0.975
33.225 -24.225 0.525
33.225 -25.725 3.225
33.225 -25.725 0.675
33.225 -25.725 1.275
36.675 -25.275 0.975
36.675 -25.275 0.225
34.575 -26.775 2.925
33.075 -25.275 1.575
36.675 -24.675 0.825
36.675 -24.675 -0.975
36.675 -24.675 0.225
36.675 -24.675 2.475
36.675 -24.675 -1.125
33.075 -24.675 0.675
33.075 -24.675 0.525
35.175 -23.175 -0.975
34.575 -23.175 -0.675
36.375 -26.025 3.075
36.375 -26.025 -0.975
35.925 -23.475 2.925
33.375 -26.025 1.275
36.375 -23.925 -0.825
33.375 -23.925 0.975
33.375 -23.925 0.825
33.375 -23.925 1.725
36.675 -25.425 0.075
36.675 -25.425 0.525
36.675 -25.425 -1.125
36.675 -25.425 2.025
36.675 -25.425 0.225
36.675 -25.425 -0.225
36.675 -24.525 -0.975
36.675 -24.525 3.375
36.675 -24.525 -1.275
34.425 -26.775 2.625
35.325 -23.175 0.075
35.325 -23.175 0.375
34.425 -23.175 -0.975
34.425 -23.175 -0.675
33.975 -26.625 -0.675
36.525 -25.875 -0.825
36.525 -25.875 -0.075
33.225 -25.875 1.125
33.225 -24.075 1.125
33.225 -24.075 0.975
35.775 -23.325 -1.125
35.775 -23.325 -0.975
35.775 -23.325 2.925
36.675 -25.575 0.525
36.675 -25.575 -1.275
36.675 -25.575 0.075
36.675 -25.575 0.675
33.075 -25.575 0.525
33.075 -24.375 0.375
33.075 -24.375 0.675
36.675 -24.375 -1.125
34.275 -26.775 2.775
35.475 -23.175 -1.275
33.525 -26.325 0.825
36.225 -26.325 4.275
33.525 -23.625 1.725
33.375 -26.175 1.275
33.375 -26.175 -0.375
33.375 -26.175 2.475
36.375 -26.175 -0.825
33.675 -26.475 -0.525
33.675 -26.475 -0.375
33.675 -26.475 1.575
33.675 -26.475 -0.075
33.675 -26.475 -0.225
33.375 -23.775 0.825
35.625 -26.775 -0.375
36.675 -25.725 -1.125
36.675 -25.725 -1.875
36.675 -25.725 -0.075
33.075 -24.225 0.675
36.675 -24.225 2.925
33.075 -25.725 1.125
33.075 -25.725 0.675
34.875 -23.025 -1.125
34.875 -23.025 0.075
32.925 -24.975 1.875
36.825 -24.975 0.075
36.525 -26.025 -0.825
36.525 -26.025 -1.275
33.825 -26.625 0.525
33.825 -26.625 2.475
35.925 -26.625 -1.725
33.225 -26.025 0.975
33.225 -26.025 1.425
33.825 -26.625 2.325
35.925 -26.625 -0.975
35.025 -26.925 -1.425
33.225 -23.925 1.125
33.225 -23.925 0.975
36.525 -23.925 -0.825
36.825 -25.125 0.675
36.825 -25.125 0.075
36.825 -25.125 1.575
36.825 -25.125 0.225
36.825 -25.125 -0.225
34.725 -23.025 -1.125
34.725 -23.025 0.075
35.025 -23.025 -0.525
35.025 -23.025 -0.975
36.825 -24.825 3.375
36.825 -24.825 2.925
36.825 -25.275 1.875
36.825 -25.275 0.225
36.825 -25.275 2.175
36.825 -25.275 0.075
34.575 -23.025 -3.375
34.575 -23.025 -0.975
36.825 -24.675 1.425
36.825 -24.675 3.375
36.825 -24.675 -0.825
36.825 -24.675 1.875
36.825 -24.675 0.075
35.325 -26.925 3.075
35.325 -26.925 2.925
34.425 -26.925 2.925
36.825 -25.425 -1.425
36.825 -25.425 0.075
36.825 -25.425 0.225
35.325 -23.025 0.525
32.925 -24.525 -0.075
36.825 -24.525 2.475
36.675 -25.875 0.075
36.675 -25.875 -1.875
33.975 -26.775 -0.525
33.075 -24.075 0.825
33.075 -24.075 0.675
33.075 -24.075 1.125
36.675 -24.075 -0.825
33.975 -23.175 2.175
33.525 -26.475 -0.225
33.525 -26.475 1.125
33.525 -26.475 1.575
36.375 -23.625 -0.525
36.225 -23.475 3.075
36.525 -26.175 -0.825
36.525 -26.175 1.575
34.275 -26.925 2.325
34.275 -26.925 -1.125
33.675 -26.625 1.875
33.675 -26.625 -0.225
33.675 -26.625 -0.075
33.225 -23.775 1.575
36.525 -23.775 -1.125
33.225 -23.775 0.975
36.825 -25.575 -1.125
36.825 -25.575 0.675
32.925 -24.375 0.975
36.825 -24.375 -1.425
33.825 -26.775 0.675
33.075 -26.025 1.425
33.825 -26.775 2.325
35.925 -26.775 4.725
33.075 -23.925 0.525
33.075 -23.925 0.675
33.075 -23.925 -2.475
34.125 -26.925 2.325
36.825 -24.225 2.475
36.825 -25.725 -0.825
32.925 -25.725 0.375
32.925 -25.725 0.525
34.125 -23.025 2.775
34.125 -23.025 -0.375
36.975 -24.975 0.075
36.975 -24.975 0.225
32.775 -24.975 1.425
35.025 -27.075 2.925
36.975 -25.125 0.525
35.025 -22.875 -0.975
34.725 -22.875 -1.275
36.975 -25.125 0.225
36.975 -24.825 2.475
36.975 -24.825 2.325
36.375 -26.475 2.025
36.375 -26.475 -0.825
33.375 -26.475 0.375
33.375 -23.475 1.875
36.975 -25.275 2.625
36.975 -25.275 -0.225
36.975 -25.275 0.525
36.975 -25.275 0.075
34.575 -22.875 0.075
34.575 -22.875 -0.525
34.575 -22.875 -0.825
35.175 -22.875 0.525
35.175 -22.875 -0.675
36.975 -25.275 0.675
36.975 -24.675 2.625
36.975 -24.675 -0.975
36.975 -24.675 1.725
36.975 -24.675 2.325
36.975 -24.675 -1.275
36.525 -26.325 -1.275
36.525 -26.325 -0.825
36.525 -26.325 1.275
36.525 -26.325 -0.525
33.525 -26.625 0.975
33.525 -26.625 1.575
33.525 -26.625 1.275
33.225 -23.625 0.975
33.225 -23.625 0.825
33.225 -23.625 0.675
36.525 -23.625 0.825
33.525 -23.325 2.025
35.325 -27.075 2.325
33.975 -26.925 2.025
36.975 -25.425 0.375
36.975 -25.425 1.575
36.975 -25.425 0.075
36.825 -25.875 -0.975
36.825 -25.875 -0.825
32.925 -25.875 0.675
34.425 -22.875 -0.975
34.425 -22.875 -0.225
34.425 -22.875 0.675
34.425 -22.875 -1.125
34.425 -22.875 0.525
34.425 -22.875 0.075
32.775 -24.525 2.025
32.925 -24.075 0.675
36.825 -24.075 3.075
32.925 -24.075 0.225
32.925 -24.075 0.075
32.925 -24.075 0.375
33.075 -26.175 0.525
33.075 -23.775 0.675
33.675 -26.775 1.875
33.075 -23.775 0.975
36.075 -26.775 -1.125
36.975 -25.575 0.075
36.975 -25.575 0.525
36.975 -25.575 2.625
34.275 -22.875 2.175
36.975 -24.375 1.875
36.975 -24.375 -2.775
33.825 -26.925 1.725
35.925 -26.925 1.125
36.825 -26.025 -1.275
36.825 -26.025 1.575
32.925 -26.025 1.425
36.825 -23.925 -1.425
32.925 -23.925 0.225
32.925 -23.925 1.425
34.125 -27.075 2.175
35.625 -27.075 0.675
36.525 -26.475 0.825
36.525 -26.475 -1.725
36.375 -26.625 -1.125
36.375 -26.625 2.025
33.225 -26.475 1.575
36.375 -26.625 -0.675
33.225 -23.475 2.025
34.125 -22.875 -1.275
36.975 -24.225 -1.425
36.975 -24.225 2.025
36.975 -25.725 0.675
34.125 -22.875 -0.975
34.125 -22.875 -0.525
32.775 -24.225 0.225
32.775 -24.225 0.675
32.775 -24.225 0.375
32.775 -25.725 0.675
36.375 -23.325 3.225
33.375 -23.325 -0.375
33.375 -23.325 2.025
36.375 -23.325 -0.075
36.675 -26.325 -0.525
36.675 -26.325 -0.825
33.075 -23.625 -1.575
33.075 -23.625 0.825
33.075 -23.625 0.525
33.075 -23.625 0.675
33.075 -23.625 1.425
33.525 -26.775 1.725
33.525 -26.775 1.425
37.125 -24.975 0.225
37.125 -24.975 -2.175
32.625 -24.975 1.275
34.875 -22.725 2.925
37.125 -25.125 0.075
37.125 -25.125 -0.225
32.625 -25.125 -0.225
35.025 -22.725 -0.375
37.125 -24.825 -0.525
37.125 -24.825 -0.675
32.625 -24.825 2.925
32.625 -24.825 1.725
35.175 -22.725 1.275
37.125 -25.275 0.225
34.575 -22.725 0.225
37.125 -25.275 0.075
37.125 -25.275 -0.075
35.175 -22.725 1.425
35.775 -27.075 0.375
33.975 -22.875 -0.225
36.975 -25.875 -0.675
36.975 -24.075 2.325
32.775 -24.075 -1.575
33.675 -26.925 -0.225
33.675 -26.925 0.825
36.825 -26.175 -1.725
36.825 -26.175 -4.575
36.825 -23.775 -1.425
32.925 -23.775 -1.875
36.825 -23.775 2.775
37.125 -25.425 0.225
37.125 -25.425 -1.125
37.125 -25.425 0.075
37.125 -25.425 2.625
34.425 -22.725 0.075
34.425 -22.725 -0.675
35.325 -22.725 -0.825
32.625 -24.525 1.575
34.425 -27.225 2.325
34.425 -22.725 -0.975
37.125 -24.525 2.475
37.125 -24.525 1.875
37.125 -25.575 0.075
37.125 -25.575 -0.225
34.275 -22.725 -0.975
34.275 -27.225 3.675
37.125 -24.375 2.175
33.225 -26.625 0.975
33.225 -26.625 0.675
36.525 -23.325 -0.525
33.225 -23.325 2.025
33.225 -23.325 2.475
33.225 -23.325 1.575
33.225 -23.325 1.275
33.075 -23.475 0.525
33.075 -26.475 1.125
33.375 -26.775 2.175
36.375 -23.175 0.675
33.375 -23.175 1.875
36.975 -26.025 0.075
32.775 -23.925 -0.075
34.125 -22.725 -0.825
37.125 -25.725 -0.225
37.125 -25.725 -0.675
34.125 -27.225 2.175
33.525 -26.925 1.725
33.525 -26.925 1.275
33.525 -26.925 0.075
36.225 -26.925 -1.125
36.225 -26.925 -0.825
36.225 -26.925 2.175
36.825 -26.325 -1.275
36.225 -23.025 3.225
32.925 -23.625 0.225
33.525 -23.025 2.175
33.525 -23.025 -2.025
36.225 -23.025 0.675
37.275 -25.125 2.925
37.275 -25.125 0.225
34.725 -27.375 3.975
37.275 -24.825 0.225
32.475 -24.825 0.225
37.275 -24.825 2.325
37.275 -24.825 -0.975
34.725 -22.575 1.275
37.275 -25.275 0.075
37.275 -25.275 2.475
37.275 -25.275 2.175
35.175 -27.375 -0.075
37.275 -24.675 2.475
36.075 -27.075 1.125
33.675 -27.075 0.825
33.675 -27.075 0.675
33.675 -27.075 -0.075
34.575 -22.575 -0.075
34.575 -22.575 -1.275
36.075 -22.875 -3.075
32.775 -23.775 0.075
33.975 -22.725 -0.975
35.775 -22.725 -1.575
32.625 -25.875 0.375
35.775 -22.725 2.475
37.125 -25.875 -0.225
37.125 -25.875 -1.425
37.125 -25.875 -0.825
37.125 -25.875 0.075
37.125 -25.875 -1.125
37.125 -24.075 2.175
37.125 -24.075 -1.425
36.525 -26.775 -1.425
33.075 -26.625 2.325
33.075 -26.625 0.525
37.275 -25.425 -0.075
37.275 -25.425 2.475
37.275 -25.425 0.525
37.275 -25.425 2.175
37.275 -25.425 0.075
34.425 -27.375 2.175
33.075 -23.325 -0.225
33.075 -23.325 -2.625
33.075 -23.325 1.575
36.525 -23.175 0.525
33.225 -23.175 2.025
35.325 -22.575 0.225
34.425 -22.575 -0.375
34.425 -22.575 -1.275
36.375 -26.925 -0.675
36.375 -26.925 -0.975
36.375 -26.925 0.075
33.375 -26.925 1.575
36.825 -26.475 -6.075
36.825 -26.475 0.975
33.375 -23.025 1.725
32.925 -23.475 0.825
37.275 -25.575 2.325
37.275 -25.575 -1.275
32.475 -24.375 1.425
35.475 -22.575 0.525
35.475 -22.575 0.225
34.275 -22.575 0.075
33.825 -22.725 -0.975
33.825 -27.225 1.425
37.125 -26.025 -0.225
37.125 -26.025 0.075
32.625 -23.925 2.625
37.125 -23.925 3.075
37.125 -23.925 2.475
36.975 -26.325 2.625
32.775 -26.325 -0.225
32.775 -23.625 0.825
32.775 -23.625 0.675
34.125 -27.375 2.625
37.275 -25.725 -0.075
37.275 -25.725 0.075
34.125 -22.575 -0.675
35.625 -22.575 -1.275
35.625 -22.575 -1.425
35.625 -22.575 -0.975
35.625 -22.575 2.175
36.675 -26.775 -1.575
36.675 -26.775 -0.075
36.675 -26.775 1.125
36.675 -23.175 3.675
33.075 -23.175 1.425
33.075 -23.175 2.025
33.075 -23.175 0.075
32.325 -24.975 0.675
37.425 -24.975 2.475
37.425 -24.975 2.175
37.125 -26.175 1.725
37.125 -26.175 0.075
34.875 -22.425 2.475
36.075 -27.225 1.125
33.675 -27.225 0.525
37.125 -23.775 2.025
32.625 -23.775 1.875
32.625 -23.775 0.525
32.625 -23.775 0.675
34.725 -27.525 2.325
37.425 -25.125 2.775
37.425 -24.825 2.325
33.225 -26.925 0.825
34.725 -22.425 -0.075
34.725 -22.425 2.625
36.525 -23.025 3.525
33.225 -23.025 3.075
32.925 -23.325 1.275
32.925 -23.325 0.825
32.925 -23.325 0.375
33.975 -27.375 2.175
37.275 -25.875 -0.825
37.275 -25.875 2.025
37.425 -25.275 0.225
35.175 -27.525 3.075
35.175 -27.525 0.825
37.425 -24.675 2.475
34.575 -22.425 2.325
34.575 -22.425 -0.375
34.575 -22.425 -0.075
36.375 -27.075 0.375
36.375 -27.075 0.825
33.375 -27.075 0.675
33.375 -27.075 0.825
33.375 -27.075 1.275
33.375 -27.075 1.425
32.775 -23.475 0.225
37.425 -25.425 0.225
37.425 -25.425 2.325
37.425 -25.425 0.525
37.425 -25.425 2.175
37.425 -25.425 -0.075
34.425 -22.425 -0.075
37.425 -25.575 -0.975
37.425 -25.575 -0.825
33.825 -27.375 1.875
33.825 -27.375 2.325
37.275 -26.025 0.075
37.275 -26.025 0.525
35.925 -27.375 0.675
35.925 -27.375 3.225
34.275 -27.525 2.175
37.425 -24.375 -1.425
37.275 -23.925 2.025
33.825 -22.575 -0.975
34.275 -22.425 0.075
32.625 -26.325 -0.675
37.125 -26.325 0.075
37.125 -26.325 -0.075
37.125 -26.325 -0.975
37.125 -26.325 -0.825
33.525 -27.225 1.425
32.625 -23.625 0.075
36.675 -26.925 3.675
36.675 -26.925 3.525
36.825 -26.775 -1.125
33.075 -23.025 1.575
33.075 -23.025 -2.025
32.925 -23.175 0.225
32.925 -23.175 -0.525
32.925 -23.175 -2.175
37.425 -25.725 2.325
35.625 -27.525 0.525
35.625 -22.425 2.175
34.125 -22.425 0.075
36.525 -27.075 -0.225
33.225 -27.075 0.225
33.225 -27.075 0.825
33.225 -27.075 0.975
32.775 -23.325 0.825
32.775 -23.325 -0.525
32.775 -23.325 0.525
32.775 -23.325 -2.025
32.775 -23.325 0.975
37.275 -26.175 -1.125
36.075 -27.375 0.525
36.075 -27.375 0.375
36.075 -27.375 0.675
36.075 -27.375 0.825
36.075 -27.375 1.125
33.675 -22.575 -0.525
37.575 -24.975 2.625
37.575 -24.975 2.925
37.575 -24.975 1.425
34.875 -22.275 -0.675
37.425 -25.875 2.175
37.425 -25.875 1.725
37.425 -25.875 -0.675
33.975 -27.525 1.725
35.775 -27.525 0.825
35.025 -27.675 0.825
32.625 -26.475 0.675
36.375 -22.725 -2.775
37.125 -26.475 -0.675
37.125 -26.475 2.625
37.125 -26.475 -0.975
35.775 -22.425 2.325
33.975 -22.425 0.675
33.975 -22.425 2.625
33.975 -22.425 -0.225
33.975 -22.425 0.525
33.975 -22.425 0.075
35.025 -22.275 -1.125
37.575 -25.125 2.775
34.725 -22.275 -0.675
34.725 -22.275 -1.275
32.175 -24.825 0.825
37.575 -24.825 2.325
37.575 -24.825 -1.425
37.575 -24.825 -2.175
37.575 -24.825 1.875
35.175 -27.675 0.225
37.575 -25.275 0.075
34.575 -22.275 -1.275
34.575 -22.275 -0.825
34.575 -22.275 0.225
37.575 -25.275 2.475
37.575 -25.275 -0.225
37.575 -25.275 2.925
35.175 -22.275 -1.275
32.175 -24.675 0.225
34.425 -27.675 2.625
37.575 -25.425 0.375
34.425 -22.275 0.375
34.425 -22.275 -0.675
32.175 -24.525 1.125
37.575 -24.525 2.175
37.575 -24.525 -1.125
37.575 -24.525 -1.725
37.275 -26.325 -0.975
37.275 -23.625 2.775
33.525 -22.575 -0.225
37.425 -26.025 0.075
37.425 -26.025 0.975
37.425 -26.025 -1.275
33.825 -27.525 1.875
35.925 -27.525 0.675
35.925 -27.525 0.375
37.425 -23.925 -0.675
35.925 -22.425 2.025
35.925 -22.425 2.175
32.925 -26.925 0.975
32.925 -26.925 1.575
32.925 -26.925 1.275
32.925 -26.925 0.825
32.925 -23.025 1.125
32.925 -23.025 0.675
32.925 -23.025 -1.575
32.925 -23.025 1.725
36.825 -23.025 -0.075
36.675 -27.075 0.525
36.675 -27.075 -0.225
36.975 -26.775 -0.675
32.775 -26.775 0.075
33.075 -22.875 0.075
33.075 -22.875 1.725
32.775 -23.175 0.225
36.975 -23.175 3.525
34.275 -22.275 -0.075
33.225 -22.725 3.225
33.225 -22.725 2.775
36.525 -22.725 3.075
37.125 -26.625 0.075
37.125 -26.625 -0.525
36.525 -27.225 0.975
33.225 -27.225 0.825
33.225 -27.225 0.075
32.625 -23.325 0.525
32.625 -23.325 0.675
32.625 -23.325 0.975
37.125 -23.325 2.025
34.125 -27.675 2.025
34.125 -27.675 2.325
34.125 -27.675 3.525
35.625 -27.675 0.525
35.625 -27.675 0.375
34.125 -22.275 -0.075
37.425 -26.175 0.525
37.425 -26.175 -1.125
33.675 -27.525 1.575
36.075 -27.525 0.375
36.075 -27.525 1.125
36.075 -27.525 2.775
36.375 -27.375 0.675
32.475 -23.475 0.225
36.375 -22.575 3.525
36.375 -22.575 3.075
33.975 -27.675 1.125
33.975 -27.675 2.175
35.775 -27.675 0.825
35.775 -27.675 0.675
35.775 -27.675 1.275
35.775 -22.275 2.175
37.575 -25.875 1.875
33.975 -22.275 0.075
34.875 -27.825 0.825
34.875 -27.825 2.775
37.725 -24.975 2.625
37.725 -24.975 2.775
35.025 -27.825 2.625
35.175 -27.825 3.375
32.775 -26.925 1.875
36.975 -26.925 0.225
34.575 -22.125 -0.375
34.575 -22.125 -0.825
37.725 -25.275 0.075
35.175 -22.125 -1.575
32.775 -23.025 0.075
32.775 -23.025 0.975
32.775 -23.025 0.375
32.775 -23.025 -0.675
32.775 -23.025 -2.475
32.925 -22.875 0.225
32.925 -22.875 0.975
32.925 -22.875 -1.875
32.925 -22.875 -2.175
32.775 -23.025 1.425
36.675 -27.225 0.525
36.675 -27.225 0.375
33.075 -27.225 0.975
32.625 -23.175 1.275
32.625 -23.175 0.825
32.625 -23.175 0.375
32.625 -23.175 0.675
37.125 -23.175 1.875
37.425 -26.325 -0.825
33.525 -27.525 1.725
33.525 -27.525 1.425
36.225 -27.525 0.825
37.725 -25.425 0.075
37.725 -25.425 1.575
33.525 -22.425 1.875
34.425 -22.125 0.375
34.425 -22.125 -1.275
35.325 -22.125 -0.225
32.025 -24.525 6.225
32.025 -24.525 1.275
35.925 -27.675 0.825
35.925 -27.675 0.975
35.925 -27.675 1.425
35.925 -27.675 0.675
37.575 -26.025 0.075
33.825 -22.275 2.925
33.825 -22.275 -1.575
36.525 -27.375 0.975
35.475 -27.825 0.525
36.525 -27.375 0.825
36.525 -27.375 -2.025
36.525 -27.375 0.675
37.275 -26.625 3.375
37.275 -26.625 0.975
37.275 -23.325 2.175
32.475 -23.325 0.675
32.475 -23.325 0.375
32.025 -24.375 0.375
34.125 -27.825 1.275
35.625 -27.825 0.525
34.125 -22.125 0.225
37.725 -25.725 -0.375
36.075 -27.675 -0.675
36.075 -27.675 0.525
36.075 -27.675 1.275
36.075 -27.675 0.375
32.175 -26.175 1.875
36.075 -22.275 3.675
37.575 -23.775 5.625
37.425 -26.475 2.925
36.375 -27.525 0.675
36.375 -27.525 0.525
33.375 -22.425 2.175
32.775 -27.075 0.525
32.775 -22.875 1.125
32.775 -22.875 2.775
32.775 -22.875 0.225
36.975 -22.875 1.125
37.125 -26.925 -0.825
37.125 -26.925 0.525
32.625 -23.025 0.225
32.625 -23.025 0.375
32.625 -23.025 0.825
32.925 -22.725 -2.625
32.925 -22.725 0.825
37.125 -23.025 2.175
35.775 -27.825 0.375
35.775 -27.825 0.525
35.775 -27.825 0.675
33.975 -27.825 3.375
33.975 -27.825 0.975
33.975 -22.125 -0.975
33.975 -22.125 0.075
35.775 -22.125 -1.425
32.025 -24.075 0.975
36.675 -27.375 0.525
36.675 -27.375 0.825
33.075 -27.375 0.975
33.075 -27.375 0.825
37.275 -23.175 1.725
37.275 -23.175 1.425
32.475 -23.175 0.375
32.475 -23.175 1.275
32.475 -23.175 0.975
36.675 -22.575 5.925
37.875 -24.975 -6.225
34.875 -27.975 -0.975
37.875 -25.125 2.925
37.875 -25.125 2.775
35.025 -21.975 -0.525
35.175 -27.975 0.375
34.575 -21.975 -0.975
37.875 -25.275 -1.425
35.175 -21.975 3.675
31.875 -24.675 -5.475
37.875 -24.675 -0.675
36.225 -27.675 1.425
36.225 -27.675 0.825
33.525 -27.675 1.425
37.575 -26.325 0.075
37.575 -26.325 -0.675
37.575 -23.625 1.275
35.325 -27.975 0.525
34.425 -21.975 1.275
31.875 -24.525 0.825
37.875 -24.525 -0.225
37.875 -24.525 0.975
37.425 -26.625 -0.975
36.525 -27.525 0.825
36.525 -27.525 0.525
37.425 -26.625 3.975
36.525 -27.525 -0.375
35.925 -27.825 -0.525
35.925 -27.825 0.825
35.925 -27.825 0.975
33.825 -27.825 1.725
37.425 -23.325 2.025
32.325 -23.325 0.375
33.825 -22.125 -0.225
35.475 -27.975 0.375
35.475 -27.975 3.375
35.475 -27.975 0.525
35.475 -21.975 -0.975
32.625 -27.075 4.875
36.975 -27.225 -0.375
36.975 -27.225 0.675
32.775 -22.725 1.125
32.625 -22.875 0.525
32.625 -22.875 1.275
32.625 -22.875 0.225
37.125 -22.875 0.975
37.125 -22.875 0.675
36.375 -27.675 0.675
32.175 -23.475 0.675
37.575 -26.475 -0.675
37.575 -26.475 0.075
37.575 -26.475 -0.375
37.575 -26.475 -0.525
33.375 -22.275 -1.125
32.475 -26.925 -2.175
33.675 -27.825 0.975
35.625 -27.975 5.025
35.625 -27.975 0.975
35.625 -27.975 1.275
34.125 -21.975 0.675
37.875 -25.725 2.025
37.275 -23.025 1.425
37.275 -23.025 2.925
37.275 -23.025 0.825
32.475 -23.025 0.525
36.825 -27.375 0.675
36.825 -27.375 0.225
37.725 -26.175 0.075
33.675 -22.125 2.925
33.675 -22.125 2.775
32.925 -22.575 1.275
36.825 -22.575 0.375
36.675 -27.525 0.525
36.675 -27.525 0.825
36.675 -27.525 0.675
36.675 -27.525 1.275
32.325 -23.175 0.525
32.325 -23.175 1.425
32.325 -23.175 0.975
33.075 -22.425 2.175
37.875 -25.875 -0.675
37.875 -25.875 -0.525
35.775 -27.975 0.525
35.775 -27.975 0.675
35.775 -27.975 0.825
35.775 -27.975 -0.075
33.975 -27.975 1.125
33.975 -27.975 1.725
38.025 -24.975 -1.125
38.025 -24.825 2.925
38.025 -24.825 -0.825
36.225 -27.825 -0.675
36.225 -27.825 0.675
33.525 -27.825 1.125
33.525 -27.825 1.425
37.725 -26.325 -0.825
37.725 -26.325 -1.425
37.725 -23.625 1.725
35.025 -21.825 0.075
38.025 -25.275 1.875
35.175 -28.125 0.075
35.175 -28.125 4.725
38.025 -24.675 -0.525
36.525 -27.675 0.525
36.525 -27.675 0.675
36.525 -27.675 0.975
37.575 -26.625 2.625
37.575 -26.625 2.925
33.225 -22.275 2.925
33.225 -22.275 3.075
33.225 -22.275 2.475
34.575 -21.825 -0.825
32.175 -23.325 0.825
33.825 -21.975 0.075
33.825 -27.975 1.125
35.925 -27.975 0.975
35.925 -27.975 0.375
35.925 -27.975 -0.525
35.925 -21.975 -0.825
31.875 -23.925 2.475
38.025 -25.425 2.025
38.025 -25.425 3.825
35.325 -28.125 0.525
34.425 -28.125 2.325
31.725 -24.525 0.375
37.125 -22.725 -0.375
37.125 -22.725 0.675
37.125 -27.225 0.525
37.275 -27.075 1.125
37.275 -22.875 1.875
32.475 -22.875 0.975
32.475 -22.875 0.825
32.775 -27.375 0.225
36.975 -22.575 -0.075
32.775 -22.575 3.225
38.025 -24.375 -0.075
35.475 -28.125 1.125
35.475 -21.825 -0.225
34.275 -21.825 -0.375
37.425 -26.925 1.425
37.425 -26.925 3.525
37.425 -23.025 1.875
37.425 -23.025 1.425
32.325 -23.025 0.675
36.825 -27.525 0.375
36.825 -27.525 1.275
36.825 -27.525 0.225
32.925 -27.525 -2.775
32.925 -22.425 -1.875
32.925 -22.425 -2.175
32.925 -22.425 -2.325
32.925 -22.425 1.425
36.375 -27.825 0.675
36.375 -27.825 0.525
36.375 -27.825 0.975
33.375 -27.825 1.125
33.375 -27.825 1.275
37.725 -26.475 -1.425
37.725 -26.475 3.075
37.725 -26.475 -0.075
37.725 -26.475 0.375
37.725 -23.475 1.725
37.725 -23.475 1.575
33.675 -21.975 0.525
33.675 -21.975 0.675
36.075 -27.975 0.825
36.075 -27.975 0.975
36.075 -27.975 0.525
36.075 -27.975 2.775
36.075 -21.975 3.675
35.625 -28.125 1.125
35.625 -28.125 -0.525
35.625 -28.125 0.375
35.625 -28.125 0.525
31.725 -24.225 1.425
36.675 -27.675 1.275
36.675 -27.675 0.525
33.075 -27.675 0.225
37.575 -26.775 -1.575
37.575 -26.775 2.775
33.075 -22.275 -1.275
37.575 -23.175 0.375
35.775 -28.125 0.375
35.775 -28.125 0.975
33.975 -21.825 -0.075
37.275 -22.725 0.525
37.275 -22.725 1.125
37.275 -22.725 0.975
37.875 -26.325 -0.075
37.875 -26.325 0.075
37.125 -27.375 0.675
32.475 -22.725 0.525
32.475 -22.725 0.375
32.475 -22.725 0.675
36.225 -27.975 1.275
33.525 -21.975 -1.275
33.525 -21.975 -1.425
33.525 -21.975 -1.575
33.525 -27.975 1.725
33.525 -27.975 1.425
37.875 -23.625 1.575
32.625 -22.575 0.825
32.625 -22.575 1.425
32.625 -22.575 0.525
37.125 -22.575 0.525
37.125 -22.575 0.375
37.125 -22.575 1.425
36.525 -27.825 0.525
36.525 -27.825 0.675
37.725 -26.625 -0.225
37.725 -26.625 -0.975
37.725 -26.625 2.775
37.725 -26.625 1.575
33.225 -22.125 -1.275
34.875 -21.675 -0.525
34.875 -21.675 -1.575
34.725 -28.275 2.775
35.025 -28.275 2.175
37.425 -22.875 1.125
32.325 -22.875 0.075
32.325 -22.875 0.525
32.775 -22.425 1.725
32.775 -22.425 -2.625
38.175 -25.275 0.075
34.575 -28.275 2.325
38.175 -24.675 -1.275
34.575 -21.675 2.775
35.925 -28.125 0.975
35.925 -28.125 0.675
35.925 -28.125 0.225
35.925 -28.125 1.125
33.825 -28.125 1.275
38.025 -26.025 0.825
33.825 -21.825 2.775
33.825 -21.825 -0.975
35.925 -21.825 3.675
38.175 -25.425 3.225
35.325 -28.275 0.525
35.325 -28.275 0.375
31.575 -25.425 4.275
35.325 -21.675 -1.275
34.425 -21.675 -0.825
34.425 -21.675 0.675
36.825 -27.675 0.375
36.825 -27.675 0.825
36.825 -27.675 0.675
32.925 -22.275 2.325
32.925 -22.275 -1.725
32.925 -22.275 2.925
32.175 -23.025 0.075
32.175 -23.025 -0.375
32.175 -23.025 1.425
36.825 -22.275 1.425
37.575 -23.025 1.425
35.475 -28.275 0.675
35.475 -28.275 0.525
37.875 -26.475 -0.825
37.875 -26.475 -0.375
37.875 -26.475 0.075
37.875 -26.475 0.525
36.375 -27.975 1.425
36.375 -27.975 0.525
36.375 -27.975 -0.075
36.375 -27.975 1.725
36.375 -27.975 0.825
36.375 -27.975 1.125
33.375 -21.975 3.075
33.375 -21.975 -1.275
37.875 -26.475 -0.675
36.375 -27.975 0.675
33.375 -27.975 1.425
33.375 -27.975 0.975
36.675 -27.825 0.525
36.675 -27.825 0.375
36.075 -28.125 0.525
36.075 -28.125 1.575
36.075 -28.125 0.975
33.675 -28.125 1.275
36.675 -22.125 1.125
33.075 -22.125 3.225
33.075 -22.125 2.775
33.075 -22.125 2.925
37.725 -23.175 1.575
33.675 -21.825 0.075
33.675 -21.825 -0.225
38.175 -24.225 1.125
38.175 -25.725 0.075
35.625 -28.275 3.225
35.625 -28.275 0.525
34.125 -21.675 -0.075
34.125 -21.675 -0.525
37.275 -22.575 0.525
37.275 -22.575 1.125
32.475 -22.575 0.375
32.475 -22.575 1.275
37.425 -22.725 0.075
32.325 -22.725 0.825
32.325 -22.725 0.975
32.625 -22.425 3.075
35.775 -28.275 0.975
35.775 -28.275 2.925
35.775 -28.275 0.375
35.775 -28.275 2.625
35.775 -28.275 0.225
38.175 -25.875 -0.075
35.775 -21.675 -1.425
33.975 -21.675 -0.225
33.975 -21.675 0.525
36.975 -27.675 0.675
36.975 -27.675 -1.875
36.975 -27.675 1.275
37.575 -22.875 0.225
37.575 -22.875 1.875
37.575 -22.875 0.825
32.775 -22.275 -2.475
32.775 -22.275 2.475
37.875 -26.625 -0.975
36.525 -27.975 1.725
36.525 -27.975 0.525
36.525 -27.975 0.225
31.875 -26.625 -0.825
33.225 -27.975 2.025
33.225 -27.975 0.375
38.025 -26.325 -0.075
38.025 -26.325 0.075
38.025 -23.625 2.325
36.225 -28.125 1.725
36.225 -28.125 0.675
33.525 -28.125 -3.225
33.525 -21.825 0.075
33.525 -21.825 3.225
34.875 -28.425 2.775
38.325 -24.975 0.525
35.025 -28.425 1.875
36.825 -27.825 0.525
36.825 -27.825 0.225
36.825 -27.825 0.375
37.725 -26.925 2.775
37.725 -23.025 0.825
32.025 -23.025 0.075
32.025 -23.025 0.225
35.025 -21.525 -0.825
34.725 -21.525 -1.425
32.925 -22.125 0.975
35.925 -28.275 0.975
35.925 -28.275 0.825
35.925 -28.275 1.425
35.925 -28.275 0.525
35.925 -28.275 0.675
35.925 -28.275 0.225
33.825 -21.675 -0.225
35.175 -21.525 1.575
35.175 -21.525 -1.425
35.175 -21.525 -1.275
38.325 -25.275 -0.675
35.325 -28.425 2.175
35.325 -28.425 0.075
34.425 -28.425 1.725
34.425 -21.525 -0.675
38.025 -23.475 0.375
38.025 -23.475 0.825
38.025 -26.475 0.375
38.025 -26.475 -0.075
38.025 -26.475 0.525
36.375 -28.125 -0.675
36.375 -28.125 1.725
36.375 -28.125 1.275
36.375 -28.125 0.225
36.375 -28.125 1.125
36.375 -28.125 0.675
33.375 -28.125 0.975
36.375 -21.825 1.725
37.875 -26.775 -0.675
37.875 -26.775 -0.825
33.075 -21.975 -0.225
33.075 -21.975 -0.525
36.675 -27.975 0.825
36.675 -27.975 0.525
36.675 -27.975 0.675
37.875 -23.175 0.075
37.875 -23.175 0.675
31.875 -23.175 0.375
37.275 -27.525 -0.075
35.475 -28.425 0.675
35.475 -28.425 0.825
35.475 -28.425 0.525
32.325 -22.575 -0.375
32.325 -22.575 1.275
32.325 -22.575 0.675
32.325 -22.575 0.825
32.475 -22.425 1.725
32.475 -22.425 1.875
37.275 -22.425 1.275
34.275 -21.525 -1.125
38.325 -24.375 -0.975
38.175 -23.775 1.725
38.175 -23.775 2.175
38.175 -23.775 -1.875
36.075 -28.275 1.875
36.075 -28.275 0.525
36.075 -28.275 0.225
33.675 -28.275 0.525
33.675 -28.275 1.725
33.675 -21.675 2.625
33.675 -21.675 0.225
37.125 -27.675 -0.375
32.175 -22.725 0.825
37.575 -27.225 -0.975
35.625 -28.425 0.525
35.625 -28.425 1.125
35.625 -28.425 0.975
35.625 -28.425 3.225
35.625 -28.425 0.225
34.125 -28.425 2.775
35.625 -21.525 -0.225
34.125 -21.525 -0.525
36.975 -27.825 -1.275
36.975 -27.825 1.275
37.725 -27.075 0.675
37.725 -22.875 0.375
32.025 -22.875 0.525
32.775 -22.125 -2.325
32.775 -22.125 3.075
36.525 -28.125 0.825
36.525 -28.125 -0.075
38.025 -26.625 -1.425
33.225 -28.125 2.025
38.025 -23.325 0.525
33.225 -21.825 0.525
38.175 -26.325 -1.125
38.175 -26.325 0.075
38.175 -26.325 -0.075
38.175 -23.625 1.875
36.225 -28.275 0.525
36.225 -28.275 0.675
33.525 -28.275 1.275
35.775 -28.425 0.975
35.775 -28.425 0.825
35.775 -28.425 2.625
35.775 -28.425 0.375
33.525 -21.675 0.075
38.325 -25.875 -0.075
33.975 -21.525 0.225
38.325 -24.075 2.175
37.875 -26.925 2.775
32.925 -21.975 3.075
32.925 -21.975 2.925
37.875 -23.025 1.875
37.875 -23.025 0.375
36.825 -27.975 0.525
36.825 -27.975 0.075
36.825 -21.975 2.475
34.875 -28.575 1.725
38.475 -24.975 -1.575
34.875 -21.375 0.525
35.025 -28.575 1.575
35.025 -21.375 -0.825
35.025 -21.375 -1.275
38.475 -24.825 -1.425
37.425 -27.525 2.475
32.325 -22.425 0.825
32.325 -22.425 1.275
32.325 -22.425 -0.075
35.925 -28.425 3.075
35.925 -28.425 1.575
35.925 -28.425 2.925
32.325 -22.425 1.725
32.325 -22.425 -0.375
33.825 -28.425 1.575
33.825 -21.525 0.375
33.825 -21.525 -0.225
33.825 -21.525 2.175
38.325 -23.925 -2.175
35.175 -28.575 1.425
35.175 -28.575 2.925
37.275 -27.675 2.325
35.175 -21.375 2.775
32.175 -22.575 0.825
38.175 -26.475 -0.375
38.175 -26.475 -0.075
38.175 -26.475 0.525
36.375 -28.275 1.725
33.375 -21.675 0.525
33.375 -21.675 0.075
36.675 -28.125 1.875
36.675 -28.125 0.375
38.025 -26.775 -1.125
38.025 -26.775 0.075
35.325 -28.575 0.375
35.325 -28.575 -0.375
35.325 -28.575 -0.075
34.425 -28.575 1.875
38.025 -23.175 0.675
38.025 -23.175 0.375
38.025 -23.175 1.125
33.075 -21.825 2.925
38.475 -25.425 0.975
38.475 -24.525 -1.725
38.475 -24.525 1.275
37.725 -27.225 -1.575
37.725 -22.725 0.075
35.475 -28.575 2.925
35.475 -28.575 2.175
35.475 -28.575 0.675
35.475 -28.575 0.975
34.275 -28.575 3.525
34.275 -28.575 1.725
34.275 -28.575 2.175
38.475 -25.575 0.975
38.475 -24.375 0.825
36.075 -28.425 0.675
36.075 -28.425 1.425
36.075 -28.425 0.825
33.675 -28.425 1.275
33.675 -21.525 -0.825
33.675 -21.525 -0.225
38.325 -23.775 1.725
38.325 -23.775 0.975
38.325 -23.775 2.025
37.875 -27.075 -0.825
37.875 -27.075 -1.575
32.775 -21.975 2.625
36.975 -27.975 0.375
36.975 -27.975 0.225
36.975 -27.975 0.675
36.975 -27.975 0.975
32.775 -21.975 -0.825
31.875 -22.875 0.375
36.975 -21.975 2.475
35.625 -28.575 0.825
35.625 -28.575 0.675
34.125 -28.575 1.725
35.625 -21.375 -0.675
38.475 -24.225 2.475
36.525 -28.275 0.525
36.525 -28.275 -0.225
36.525 -28.275 0.675
38.175 -26.625 -1.575
38.175 -23.325 2.025
33.225 -21.675 3.225
38.025 -26.925 -0.975
38.025 -26.925 2.775
36.225 -28.425 3.675
36.225 -28.425 1.425
33.525 -28.425 1.275
38.025 -23.025 2.475
38.025 -23.025 1.275
31.725 -23.025 0.375
31.725 -23.025 0.525
36.825 -28.125 0.525
36.825 -28.125 0.825
38.325 -26.325 -0.075
33.525 -21.525 0.225
32.925 -21.825 3.225
35.775 -28.575 0.225
35.775 -28.575 0.975
33.975 -28.575 2.325
38.475 -25.875 0.375
38.475 -25.875 -0.075
32.325 -22.275 0.975
32.325 -22.275 -0.375
32.325 -22.275 1.125
32.325 -22.275 1.575
32.325 -22.275 1.275
37.575 -27.525 2.325
32.175 -22.425 0.825
37.575 -22.425 0.075
37.275 -27.825 -1.425
37.725 -27.375 -1.125
32.025 -22.575 -0.225
32.025 -22.575 0.825
32.025 -22.575 0.675
35.925 -28.575 0.225
33.825 -28.575 1.875
38.625 -24.975 -0.525
37.875 -27.225 -0.975
37.875 -22.725 0.825
31.875 -22.725 0.675
33.825 -21.375 -1.575
33.825 -21.375 1.875
35.925 -21.375 2.475
35.925 -21.375 1.875
35.025 -21.225 -1.125
36.675 -28.275 1.725
36.675 -28.275 0.225
36.675 -28.275 0.525
38.175 -23.175 2.475
36.375 -28.425 0.225
36.375 -28.425 0.975
38.625 -25.275 -1.125
35.175 -21.225 -0.525
35.175 -21.225 2.475
34.575 -28.725 1.575
38.625 -24.675 1.275
33.375 -21.525 -0.225
33.375 -21.525 0.075
38.325 -23.475 0.975
38.325 -26.475 0.525
38.325 -26.475 -0.075
34.425 -21.225 -0.975
35.325 -28.725 0.375
35.325 -28.725 0.975
35.325 -21.225 1.875
35.325 -28.725 0.225
38.025 -27.075 1.425
38.025 -27.075 -1.275
36.975 -28.125 0.675
36.975 -28.125 0.825
31.725 -22.875 1.425
32.775 -21.825 -0.525
32.775 -21.825 -0.675
36.075 -28.575 1.575
33.675 -28.575 1.125
38.475 -26.175 -0.225
33.675 -21.375 0.375
38.475 -23.775 2.325
38.475 -23.775 1.725
38.475 -23.775 1.425
38.625 -25.575 3.075
34.275 -21.225 -0.375
34.275 -21.225 -0.975
35.475 -28.725 2.325
34.275 -28.725 2.775
35.475 -21.225 1.575
35.475 -28.725 0.225
35.475 -28.725 1.125
31.125 -24.375 -3.225
32.175 -22.275 0.825
32.175 -22.275 -0.225
37.575 -22.275 1.575
37.425 -27.825 5.475
36.525 -28.425 0.375
38.625 -25.725 -1.125
34.125 -21.225 3.075
34.125 -21.225 -0.825
35.625 -21.225 1.875
35.625 -21.225 1.725
38.625 -24.225 1.725
32.025 -22.425 -0.225
32.025 -22.425 0.975
38.325 -26.625 -1.275
38.325 -26.625 -1.725
38.325 -23.325 0.825
38.325 -23.325 0.525
36.825 -28.275 -2.925
36.825 -28.275 0.975
31.575 -26.925 0.975
32.925 -21.675 -1.125
32.475 -21.975 3.225
31.875 -22.575 0.675
31.875 -22.575 0.825
37.875 -22.575 1.275
31.875 -22.575 0.975
36.225 -28.575 1.725
33.525 -28.575 0.975
33.525 -28.575 1.875
38.475 -26.325 1.575
38.475 -26.325 -0.075
38.475 -26.325 1.725
33.525 -21.375 -0.225
38.475 -23.625 -0.225
38.475 -23.625 1.725
38.475 -23.625 1.125
38.475 -23.625 1.425
31.275 -23.625 1.875
35.775 -28.725 1.425
35.775 -21.225 2.025
38.625 -25.875 -1.425
38.625 -25.875 -0.075
38.625 -25.875 -0.375
33.975 -21.225 3.075
33.975 -21.225 -0.975
33.975 -21.225 2.925
33.975 -28.725 2.625
33.975 -28.725 0.975
38.025 -27.225 -1.275
31.725 -22.725 0.975
32.625 -21.825 2.625
33.075 -28.425 0.375
33.825 -21.225 2.775
38.625 -26.025 -0.075
33.825 -28.725 1.125
33.825 -28.725 1.575
