# .PCD v0.7 - Point Cloud Data file format
VERSION 0.7
FIELDS x y z
SIZE 4 4 4
TYPE F F F
COUNT 1 1 1
WIDTH 2048
HEIGHT 1
VIEWPOINT 0 0 0 1 0 0 0
POINTS 2048
DATA ascii
-20.025 57.225 0.825
-20.175 57.075 1.275
-20.175 57.075 0.975
-20.175 56.925 2.175
-19.575 57.225 1.575
-19.875 56.625 2.475
-20.325 57.075 2.475
-19.425 57.225 -0.525
-19.875 57.525 0.825
-19.875 57.525 1.425
-19.875 56.475 1.425
-19.875 56.475 1.725
-19.725 57.525 1.275
-19.725 56.475 -0.075
-20.325 56.625 0.525
-20.325 56.625 1.875
-19.425 57.375 0.675
-19.425 57.375 -0.375
-19.425 57.375 1.125
-19.425 57.375 1.725
-20.475 57.075 0.375
-20.475 56.925 0.525
-20.475 56.925 0.075
-19.575 56.475 0.075
-19.275 56.925 1.875
-19.875 57.675 0.675
-19.875 57.675 0.825
-19.875 56.325 1.425
-20.325 57.525 1.125
-20.025 57.675 1.425
-19.725 57.675 1.125
-20.325 56.475 1.275
-19.425 57.525 1.575
-19.725 56.325 -0.075
-19.725 56.325 0.375
-19.725 56.325 1.875
-19.725 56.325 -0.375
-19.275 57.375 -0.525
-19.275 57.375 1.725
-19.575 57.675 1.125
-19.575 57.675 1.425
-19.575 57.675 -0.075
-19.575 57.675 1.725
-20.625 57.075 2.325
-19.575 56.325 -0.075
-19.575 56.325 0.525
-20.625 57.225 1.425
-19.125 57.225 -0.075
-19.125 56.775 1.575
-19.275 57.525 1.725
-19.275 57.525 -0.075
-20.325 57.675 1.125
-20.325 57.675 2.175
-20.325 56.325 1.725
-20.325 56.325 1.425
-19.425 57.675 -0.075
-19.425 57.675 0.525
-19.425 57.675 -0.375
-19.425 57.675 0.375
-20.625 57.375 0.075
-20.025 57.825 1.425
-20.025 56.175 1.425
-20.025 56.175 1.125
-19.125 57.375 -3.525
-19.125 57.375 -0.075
-19.125 56.625 1.425
-19.575 57.825 1.575
-19.575 56.175 -1.575
-19.575 56.175 -0.525
-19.575 56.175 1.875
-20.775 56.925 2.175
-20.775 56.925 0.525
-20.475 56.325 1.575
-19.275 57.675 0.975
-19.275 57.675 1.725
-19.275 57.675 0.825
-19.275 57.675 1.425
-19.275 57.675 -0.075
-18.975 56.925 0.975
-19.275 56.325 0.825
-20.775 56.775 0.225
-18.975 56.775 0.975
-19.425 57.825 -0.075
-19.425 57.825 0.075
-19.425 56.175 -0.075
-20.775 57.375 0.375
-19.875 57.975 0.975
-18.975 57.375 0.225
-19.725 57.975 3.075
-20.625 56.325 0.225
-20.625 56.325 0.825
-20.175 57.975 1.275
-19.575 57.975 -0.225
-19.125 56.325 0.075
-19.275 57.825 -2.625
-19.275 57.825 1.875
-19.275 57.825 -2.325
-19.575 56.025 0.075
-19.275 56.175 0.825
-19.275 56.175 0.225
-19.275 56.175 0.975
-20.925 56.925 0.525
-18.825 57.075 0.375
-18.825 56.925 0.525
-18.825 56.925 0.675
-18.825 56.925 0.225
-20.925 57.225 2.625
-18.825 57.225 0.375
-19.425 56.025 -0.375
-18.825 56.775 0.825
-18.825 56.775 0.225
-20.625 57.825 0.075
-20.625 56.175 0.825
-20.625 56.175 1.125
-20.775 57.675 -0.525
-20.775 57.675 -4.875
-18.825 56.625 0.225
-18.825 56.625 1.125
-18.825 56.625 0.825
-18.825 56.625 0.975
-20.025 58.125 1.725
-19.875 55.875 0.975
-19.725 58.125 -0.375
-18.975 56.325 0.225
-20.475 57.975 -0.225
-20.475 57.975 0.225
-20.025 55.875 1.275
-19.725 55.875 -0.075
-19.275 57.975 -2.775
-20.475 56.025 1.275
-19.275 56.025 0.375
-19.275 56.025 1.125
-19.275 56.025 1.875
-19.275 56.025 -0.225
-19.275 56.025 -0.075
-20.175 58.125 0.675
-18.825 56.475 0.675
-18.825 56.475 0.975
-18.825 56.475 1.125
-20.325 58.125 1.575
-19.425 58.125 -0.375
-18.675 57.075 -0.075
-18.675 56.925 0.225
-18.675 56.925 0.375
-20.625 57.975 -0.075
-18.675 57.225 0.225
-18.675 57.225 0.375
-18.675 56.775 -0.075
-18.675 56.775 -0.525
-19.125 56.025 0.525
-19.125 56.025 0.975
-18.825 56.325 0.525
-18.675 57.375 0.525
-18.675 56.625 0.825
-18.675 56.625 1.125
-20.475 58.125 -0.375
-20.475 58.125 -0.075
-19.875 58.275 3.225
-19.875 58.275 0.375
-20.025 58.275 -0.525
-19.725 55.725 0.975
-19.575 58.275 -0.525
-20.775 57.975 -0.375
-18.675 56.475 0.375
-18.675 56.475 1.125
-20.925 56.175 1.125
-18.975 56.025 0.525
-20.325 58.275 -1.725
-18.825 56.175 0.225
-19.425 58.275 -0.525
-18.525 57.075 0.075
-18.525 57.225 0.225
-18.525 57.225 0.375
-18.675 56.325 -5.775
-18.675 56.325 0.375
-18.675 56.325 0.525
-20.475 58.275 -0.375
-20.475 58.275 0.225
-20.475 58.275 0.075
-18.525 57.375 0.675
-18.525 57.375 0.525
-19.275 58.275 -0.675
-18.525 56.625 -0.375
-19.875 58.425 1.125
-20.025 55.575 0.675
-19.725 55.575 0.075
-20.175 58.425 -2.025
-21.075 56.175 -1.275
-19.575 58.425 -0.525
-18.675 57.825 0.975
-18.675 56.175 0.675
-18.675 56.175 0.075
-20.625 58.275 0.375
-19.125 58.275 -0.075
-20.325 58.425 0.225
-20.325 55.575 0.225
-18.375 57.075 2.625
-18.375 57.075 0.975
-18.375 57.075 0.525
-18.525 57.675 0.075
-18.375 57.225 0.975
-20.925 58.125 -0.675
-20.475 58.425 -0.075
-20.475 58.425 2.025
-18.825 58.125 -1.425
-19.275 58.425 -0.075
-20.475 55.575 0.675
-18.675 57.975 0.075
-18.675 57.975 1.125
-20.775 58.275 -0.525
-18.375 56.625 0.075
-18.675 56.025 -0.075
-18.975 58.275 1.875
-18.975 58.275 -1.125
-18.975 58.275 0.675
-19.875 55.425 0.075
-18.525 57.825 0.075
-19.725 55.425 0.075
-18.525 56.175 0.825
-18.375 57.525 0.075
-20.175 58.575 0.375
-18.375 56.475 0.675
-19.575 58.575 0.375
-19.575 58.575 -0.375
-20.175 55.425 0.225
-20.325 58.575 0.075
-20.325 58.575 0.375
-19.425 58.575 0.525
-19.425 58.575 -0.075
-19.425 58.575 0.375
-19.425 55.425 1.875
-18.675 58.125 0.975
-18.675 58.125 0.225
-18.825 58.275 -1.275
-18.825 58.275 0.225
-18.825 55.725 0.225
-18.825 55.725 0.375
-18.525 57.975 0.825
-18.525 57.975 0.225
-18.525 56.025 1.125
-18.525 56.025 0.675
-18.975 58.425 0.675
-18.975 58.425 -0.975
-18.975 58.425 0.075
-19.275 55.425 1.275
-18.375 57.825 1.125
-19.875 55.275 -0.225
-20.625 58.575 1.575
-19.725 55.275 0.675
-19.725 55.275 0.075
-19.725 55.275 0.525
-18.225 56.475 -0.225
-20.175 58.725 -0.525
-20.175 58.725 0.075
-20.175 58.725 0.675
-20.625 55.425 0.525
-20.625 55.425 -0.225
-19.575 58.725 -0.075
-19.125 55.425 0.075
-18.675 58.275 0.225
-18.675 58.275 3.675
-18.675 58.275 0.675
-19.575 55.275 0.075
-18.675 55.725 -0.075
-18.525 58.125 0.375
-18.525 58.125 0.675
-18.525 55.875 0.225
-18.825 58.425 0.225
-20.325 58.725 0.825
-20.325 58.725 -0.375
-19.425 58.725 0.825
-19.425 58.725 -0.075
-20.325 55.275 -0.975
-18.075 57.075 0.525
-18.075 57.075 0.675
-20.475 58.725 0.225
-18.975 55.425 0.075
-18.975 55.425 0.525
-18.075 56.625 0.075
-18.225 57.825 0.375
-18.525 58.275 -0.525
-18.525 58.275 0.675
-21.375 58.125 0.675
-18.525 55.725 0.225
-18.675 55.575 0.225
-19.725 58.875 -2.475
-18.375 58.125 1.425
-18.375 58.125 1.575
-18.375 58.125 0.525
-19.125 58.725 1.125
-20.625 55.275 0.375
-20.625 55.275 0.825
-20.625 55.275 0.525
-18.375 55.875 0.975
-20.175 58.875 0.675
-19.575 58.875 0.975
-18.825 55.425 0.975
-18.825 55.425 0.525
-18.825 55.425 0.375
-20.325 58.875 0.375
-20.325 55.125 -0.075
-19.425 55.125 0.075
-19.425 55.125 0.225
-20.775 55.275 0.375
-19.275 58.875 0.975
-20.475 55.125 1.125
-20.475 55.125 0.375
-18.375 58.275 0.225
-18.525 55.575 0.075
-18.375 55.725 -5.475
-21.075 55.425 -0.375
-18.675 58.575 0.225
-18.675 58.575 1.725
-18.675 55.425 -0.525
-17.925 56.625 -0.975
-18.225 58.125 0.675
-18.225 58.125 1.725
-21.825 57.525 -0.075
-19.125 58.875 1.125
-20.925 55.275 0.525
-20.625 55.125 0.975
-19.725 59.025 1.425
-19.125 55.125 0.525
-19.125 55.125 0.675
-18.825 55.275 0.975
-20.025 54.975 -0.525
-20.175 59.025 0.675
-20.175 54.975 0.525
-20.325 59.025 0.675
-20.325 59.025 -0.525
-20.325 59.025 0.375
-19.425 59.025 1.125
-19.425 59.025 0.825
-19.425 59.025 -0.975
-18.375 58.425 -0.075
-18.375 58.425 -0.225
-18.375 55.575 0.525
-18.975 58.875 1.125
-18.975 55.125 0.525
-19.275 59.025 1.425
-18.675 55.275 0.375
-21.975 57.375 -0.225
-18.825 58.875 0.825
-20.925 55.125 0.675
-19.125 59.025 0.825
-20.625 54.975 0.975
-19.125 54.975 0.525
-20.025 59.175 -5.925
-20.025 59.175 0.375
-19.725 59.175 -1.125
-18.375 58.575 0.375
-18.375 58.575 0.075
-18.375 58.575 0.675
-20.175 59.175 1.425
-20.175 59.175 0.375
-20.175 59.175 0.675
-20.175 59.175 0.525
-18.525 58.725 0.525
-18.525 58.725 -0.225
-18.525 58.725 0.225
-19.575 59.175 0.825
-19.575 59.175 1.425
-20.175 54.825 -0.675
-19.575 54.825 0.525
-17.775 57.675 -4.575
-20.325 59.175 0.075
-20.325 59.175 0.225
-17.775 56.325 0.525
-19.425 59.175 0.525
-18.975 54.975 0.525
-20.325 54.825 -0.675
-20.325 54.825 1.125
-18.675 58.875 0.975
-18.675 58.875 1.125
-18.675 55.125 0.075
-20.475 59.175 0.225
-19.275 59.175 0.225
-18.225 58.575 0.225
-18.825 54.975 0.525
-18.825 54.975 0.675
-17.625 56.625 -4.425
-20.625 54.825 0.825
-18.525 58.875 0.525
-19.875 59.325 1.725
-20.025 59.325 1.875
-19.875 54.675 0.225
-19.875 54.675 -0.075
-17.925 58.275 -0.975
-20.025 54.675 0.075
-20.175 59.325 0.675
-19.575 59.325 2.625
-20.775 54.825 1.275
-20.775 54.825 0.675
-20.325 59.325 0.075
-20.325 59.325 0.375
-19.425 59.325 1.125
-19.425 59.325 0.525
-20.325 54.675 -0.675
-19.425 54.675 1.575
-18.225 58.725 0.075
-20.475 59.325 -1.275
-19.275 59.325 1.725
-18.375 58.875 0.375
-18.375 58.875 0.825
-18.375 58.875 0.225
-18.375 58.875 0.975
-18.825 59.175 -0.375
-17.475 57.225 1.275
-22.275 57.375 -5.775
-18.825 54.825 0.975
-18.525 59.025 -0.075
-18.525 59.025 0.075
-18.525 59.025 0.225
-19.125 59.325 -0.075
-19.125 59.325 2.625
-20.625 54.675 0.375
-22.275 56.475 0.825
-19.125 54.675 1.725
-19.875 59.475 0.525
-19.875 54.525 0.075
-19.875 54.525 0.525
-19.875 54.525 0.675
-18.675 59.175 0.225
-20.025 54.525 -0.225
-20.175 59.475 0.525
-20.175 59.475 1.575
-20.175 59.475 0.375
-18.975 59.325 -0.075
-17.475 57.675 0.825
-18.975 54.675 0.525
-20.325 59.475 0.075
-20.325 59.475 0.375
-17.775 58.425 1.575
-20.925 59.325 0.825
-19.275 59.475 -0.075
-19.275 59.475 1.575
-19.275 59.475 1.725
-20.925 54.675 0.525
-18.825 54.675 3.225
-18.825 54.675 0.825
-18.825 54.675 0.525
-18.525 59.175 0.225
-19.125 59.475 1.725
-21.675 58.875 -3.525
-19.125 54.525 0.675
-17.475 56.025 0.975
-18.075 58.875 0.225
-18.225 59.025 0.375
-18.675 54.675 0.225
-20.775 59.475 0.075
-17.775 58.575 0.525
-17.775 58.575 0.975
-19.875 54.375 0.225
-20.025 54.375 0.975
-20.025 54.375 0.075
-19.725 54.375 0.075
-20.775 54.525 0.525
-20.775 54.525 0.675
-20.175 59.625 0.375
-20.175 59.625 0.225
-18.375 59.175 0.375
-18.375 59.175 -1.875
-20.325 59.625 0.225
-20.325 59.625 2.925
-20.325 59.625 -0.075
-19.425 59.625 0.375
-19.425 59.625 1.125
-19.425 59.625 0.525
-19.425 59.625 -0.075
-19.425 59.625 -0.375
-18.825 54.525 0.225
-18.825 54.525 0.375
-18.825 54.525 0.525
-19.125 59.625 0.825
-19.125 59.625 1.125
-19.125 59.625 1.275
-18.225 59.175 0.675
-19.125 54.375 0.825
-17.175 56.475 -0.075
-18.375 59.325 0.075
-18.975 59.625 -3.975
-18.975 59.625 1.425
-19.725 59.775 -3.975
-20.775 54.375 0.525
-19.875 54.225 0.075
-18.975 54.375 1.425
-20.025 54.225 -0.225
-20.025 54.225 0.525
-20.175 59.775 0.375
-19.575 59.775 -0.825
-19.575 54.225 0.075
-17.475 55.575 0.825
-20.325 54.225 -0.675
-17.775 58.875 0.075
-17.775 58.875 -0.825
-18.525 59.475 0.375
-18.075 59.175 0.375
-20.475 59.775 -0.225
-20.475 59.775 0.675
-18.825 54.375 0.225
-19.275 59.775 0.075
-22.425 58.275 -6.225
-19.275 54.225 0.375
-18.225 59.325 0.975
-18.225 59.325 0.525
-17.325 58.275 0.975
-19.125 59.775 0.675
-19.125 59.775 0.975
-19.125 59.775 1.425
-21.075 59.625 0.825
-21.075 59.625 -0.975
-19.125 54.225 -3.525
-18.375 59.475 0.675
-18.375 59.475 1.125
-17.775 59.025 -0.375
-20.775 54.225 0.825
-17.925 59.175 0.675
-20.025 59.925 0.375
-18.975 54.225 0.825
-18.975 54.225 0.375
-17.625 58.875 -1.725
-20.025 54.075 -3.375
-19.725 54.075 0.075
-20.175 59.925 2.025
-18.075 59.325 0.375
-18.075 59.325 0.825
-20.175 54.075 0.825
-20.175 54.075 -0.525
-19.575 54.075 0.075
-18.525 59.625 0.225
-20.325 59.925 0.075
-20.325 59.925 -3.225
-19.425 59.925 0.675
-20.325 54.075 -0.525
-18.825 59.775 -1.275
-18.825 54.225 0.225
-18.825 54.225 0.675
-18.225 59.475 0.675
-18.225 59.475 0.225
-20.475 59.925 -3.075
-19.275 59.925 0.375
-20.475 54.075 0.825
-19.125 59.925 -0.075
-17.025 56.025 0.675
-18.375 59.625 0.225
-19.125 54.075 0.675
-17.775 54.825 4.725
-17.925 59.325 -0.375
-18.975 59.925 -3.375
-18.975 59.925 -0.075
-18.075 59.475 0.225
-17.175 55.575 -0.075
-18.975 54.075 0.675
-19.875 60.075 0.675
-20.025 60.075 0.075
-19.725 60.075 -2.175
-19.725 60.075 -0.225
-17.325 58.725 0.375
-20.175 60.075 0.225
-19.725 53.925 0.075
-18.225 59.625 0.675
-20.325 60.075 0.225
-20.925 54.075 0.225
-19.425 53.925 0.375
-18.825 54.075 0.225
-18.825 54.075 0.675
-20.475 60.075 0.075
-17.775 59.325 0.075
-17.775 59.325 0.975
-20.475 53.925 0.675
-17.925 59.475 1.275
-18.375 59.775 -0.075
-18.375 59.775 0.075
-18.375 59.775 0.525
-18.675 59.925 1.575
-18.675 59.925 -1.575
-18.675 59.925 1.725
-19.125 60.075 -0.225
-17.325 58.875 -0.675
-18.675 54.075 0.225
-18.075 59.625 1.575
-20.775 53.925 0.075
-20.775 53.925 1.125
-18.975 53.925 -2.925
-18.975 53.925 0.225
-19.875 60.225 0.675
-18.525 59.925 -0.075
-20.025 60.225 0.225
-18.225 59.775 0.075
-20.175 60.225 0.225
-19.575 60.225 0.675
-19.575 60.225 1.275
-17.775 59.475 2.925
-20.925 53.925 0.225
-20.925 53.925 0.375
-19.425 60.225 -0.375
-18.825 53.925 0.225
-18.825 53.925 0.975
-20.325 53.775 -0.525
-20.325 53.775 2.325
-19.425 53.775 1.425
-16.875 58.275 -1.575
-19.275 60.225 -0.075
-19.275 60.225 0.375
-18.375 59.925 0.975
-19.275 53.775 0.825
-21.075 53.925 0.525
-21.075 53.925 0.225
-21.075 53.925 0.675
-21.075 53.925 0.375
-21.675 54.225 2.175
-19.125 60.225 0.525
-18.675 53.925 1.425
-18.675 53.925 -0.225
-21.525 59.925 0.225
-20.775 53.775 1.125
-20.775 53.775 0.975
-17.325 59.175 0.225
-18.525 60.075 0.825
-18.225 59.925 0.375
-21.225 53.925 0.675
-21.225 53.925 0.825
-20.025 60.375 -0.075
-17.175 59.025 0.975
-20.175 60.375 -0.225
-20.175 60.375 0.075
-20.025 53.625 0.225
-19.575 60.375 0.825
-19.575 60.375 0.975
-18.825 60.225 1.575
-17.925 59.775 2.475
-17.925 59.775 0.525
-20.175 53.625 -0.075
-20.925 53.775 0.225
-20.325 60.375 0.225
-18.825 53.775 0.825
-19.425 60.375 -0.075
-19.425 60.375 1.125
-19.425 60.375 0.375
-18.375 60.075 0.825
-20.475 60.375 0.225
-19.275 60.375 -0.075
-20.475 53.625 -1.125
-18.075 59.925 0.375
-21.675 54.075 -3.375
-21.075 53.775 0.375
-21.075 53.775 0.075
-18.675 53.775 0.975
-20.625 53.625 2.775
-16.725 58.425 -0.075
-19.125 53.625 0.675
-18.225 60.075 0.375
-18.975 60.375 -2.475
-18.975 60.375 0.975
-20.775 53.625 1.275
-21.225 53.775 0.525
-18.525 53.775 1.425
-17.925 59.925 0.525
-19.875 60.525 0.225
-20.175 60.525 -0.075
-20.175 60.525 0.075
-18.825 60.375 1.125
-20.025 53.475 2.025
-18.375 60.225 0.825
-20.325 53.475 1.725
-20.325 53.475 2.625
-18.075 60.075 0.375
-18.075 60.075 0.525
-21.075 53.625 0.525
-21.075 53.625 1.275
-19.125 60.525 0.525
-20.625 53.475 1.275
-18.225 60.225 -0.075
-18.225 60.225 0.525
-18.525 60.375 0.675
-18.975 60.525 -2.325
-18.525 53.625 1.125
-18.525 53.625 0.675
-18.975 53.475 0.525
-19.875 60.675 0.225
-20.025 60.675 -0.975
-18.825 60.525 0.675
-18.825 60.525 -0.075
-19.875 53.325 0.225
-20.175 60.675 0.075
-20.025 53.325 0.075
-18.825 53.475 0.075
-17.625 59.925 1.725
-18.375 60.375 -3.225
-18.375 60.375 -0.075
-18.075 60.225 0.075
-20.325 60.675 -0.075
-19.425 53.325 0.375
-19.425 53.325 0.675
-16.875 59.175 2.175
-19.275 60.675 -2.475
-17.775 60.075 1.125
-17.775 60.075 0.975
-21.075 53.475 0.525
-19.275 53.325 0.675
-18.675 53.475 -0.375
-18.675 53.475 0.675
-18.225 60.375 -0.075
-18.225 60.375 -0.225
-19.125 53.325 0.825
-17.325 59.775 -0.075
-22.275 59.925 0.825
-17.025 59.475 1.125
-17.025 59.475 0.825
-18.975 60.675 1.425
-18.975 60.675 0.525
-18.975 60.675 -0.225
-17.475 59.925 -0.975
-19.875 60.825 0.375
-19.875 60.825 0.975
-20.025 60.825 1.125
-18.075 60.375 0.375
-18.075 60.375 -0.075
-18.375 60.525 -5.175
-19.875 53.175 0.675
-19.875 53.175 1.575
-19.875 53.175 0.525
-19.875 53.175 0.075
-20.025 53.175 0.075
-20.025 53.175 -0.225
-19.725 53.175 5.475
-18.375 53.475 1.275
-19.425 53.175 0.075
-21.075 53.325 0.975
-18.675 53.325 0.825
-19.275 53.175 0.525
-19.275 53.175 0.675
-19.275 53.175 0.375
-18.225 60.525 0.075
-18.225 60.525 0.975
-19.125 60.825 0.375
-19.125 60.825 -0.225
-17.925 60.375 0.525
-19.125 53.175 0.825
-19.125 53.175 0.675
-18.975 60.825 1.425
-18.975 60.825 -0.225
-18.975 53.175 0.825
-18.975 53.175 0.675
-18.075 60.525 0.075
-18.075 60.525 -0.375
-21.975 60.375 -2.325
-19.875 60.975 0.675
-19.875 60.975 1.125
-19.875 60.975 0.825
-19.875 60.975 0.975
-20.025 60.975 -2.775
-19.725 60.975 -4.875
-18.825 53.175 0.225
-18.825 53.175 0.975
-17.775 60.375 1.725
-19.575 60.975 1.125
-19.575 60.975 0.375
-20.025 53.025 1.425
-19.725 53.025 0.075
-17.775 53.625 -5.175
-18.675 60.825 1.125
-18.675 60.825 -3.825
-18.675 60.825 -0.525
-18.675 60.825 5.175
-19.425 53.025 0.225
-19.425 53.025 5.625
-21.075 53.175 0.975
-18.675 53.175 0.825
-18.675 53.175 0.675
-19.275 60.975 -0.225
-19.275 60.975 -0.525
-19.275 60.975 0.225
-21.525 60.675 1.275
-19.275 53.025 0.225
-19.275 53.025 0.525
-18.225 60.675 0.075
-18.225 60.675 0.675
-18.225 60.675 -0.075
-17.925 60.525 0.525
-17.925 60.525 -1.275
-17.925 60.525 1.575
-17.475 53.775 2.625
-23.475 58.875 1.875
-19.125 53.025 0.675
-17.625 60.375 1.125
-18.975 53.025 0.825
-16.425 54.825 2.775
-18.075 60.675 -0.075
-18.075 60.675 0.225
-18.075 60.675 1.425
-21.675 53.325 1.725
-18.075 53.325 0.825
-17.775 60.525 1.425
-17.775 60.525 0.825
-18.375 60.825 0.225
-18.825 60.975 -1.275
-18.825 60.975 1.575
-17.325 60.225 -1.875
-20.925 53.025 -0.675
-20.925 53.025 0.675
-18.825 53.025 0.675
-18.825 53.025 0.825
-19.875 61.125 1.125
-20.025 61.125 1.275
-20.025 61.125 0.825
-20.025 61.125 -0.225
-20.175 61.125 0.225
-19.725 52.875 0.075
-20.175 52.875 1.425
-19.575 52.875 0.075
-20.325 61.125 0.525
-18.675 60.975 1.125
-18.675 60.975 -0.225
-18.675 60.975 -3.225
-19.425 52.875 1.125
-19.425 52.875 0.225
-19.425 52.875 0.375
-17.925 60.675 0.525
-19.275 52.875 0.225
-19.275 52.875 0.525
-19.275 52.875 0.675
-17.625 60.525 1.125
-19.125 61.125 -0.075
-20.625 52.875 -0.075
-20.775 52.875 -0.675
-18.075 60.825 0.075
-17.775 60.675 0.675
-17.775 60.675 0.075
-21.975 53.325 -0.225
-18.075 53.175 0.675
-18.375 60.975 -2.025
-20.925 52.875 0.525
-20.925 52.875 0.375
-20.025 61.275 1.725
-17.475 53.475 -0.375
-20.175 61.275 0.825
-19.875 52.725 0.525
-19.725 52.725 1.575
-17.925 60.825 0.375
-19.425 61.275 0.525
-18.225 60.975 -0.075
-18.675 52.875 0.675
-18.675 52.875 1.575
-19.425 52.725 0.375
-19.275 52.725 0.375
-21.225 52.875 0.525
-19.125 52.725 0.525
-19.125 52.725 0.675
-18.075 60.975 -0.225
-18.075 60.975 0.525
-18.075 60.975 0.075
-18.975 52.725 0.375
-18.975 52.725 0.675
-18.825 61.275 -0.525
-20.925 52.725 -0.375
-20.025 61.425 0.375
-20.025 61.425 -0.225
-20.175 61.425 -0.225
-20.175 61.425 0.225
-17.625 60.825 1.425
-17.625 60.825 2.175
-17.625 60.825 0.225
-18.675 61.275 -0.825
-18.225 61.125 0.675
-20.325 61.425 0.225
-20.325 61.425 -0.075
-20.325 61.425 0.675
-21.075 52.725 0.525
-18.675 52.725 1.425
-19.425 52.575 0.375
-19.275 52.575 0.075
-19.125 52.575 0.975
-18.075 61.125 0.225
-18.075 61.125 0.525
-18.075 61.125 0.075
-18.075 61.125 -0.075
-18.975 61.425 1.575
-17.475 60.825 1.275
-18.975 52.575 0.525
-18.975 52.575 0.675
-18.975 52.575 0.825
-18.825 61.425 -0.225
-17.925 61.125 -0.075
-17.925 61.125 -0.525
-17.925 61.125 0.375
-17.925 61.125 0.225
-17.925 61.125 0.525
-17.625 60.975 0.075
-17.925 52.875 6.375
-20.025 61.575 -0.075
-20.025 61.575 1.125
-19.725 61.575 0.075
-20.175 61.575 0.825
-20.175 61.575 0.075
-20.175 61.575 -0.075
-18.225 61.275 0.225
-18.225 61.275 0.675
-18.675 61.425 0.675
-18.675 61.425 -0.225
-18.675 61.425 -3.975
-21.525 52.725 -1.425
-20.175 52.425 -1.875
-20.325 61.575 0.525
-20.325 61.575 -0.075
-18.675 52.575 1.425
-18.675 52.575 0.375
-19.425 61.575 -0.675
-22.425 53.175 -0.825
-19.425 52.425 1.575
-17.325 53.175 2.475
-19.275 52.425 0.225
-19.275 52.425 0.375
-19.275 52.425 0.075
-18.075 61.275 -0.075
-18.075 61.275 0.375
-18.075 61.275 0.225
-20.625 52.425 2.175
-19.125 52.425 0.975
-19.125 52.425 0.525
-18.975 61.575 -0.375
-18.975 61.575 -0.225
-16.125 59.775 0.075
-18.975 52.425 0.825
-18.975 52.425 0.525
-18.825 61.575 0.375
-17.925 61.275 -0.375
-17.925 61.275 0.375
-22.125 52.875 0.375
-18.825 52.425 -0.075
-18.825 52.425 1.425
-18.225 61.425 0.375
-18.225 61.425 0.075
-18.225 61.425 0.225
-17.325 60.975 -2.325
-17.325 60.975 1.875
-20.175 61.725 -0.075
-19.875 52.275 0.225
-20.025 52.275 0.225
-21.075 52.425 0.525
-18.675 52.425 0.375
-16.875 60.675 1.425
-21.975 61.275 0.825
-18.525 61.575 0.825
-19.275 52.275 0.375
-19.275 52.275 0.675
-21.225 52.425 0.525
-21.225 52.425 0.075
-19.125 61.725 -0.525
-19.125 61.725 -0.225
-19.125 61.725 0.225
-19.125 52.275 0.675
-19.125 52.275 0.225
-19.125 52.275 0.825
-20.775 52.275 -0.975
-18.975 52.275 1.875
-21.375 52.425 0.225
-23.175 53.475 1.575
-17.925 52.575 2.325
-18.825 52.275 -3.675
-18.825 52.275 0.975
-19.875 61.875 -1.275
-18.675 61.725 -0.225
-18.675 61.725 0.525
-19.725 61.875 -5.025
-20.175 61.875 -0.225
-19.875 52.125 0.225
-18.675 52.275 0.375
-20.025 52.125 0.675
-20.025 52.125 -0.075
-20.025 52.125 1.425
-19.725 52.125 -3.375
-20.325 61.875 0.075
-21.975 61.425 -3.375
-17.775 61.425 0.825
-21.975 52.575 0.225
-20.325 52.125 -3.375
-20.325 52.125 1.275
-19.425 52.125 0.375
-19.425 52.125 0.975
-19.275 61.875 -0.975
-19.275 61.875 -0.825
-17.475 52.725 -3.825
-18.525 61.725 0.525
-18.075 61.575 -0.075
-21.225 52.275 -0.225
-19.275 52.125 0.975
-19.275 52.125 0.825
-19.275 52.125 0.675
-18.075 52.425 1.125
-19.125 61.875 -0.975
-19.125 61.875 -1.125
-19.125 61.875 -0.225
-18.975 61.875 -0.225
-18.975 61.875 0.225
-18.375 61.725 -0.225
-18.975 52.125 -2.925
-18.375 52.275 1.275
-21.825 61.575 -3.375
-17.925 61.575 -0.825
-17.925 61.575 -0.375
-17.925 61.575 -0.525
-18.225 61.725 0.525
-18.225 61.725 0.075
-21.525 52.275 1.425
-21.525 52.275 -0.975
-18.225 52.275 1.275
-18.675 61.875 -0.225
-20.025 62.025 -0.075
-20.025 62.025 0.075
-19.725 62.025 3.075
-18.675 52.125 0.225
-20.175 62.025 0.075
-20.025 51.975 1.425
-19.725 51.975 0.075
-21.975 52.425 5.175
-20.175 51.975 2.025
-20.325 62.025 -1.125
-19.575 51.975 0.225
-19.575 51.975 1.125
-19.425 62.025 -0.825
-19.425 51.975 0.375
-19.425 51.975 0.525
-18.075 61.725 0.075
-17.175 61.275 2.475
-22.575 52.725 0.525
-21.675 52.275 -3.525
-21.225 52.125 0.375
-18.075 52.275 -1.125
-20.475 51.975 -3.225
-19.275 51.975 0.525
-19.275 51.975 0.675
-19.125 62.025 -0.825
-19.125 62.025 -0.525
-19.125 62.025 0.525
-19.125 51.975 1.125
-15.825 60.075 0.825
-17.925 61.725 -0.375
-17.925 61.725 0.075
-18.825 62.025 -0.225
-22.725 52.725 0.375
-18.825 51.975 0.675
-22.275 61.575 0.675
-18.675 62.025 -0.225
-18.675 62.025 -1.125
-18.675 62.025 1.275
-16.575 60.975 -3.375
-17.775 61.725 1.575
-20.025 51.825 1.275
-19.725 51.825 1.875
-19.725 51.825 1.275
-19.575 51.825 2.175
-19.425 62.175 -0.975
-19.425 62.175 -0.375
-19.425 62.175 -0.825
-18.075 61.875 -0.075
-21.675 52.125 -2.175
-19.425 51.825 0.675
-20.475 62.175 0.525
-19.275 62.175 0.675
-19.275 62.175 0.825
-19.275 51.825 1.275
-19.275 51.825 0.375
-19.125 62.175 0.375
-19.125 62.175 -0.525
-19.125 62.175 -0.225
-20.625 51.825 0.375
-20.625 51.825 -1.275
-22.125 52.275 0.525
-21.375 62.025 -1.575
-17.925 61.875 -0.675
-18.975 62.175 -0.225
-18.975 62.175 0.225
-18.975 62.175 0.375
-18.975 51.825 0.525
-15.975 60.525 1.275
-22.725 52.575 -2.625
-18.825 62.175 -0.225
-18.225 62.025 0.375
-18.225 62.025 0.075
-18.225 51.975 1.125
-20.025 51.675 1.125
-20.025 51.675 0.975
-20.025 51.675 -1.575
-19.725 51.675 0.525
-19.725 51.675 0.375
-18.075 62.025 -0.375
-19.575 51.675 2.025
-19.425 62.325 1.275
-19.425 62.325 0.975
-21.675 51.975 0.675
-21.675 51.975 0.825
-18.075 51.975 1.125
-18.525 62.175 0.975
-18.525 62.175 0.675
-20.325 51.675 1.875
-19.425 51.675 0.675
-19.425 51.675 1.425
-19.425 51.675 1.725
-19.275 62.325 0.825
-22.125 61.875 -3.375
-20.475 51.675 3.375
-19.275 51.675 -0.825
-19.125 62.325 0.825
-19.125 62.325 0.525
-19.125 62.325 -0.225
-24.975 55.275 1.275
-17.925 62.025 0.225
-18.375 51.825 0.675
-18.375 51.825 1.875
-18.975 62.325 0.375
-18.975 62.325 0.225
-18.975 62.325 0.675
-18.975 62.325 -0.225
-18.975 51.675 0.825
-18.225 62.175 0.225
-18.225 62.175 0.375
-18.225 51.825 1.725
-18.675 51.675 0.975
-20.025 62.475 -0.975
-19.725 62.475 0.825
-19.725 62.475 0.675
-18.075 62.175 0.375
-19.575 62.475 0.675
-20.025 51.525 0.975
-20.025 51.525 1.125
-20.025 51.525 0.225
-23.325 61.275 1.125
-21.225 62.325 -5.175
-20.325 62.475 0.975
-18.525 51.675 -2.175
-19.275 62.475 1.275
-19.275 62.475 0.675
-25.275 55.875 2.175
-19.275 51.525 -0.525
-19.275 51.525 0.375
-19.125 62.475 1.425
-17.925 62.175 -0.225
-18.375 51.675 0.525
-18.375 51.675 0.075
-18.975 62.475 -0.225
-18.975 62.475 1.575
-18.975 62.475 -0.825
-20.775 51.525 1.725
-25.125 55.125 -0.525
-15.825 60.825 -4.125
-18.825 51.525 0.825
-17.775 62.175 1.725
-17.775 51.825 -3.375
-18.675 51.525 0.375
-18.075 62.325 -0.825
-19.875 62.625 1.275
-21.675 51.675 1.125
-22.425 62.025 0.825
-19.575 62.625 -5.325
-18.075 51.675 1.425
-19.725 51.375 -1.125
-19.425 62.625 -0.525
-19.425 62.625 0.675
-20.325 51.375 -0.225
-19.275 51.375 0.975
-19.275 51.375 1.125
-17.925 62.325 0.525
-17.925 62.325 0.975
-19.125 62.625 1.875
-19.125 62.625 0.375
-18.375 62.475 0.525
-20.625 51.375 1.575
-21.375 51.525 -0.075
-19.125 51.375 1.125
-18.375 51.525 0.525
-18.375 51.525 0.675
-25.575 56.775 2.625
-20.775 51.375 1.125
-18.975 51.375 0.075
-18.975 51.375 0.825
-18.225 62.475 0.525
-18.225 62.475 0.075
-18.225 62.475 0.375
-22.875 52.125 0.675
-20.925 51.375 0.675
-21.075 51.375 0.225
-21.075 51.375 0.975
-18.675 51.375 1.275
-18.075 62.475 -0.375
-18.075 62.475 0.225
-18.075 62.475 1.125
-18.075 62.475 0.525
-19.875 62.775 -0.825
-18.075 51.525 1.275
-19.725 62.775 0.675
-19.725 62.775 -0.075
-15.825 61.125 -0.975
-21.225 51.375 0.525
-21.225 51.375 0.225
-20.325 51.225 -0.525
-17.925 62.475 0.225
-17.925 62.475 0.525
-19.275 51.225 -0.525
-19.275 51.225 0.525
-18.375 62.625 -0.075
-19.125 62.775 0.225
-21.375 51.375 -0.075
-18.375 51.375 1.575
-14.925 60.075 1.425
-17.475 62.325 0.675
-18.975 62.775 -0.975
-22.875 62.025 0.675
-18.225 62.625 -0.075
-17.775 62.475 0.825
-17.775 62.475 0.375
-18.225 51.375 0.675
-18.225 51.375 0.975
-14.475 54.675 0.075
-18.675 62.775 -0.375
-18.675 62.775 -1.725
-15.525 53.025 -0.525
-21.675 51.375 0.975
-18.075 51.375 -5.025
-19.875 62.925 0.975
-19.875 62.925 -0.075
-19.875 62.925 0.075
-20.025 62.925 -0.075
-19.725 62.925 -0.075
-19.725 62.925 0.825
-18.525 62.775 0.675
-18.525 62.775 0.975
-19.875 51.075 -0.975
-19.875 51.075 -0.825
-20.025 51.075 0.375
-19.575 51.075 -1.125
-19.425 51.075 -0.525
-17.925 62.625 0.825
-21.825 51.375 1.125
-20.475 51.075 -1.575
-21.375 62.775 -4.575
-18.375 62.775 0.525
-19.125 62.925 0.375
-19.125 62.925 0.525
-21.375 51.225 0.075
-18.975 62.925 0.525
-18.975 62.925 0.225
-18.225 62.775 0.675
-21.975 51.375 0.675
-18.825 62.925 -0.375
-18.825 62.925 0.075
-14.625 59.925 0.825
-21.675 51.225 -1.575
-21.675 51.225 3.975
-19.875 63.075 -0.075
-20.025 63.075 -0.075
-18.525 62.925 1.575
-20.025 50.925 0.225
-19.725 50.925 0.375
-18.525 51.075 -1.275
-19.425 63.075 0.075
-20.175 50.925 0.075
-17.925 62.775 0.975
-17.925 62.775 0.825
-21.825 51.225 -1.875
-21.825 51.225 -1.725
-17.175 62.475 1.425
-20.475 50.925 -0.675
-15.375 52.875 1.425
-19.125 63.075 -0.525
-23.775 61.725 0.375
-23.175 62.175 0.975
-18.975 63.075 0.975
-18.975 63.075 -0.225
-18.975 63.075 0.225
-20.775 50.925 -5.175
-18.975 50.925 -5.025
-18.225 62.925 0.375
-18.825 63.075 -0.225
-18.825 63.075 0.675
-17.325 62.625 -0.525
-18.075 62.925 0.825
-18.075 62.925 0.675
-18.075 62.925 0.225
-16.725 51.675 0.675
-21.075 50.925 0.675
-17.625 62.775 0.825
-19.725 63.225 0.075
-21.225 50.925 0.525
-21.825 62.925 -0.525
-20.025 50.775 0.075
-20.025 50.775 0.675
-17.925 62.925 0.975
-19.425 63.225 0.075
-20.175 50.775 -0.225
-20.175 50.775 0.075
-20.175 50.775 0.525
-17.175 51.375 2.175
-17.475 62.775 0.075
-18.375 63.075 0.675
-20.475 50.775 0.225
-20.625 50.775 0.375
-20.775 63.225 -0.075
-17.775 62.925 -0.075
-18.975 63.225 -0.225
-18.975 63.225 0.825
-18.225 63.075 -0.675
-17.775 51.075 -0.375
-18.825 63.225 -0.225
-18.825 50.775 0.825
-18.075 63.075 0.225
-17.625 62.925 -0.075
-17.625 62.925 0.225
-18.675 63.225 1.575
-22.125 51.075 -1.725
-21.075 50.775 0.825
-18.675 50.775 -0.375
-19.875 63.375 -0.225
-19.875 63.375 -0.375
-19.725 63.375 0.225
-21.225 50.775 0.825
-17.925 63.075 -0.225
-17.925 63.075 -1.575
-19.875 50.625 0.075
-20.025 50.625 -2.625
-20.025 50.625 0.825
-17.925 50.925 0.825
-17.925 50.925 1.725
-21.375 50.775 0.375
-17.775 63.075 -0.075
-18.975 63.375 0.225
-18.225 63.225 -1.875
-20.775 50.625 0.525
-21.525 50.775 0.525
-18.975 50.625 -0.075
-18.975 50.625 0.825
-18.225 50.775 0.825
-17.325 51.075 0.375
-20.925 50.625 1.125
-20.925 50.625 0.375
-17.625 63.075 -0.375
-21.075 50.625 0.375
-21.075 50.625 0.675
-16.875 62.775 0.375
-21.225 50.625 1.125
-21.225 50.625 0.825
-21.225 50.625 0.975
-19.875 63.525 -0.225
-19.875 63.525 0.075
-17.925 63.225 0.075
-17.925 63.225 -1.275
-17.925 63.225 -2.325
-19.725 63.525 0.075
-19.575 63.525 0.525
-17.925 50.775 1.875
-17.925 50.775 0.975
-20.025 50.475 0.525
-19.725 50.475 -0.075
-19.725 50.475 0.075
-19.425 63.525 0.075
-19.425 63.525 0.525
-20.325 50.475 -2.775
-18.375 63.375 -1.875
-19.275 63.525 0.525
-21.375 50.625 0.825
-18.375 50.625 0.975
-19.275 50.475 0.825
-19.125 63.525 0.825
-20.625 50.475 0.525
-18.975 63.525 -0.075
-18.975 63.525 0.075
-20.775 50.475 1.125
-18.975 50.475 0.975
-17.325 50.925 -0.225
-18.825 63.525 0.525
-20.925 50.475 1.125
-20.925 50.475 0.975
-18.075 50.625 -0.075
-21.075 50.475 0.675
-21.075 50.475 0.225
-17.925 63.375 0.075
-17.925 63.375 2.325
-19.875 63.675 -0.075
-19.725 63.675 -0.225
-19.575 63.675 0.225
-17.475 50.775 1.575
-20.325 63.675 0.675
-19.575 50.325 0.225
-21.375 50.475 -0.075
-20.475 50.325 1.125
-17.025 63.075 1.275
-17.775 63.375 -1.125
-19.125 63.675 0.975
-19.125 63.675 0.825
-19.125 63.675 -0.525
-19.125 63.675 -0.225
-17.775 50.625 -0.075
-20.625 50.325 0.675
-20.625 50.325 1.725
-18.975 63.675 0.525
-18.975 63.675 0.675
-18.975 63.675 2.025
-18.225 50.475 0.075
-20.775 50.325 1.425
-20.775 50.325 1.275
-18.975 50.325 0.975
-18.975 50.325 0.525
-18.825 63.675 0.225
-18.075 63.525 0.225
-21.075 50.325 0.825
-21.075 50.325 1.275
-21.225 50.325 0.225
-17.475 50.625 1.275
-17.475 50.625 -0.075
-19.875 63.825 0.525
-19.875 63.825 -0.075
-19.575 63.825 1.275
-19.725 50.175 4.575
-19.725 50.175 0.225
-19.725 50.175 -4.425
-19.575 50.175 -0.075
-20.325 50.175 1.575
-20.325 50.175 1.425
-21.375 50.325 -0.075
-19.275 63.825 -0.075
-19.275 63.825 -0.675
-17.775 63.525 -0.225
-19.275 50.175 -0.375
-19.125 63.825 0.975
-19.125 63.825 -0.675
-19.125 63.825 2.325
-17.775 50.475 0.825
-17.775 50.475 0.675
-21.525 63.675 2.025
-20.625 50.175 0.525
-20.625 50.175 1.425
-18.975 63.825 0.525
-20.775 50.175 1.575
-20.775 50.175 0.975
-18.975 50.175 1.125
-17.625 63.525 0.075
-18.825 63.825 0.675
-20.925 50.175 1.425
-15.675 51.525 0.525
-21.075 50.175 0.075
-21.075 50.175 1.125
-17.475 63.525 0.225
-17.475 63.525 -0.375
-17.475 63.525 0.375
-21.225 63.825 -1.575
-17.925 63.675 -0.075
-17.925 63.675 -0.225
-21.225 50.175 0.075
-17.925 50.325 1.725
-20.025 63.975 -4.575
-19.725 63.975 0.525
-19.725 63.975 -0.075
-19.575 63.975 -0.075
-18.375 63.825 2.475
-20.325 50.025 2.625
-17.775 63.675 -0.675
-19.425 50.025 -4.425
-19.275 63.975 0.525
-19.275 63.975 -1.575
-17.775 50.325 0.225
-17.775 50.325 1.125
-20.475 50.025 1.875
-19.125 63.975 -0.825
-19.125 63.975 0.825
-20.625 50.025 1.275
-19.125 50.025 0.075
-21.525 50.175 1.575
-18.975 63.975 0.075
-18.975 63.975 1.275
-18.975 50.025 0.225
-17.625 63.675 -0.975
-18.825 63.975 -0.675
-17.625 50.325 -0.225
-20.925 50.025 0.975
-18.825 50.025 0.975
-18.675 63.975 -0.375
-21.075 50.025 0.375
-21.825 63.825 0.225
-18.525 63.975 -0.375
-21.225 50.025 0.525
-19.575 64.125 0.075
-18.375 63.975 0.375
-19.425 64.125 0.525
-20.175 49.875 0.225
-19.575 49.875 0.375
-21.375 50.025 0.525
-17.775 63.825 -0.375
-17.775 50.175 1.575
-17.325 50.325 0.675
-19.125 49.875 0.525
-18.225 50.025 -0.075
-18.975 64.125 -0.525
-16.875 63.525 -0.975
-17.625 63.825 -2.475
-20.775 49.875 1.275
-18.975 49.875 0.225
-17.625 50.175 0.975
-17.625 50.175 1.575
-18.825 64.125 0.225
-18.825 64.125 -0.525
-18.825 49.875 0.375
-18.825 49.875 0.675
-18.075 50.025 1.425
-18.075 50.025 0.825
-18.675 64.125 -0.375
-21.075 49.875 0.525
-17.475 50.175 0.375
-18.525 64.125 0.225
-19.575 64.275 0.075
-18.375 64.125 0.825
-18.375 64.125 -0.075
-19.425 64.275 0.225
-21.375 49.875 0.975
-20.175 49.725 0.525
-20.175 49.725 0.075
-20.175 49.725 0.675
-17.775 50.025 1.275
-20.325 49.725 0.225
-18.225 64.125 0.525
-18.225 64.125 0.375
-19.125 49.725 0.675
-23.475 50.625 2.625
-18.975 64.275 -0.225
-22.575 63.825 -1.575
-20.775 49.725 1.275
-17.625 50.025 1.425
-18.825 64.275 -0.225
-18.825 64.275 0.075
-18.825 64.275 -0.375
-20.925 49.725 1.275
-18.825 49.725 0.525
-18.825 49.725 -0.075
-18.675 64.275 -1.425
-17.475 50.025 2.175
-17.925 64.125 2.175
-17.925 64.125 0.675
-18.525 64.275 -0.525
-21.225 49.725 0.525
-19.725 64.425 -0.075
-17.775 64.125 0.825
-19.575 64.425 -0.825
-19.575 64.425 0.075
-15.825 63.225 1.275
-20.025 49.575 0.075
-20.025 49.575 0.225
-17.325 50.025 5.025
-20.325 49.575 -0.075
-19.275 49.575 0.075
-19.125 49.575 0.075
-17.625 64.125 3.675
-18.975 64.425 0.525
-17.625 49.875 -1.275
-18.975 49.575 0.675
-18.975 49.575 0.525
-18.825 64.425 0.225
-20.925 49.575 1.425
-21.075 49.575 0.675
-21.075 49.575 -4.125
-18.675 49.575 0.075
-17.925 64.275 0.675
-17.925 64.275 0.525
-18.525 64.425 0.975
-17.775 64.275 -0.075
-17.775 64.275 0.225
-17.775 64.275 0.825
-19.725 64.575 0.075
-17.325 49.875 2.025
-19.575 64.575 0.225
-19.875 49.425 0.225
-19.425 64.575 0.675
-20.175 49.425 1.725
-20.175 49.425 -2.325
-20.175 49.425 0.675
-19.275 64.575 -1.125
-18.225 64.425 0.825
-19.125 49.425 0.675
-18.975 64.575 0.225
-18.975 49.425 0.675
-18.975 49.425 0.375
-24.525 63.075 0.825
-18.825 49.425 0.225
-18.675 64.575 0.225
-21.075 49.425 0.375
-18.675 49.425 0.225
-18.675 49.425 1.125
-17.775 64.425 -0.075
-16.575 63.975 -0.825
-18.375 64.575 0.975
-20.175 64.725 0.225
-19.575 64.725 0.075
-19.875 49.275 0.975
-20.025 49.275 0.825
-19.725 49.275 -0.075
-19.425 64.725 1.125
-20.175 49.275 0.225
-20.175 49.275 -2.025
-19.575 49.275 -0.075
-20.325 49.275 0.075
-18.225 64.575 0.675
-18.225 64.575 0.825
-20.475 49.275 -5.025
-19.125 49.275 0.675
-18.975 49.275 0.675
-18.975 49.275 -1.875
-21.075 49.275 0.075
-21.075 49.275 0.225
-18.525 49.275 0.225
-17.775 64.575 0.075
-17.325 49.575 4.425
-19.875 64.875 -0.375
-19.575 64.875 0.075
-19.575 64.875 0.225
-19.875 49.125 -0.975
-19.875 49.125 1.875
-20.025 49.125 0.075
-19.425 64.875 0.825
-20.175 49.125 0.525
-20.175 49.125 2.175
-20.175 49.125 0.075
-20.175 49.125 0.675
-20.475 64.875 0.525
-20.325 49.125 -0.075
-21.525 64.725 -0.375
-19.275 64.875 -1.725
-19.425 49.125 2.925
-17.625 64.575 0.225
-20.625 64.875 0.675
-19.125 64.875 0.375
-20.775 49.125 2.175
-18.975 49.125 0.675
-18.825 49.125 2.925
-18.675 64.875 -2.325
-18.675 64.875 -0.375
-18.675 64.875 0.675
-21.075 49.125 -0.225
-16.575 64.275 2.475
-21.225 49.125 0.375
-21.225 49.125 0.225
-18.525 49.125 0.225
-17.775 64.725 -0.075
-17.775 64.725 0.225
-17.775 64.725 -0.225
-17.775 64.725 0.375
-19.725 65.025 0.525
-19.725 65.025 -0.225
-19.725 65.025 -0.075
-19.725 65.025 0.375
-19.575 65.025 -0.975
-19.875 48.975 1.725
-20.025 48.975 0.825
-20.025 48.975 0.075
-19.725 48.975 -1.125
-19.725 48.975 -0.825
-20.325 65.025 0.525
-20.175 48.975 -4.725
-19.575 48.975 2.325
-19.275 65.025 -0.825
-20.475 48.975 1.575
-16.725 64.425 -0.075
-18.975 65.025 0.375
-20.775 48.975 0.825
-18.975 48.975 -3.525
-20.925 65.025 0.675
-17.925 64.875 0.225
-17.925 64.875 0.375
-17.925 64.875 0.525
-18.675 65.025 0.075
-21.075 48.975 0.075
-17.775 64.875 0.375
-17.775 64.875 -0.225
-17.775 64.875 0.525
-17.775 49.125 2.175
-17.775 49.125 1.875
-24.975 50.625 2.625
-19.875 65.175 -0.225
-20.025 65.175 0.375
-19.875 48.825 1.725
-19.875 48.825 0.225
-19.875 48.825 0.075
-20.025 48.825 0.825
-19.725 48.825 -3.225
-20.175 48.825 0.675
-19.575 48.825 -0.825
-17.625 64.875 1.125
-17.625 64.875 0.675
-17.625 64.875 -0.525
-20.325 48.825 2.325
-16.725 64.575 0.075
-19.275 48.825 0.375
-18.975 48.825 0.525
-17.475 49.125 2.175
-17.925 65.025 -0.225
-17.925 65.025 0.825
-17.925 65.025 0.525
-21.075 48.825 0.075
-17.775 65.025 -0.675
-17.775 65.025 -0.375
-17.775 65.025 0.825
-19.725 65.325 0.375
-19.725 65.325 -0.225
-19.575 65.325 -0.225
-19.725 48.675 0.075
-17.625 65.025 -0.675
-17.625 65.025 -0.375
-19.425 65.325 -1.425
-19.575 48.675 1.275
-15.525 64.125 1.125
-19.275 48.675 1.875
-19.125 65.325 -0.075
-19.125 65.325 0.225
-19.125 48.675 0.675
-19.125 48.675 0.225
-13.425 62.325 0.225
-18.075 65.175 0.525
-18.975 65.325 -0.825
-18.975 65.325 -0.975
-17.475 65.025 -0.525
-17.475 65.025 1.425
-17.475 65.025 1.125
-14.625 63.525 0.375
-18.975 48.675 0.225
-18.975 48.675 1.425
-17.475 48.975 1.725
-18.825 65.325 0.375
-18.825 65.325 0.225
-20.925 48.675 0.975
-20.925 48.675 1.125
-15.675 64.275 -0.375
-17.925 65.175 0.825
-17.925 65.175 0.225
-21.075 65.325 0.675
-21.075 48.675 0.975
-21.075 48.675 0.675
-17.325 65.025 -1.125
-14.925 63.825 -0.375
-21.975 65.175 0.675
-21.225 48.675 0.375
-21.225 48.675 0.675
-21.225 48.675 0.525
-13.725 62.775 -0.825
-18.375 65.325 2.175
-21.375 48.675 0.675
-19.725 65.475 -0.075
-17.175 48.975 3.525
-19.575 65.475 0.075
-19.575 65.475 0.375
-19.575 65.475 0.225
-17.625 65.175 -0.525
-17.625 65.175 -0.675
-19.875 48.525 1.575
-19.425 65.475 0.225
-20.325 48.525 1.275
-19.425 48.525 2.025
-19.425 48.525 1.875
-19.275 48.525 0.225
-20.625 48.525 1.275
-20.625 48.525 1.725
-19.125 48.525 2.325
-19.125 48.525 -2.775
-19.125 48.525 0.225
-20.775 65.475 1.275
-18.975 65.475 -0.975
-18.975 48.525 -0.075
-20.925 65.475 0.525
-18.825 65.475 0.075
-17.925 65.325 0.075
-21.075 48.525 0.825
-18.525 65.475 0.075
-17.775 65.325 -0.225
-17.775 65.325 -0.075
-17.775 65.325 -0.675
-21.225 48.525 0.525
-21.225 48.525 0.675
-18.525 48.525 -0.525
-15.825 64.575 0.525
-18.375 65.475 -0.525
-21.375 48.525 -2.475
-21.375 48.525 0.825
-17.625 65.325 0.225
-19.725 65.625 -0.675
-19.575 65.625 -0.225
-19.575 65.625 -0.075
-19.575 65.625 0.075
-19.875 48.375 1.425
-19.575 48.375 1.275
-19.275 65.625 -0.225
-20.625 65.625 0.675
-17.475 65.325 0.075
-20.625 48.375 1.725
-19.125 48.375 2.175
-18.975 48.375 0.675
-18.975 48.375 0.525
-20.925 48.375 0.975
-17.925 65.475 -0.075
-18.675 65.625 0.375
-17.325 65.325 -0.375
-17.325 65.325 2.325
-21.075 48.375 0.675
-17.775 65.475 -0.225
-17.175 65.325 -0.225
-17.175 65.325 -0.675
-18.375 65.625 -0.525
-22.125 65.475 -0.075
-22.125 65.475 -0.225
-17.625 65.475 -0.225
-16.725 48.825 -0.525
-19.725 65.775 -0.525
-19.575 65.775 -0.675
-19.575 65.775 0.075
-18.225 65.625 -2.025
-19.725 48.225 1.125
-19.725 48.225 1.425
-19.425 65.775 -0.075
-19.425 65.775 0.525
-21.525 48.375 0.375
-19.575 48.225 1.425
-13.125 62.625 0.375
-19.425 48.225 1.875
-19.425 48.225 1.575
-14.325 63.825 1.275
-17.475 65.475 -0.225
-17.475 65.475 0.525
-20.625 48.225 1.425
-20.625 48.225 0.525
-19.125 48.225 0.675
-18.975 65.775 0.375
-20.775 48.225 1.125
-18.975 48.225 0.525
-18.975 48.225 0.825
-18.825 48.225 2.325
-17.325 65.475 -0.225
-18.675 65.775 -0.525
-18.675 65.775 -0.075
-18.675 65.775 -0.825
-21.075 48.225 0.975
-21.975 65.625 -1.575
-17.775 65.625 0.525
-18.525 65.775 -0.525
-18.525 65.775 0.075
-18.525 65.775 0.675
-17.175 65.475 -0.075
-21.375 65.775 0.675
-17.625 65.625 0.075
-17.625 65.625 -0.225
-14.325 63.975 0.375
-12.225 61.575 1.725
-19.725 65.925 -0.225
-19.725 65.925 -0.075
-19.725 65.925 -0.975
-19.575 65.925 0.075
-19.725 48.075 0.525
-19.425 65.925 0.225
-20.175 48.075 1.575
-19.275 65.925 0.675
-19.275 65.925 -0.225
-19.275 65.925 0.525
-19.275 65.925 -0.075
-19.275 65.925 -1.275
-20.325 48.075 -1.875
-20.325 48.075 0.225
-20.475 48.075 0.075
-17.475 65.625 0.375
-19.275 48.075 0.075
-19.125 65.925 -1.125
-19.125 65.925 1.125
-19.125 48.075 0.975
-19.125 48.075 0.375
-20.775 48.075 -0.375
-18.975 48.075 0.825
-18.975 48.075 0.675
-18.825 65.925 0.075
-18.675 65.925 -0.525
-17.775 65.775 0.075
-18.525 65.925 -0.375
-21.375 65.925 0.225
-17.175 48.375 1.125
-17.625 65.775 -0.075
-21.525 65.925 0.825
-19.725 66.075 -0.075
-19.575 66.075 -0.075
-19.575 66.075 -0.525
-20.325 66.075 -6.075
-19.425 66.075 -0.225
-19.425 66.075 0.225
-19.575 47.925 1.575
-20.325 47.925 0.075
-19.425 47.925 1.425
-17.475 65.775 0.075
-20.475 47.925 -0.075
-20.475 47.925 0.075
-20.475 47.925 0.675
-20.475 47.925 0.525
-19.125 66.075 -0.975
-14.025 63.975 -0.075
-19.125 47.925 1.125
-19.125 47.925 0.525
-18.675 66.075 -0.375
-18.675 66.075 -0.525
-14.325 64.275 0.375
-17.775 65.925 0.675
-17.775 65.925 -0.525
-17.775 65.925 0.375
-21.225 47.925 2.325
-16.725 65.625 1.425
-18.375 66.075 -0.675
-12.975 63.075 -0.525
-17.625 65.925 -0.525
-17.625 65.925 -3.825
-17.625 65.925 -0.225
-17.625 65.925 -0.825
-18.375 47.925 0.375
-15.075 64.875 -0.075
-19.575 66.225 0.075
-19.575 66.225 -0.075
-19.425 66.225 0.525
-20.175 47.775 0.075
-17.475 65.925 -0.375
-14.175 64.275 0.225
-21.675 66.075 -0.225
-19.275 47.775 0.675
-18.975 47.775 0.525
-18.975 47.775 0.675
-18.825 66.225 0.075
-22.425 48.075 -1.425
-20.925 47.775 0.975
-21.075 47.775 0.675
-11.775 61.575 2.475
-21.225 66.225 1.275
-15.375 65.175 0.225
-17.625 66.075 -0.375
-22.125 47.925 0.975
-19.725 66.375 0.075
-19.575 66.375 -0.075
-19.575 66.375 0.375
-19.575 66.375 -0.225
-19.425 66.375 0.075
-19.425 66.375 0.525
-20.025 47.625 -0.075
-20.025 47.625 0.075
-20.175 47.625 1.725
-13.275 63.675 -1.425
-19.275 66.375 0.375
-20.325 47.625 0.825
-19.425 47.625 1.275
-21.675 66.225 -0.225
-11.175 60.525 -2.625
-20.475 47.625 0.525
-15.825 48.525 4.275
-15.225 65.175 0.375
-20.625 47.625 2.025
-18.975 47.625 0.375
-18.825 66.375 1.275
-13.875 64.275 -1.575
-20.925 47.625 0.975
-20.925 47.625 0.675
-21.075 47.625 0.825
-21.075 47.625 0.225
-17.775 66.225 0.075
-17.775 66.225 -0.375
-21.225 47.625 0.825
-21.225 47.625 0.975
-21.225 47.625 -1.425
-18.375 66.375 -0.675
-21.375 47.625 0.375
-18.375 47.625 5.625
-12.825 63.375 0.075
-17.025 66.075 1.275
-21.525 66.375 -0.225
-18.225 66.375 -0.675
-19.725 66.525 0.675
-19.575 66.525 -0.075
-19.575 66.525 0.225
-19.575 66.525 -0.225
-13.725 64.275 -1.275
-19.425 66.525 0.075
-20.025 47.475 -0.075
-19.275 66.525 0.075
-19.275 66.525 0.225
-19.425 47.475 0.825
-13.875 64.425 0.075
-19.275 47.475 0.675
-19.275 47.475 0.825
-19.125 47.475 1.125
-19.125 47.475 0.675
-19.125 47.475 0.375
-19.125 47.475 0.975
-18.975 66.525 -1.275
-18.975 66.525 0.375
-17.925 47.625 1.275
-20.925 47.475 -0.525
-18.675 66.525 -1.575
-18.675 66.525 1.425
-17.775 66.375 -5.025
-17.775 66.375 -0.075
-21.075 47.475 1.575
-21.075 47.475 0.675
-21.075 47.475 0.825
-18.525 66.525 -0.075
-18.525 66.525 -0.525
-18.525 66.525 -0.825
-17.625 66.375 -0.225
-18.375 66.525 -0.075
-18.375 66.525 -0.525
-13.725 64.425 0.375
-21.375 47.475 0.375
-17.625 47.625 0.675
-21.525 66.525 -0.525
-21.525 47.475 0.075
-21.525 47.475 0.525
-19.725 66.675 -0.075
-19.725 66.675 -0.375
-18.225 47.475 0.375
-17.475 66.375 -0.225
-19.575 66.675 0.225
-19.425 66.675 0.675
-19.575 47.325 1.125
-19.575 47.325 1.275
-19.275 66.675 -0.075
-19.425 47.325 0.375
-16.875 47.775 1.875
-20.625 47.325 1.875
-19.125 47.325 0.675
-18.975 47.325 0.375
-12.525 63.375 0.375
-20.925 47.325 -0.375
-18.525 66.675 -0.525
-13.875 64.725 0.375
-17.625 66.525 -0.675
-18.375 66.675 -0.525
-21.375 47.325 0.525
-16.575 66.225 1.425
-21.525 47.325 0.825
-17.475 66.525 -0.225
-17.475 66.525 -0.525
-19.575 66.825 0.525
-19.575 66.825 0.675
-20.325 66.825 3.525
-19.275 66.825 0.225
-20.325 47.175 0.225
-19.425 47.175 1.125
-12.375 63.375 0.375
-18.075 47.325 0.825
-20.475 47.175 0.225
-19.275 47.175 0.375
-17.925 66.675 0.075
-20.775 47.175 0.225
-20.775 47.175 1.275
-13.725 64.725 0.225
