# .PCD v0.7 - Point Cloud Data file format
VERSION 0.7
FIELDS x y z
SIZE 4 4 4
TYPE F F F
COUNT 1 1 1
WIDTH 2048
HEIGHT 1
VIEWPOINT 0 0 0 1 0 0 0
POINTS 2048
DATA ascii
-18.375 132.075 0.975
-18.525 132.075 2.175
-18.525 132.075 -0.225
-18.225 132.075 1.425
-18.225 132.075 -0.075
-18.375 131.925 -0.075
-18.375 131.925 0.525
-18.675 131.925 0.075
-18.075 132.075 0.975
-18.075 132.225 0.675
-18.075 132.225 0.975
-18.375 131.775 0.075
-18.825 132.075 -0.075
-18.075 131.925 0.975
-18.075 131.925 2.025
-18.225 131.775 1.275
-18.225 131.775 0.975
-18.675 132.525 3.075
-17.925 132.075 0.975
-18.075 131.775 0.975
-18.075 131.775 -0.225
-18.375 131.625 1.125
-18.225 131.625 1.125
-18.225 131.625 0.975
-18.975 131.925 -0.075
-18.975 132.375 5.625
-17.925 131.775 2.025
-18.825 132.675 0.975
-18.975 131.775 0.375
-18.375 131.475 1.125
-18.525 132.825 3.075
-17.775 132.375 0.375
-18.225 132.825 -0.225
-18.675 131.475 1.425
-17.775 131.775 1.125
-17.775 132.525 -0.375
-17.775 132.525 0.675
-18.975 131.625 0.375
-18.975 131.625 -0.075
-18.075 131.475 1.725
-18.975 132.675 3.225
-18.975 132.675 2.175
-18.975 132.675 0.975
-18.075 132.825 -1.275
-18.825 131.475 -0.675
-17.625 132.075 0.075
-18.375 131.325 1.125
-18.375 131.325 0.825
-18.375 132.975 3.075
-18.525 131.325 2.175
-18.525 131.325 1.275
-18.225 131.325 1.575
-18.225 131.325 1.725
-18.675 131.325 0.525
-18.675 131.325 1.875
-18.975 131.475 0.525
-18.975 131.475 0.825
-18.975 132.825 2.625
-19.275 132.375 3.375
-17.625 131.775 1.125
-17.625 132.525 -0.375
-18.825 131.325 0.825
-19.275 131.775 2.475
-17.775 131.475 -0.225
-17.775 132.825 0.825
-17.475 132.075 1.125
-17.625 131.625 0.675
-17.625 131.625 -0.375
-17.625 131.625 0.975
-17.925 131.325 1.725
-19.125 131.475 -0.225
-19.125 131.475 0.075
-19.125 132.825 2.625
-19.125 132.825 3.525
-18.375 131.175 1.125
-18.375 131.175 2.475
-17.475 131.925 1.125
-17.475 132.375 2.325
-17.475 132.375 -0.225
-18.975 131.325 0.825
-18.225 131.175 0.975
-19.275 131.625 2.775
-19.275 132.675 0.975
-17.475 132.525 -0.375
-17.475 132.525 -0.525
-18.075 133.125 1.725
-17.625 132.825 3.075
-17.775 131.325 -0.375
-17.775 131.325 -0.225
-19.125 131.325 0.525
-19.125 132.975 2.925
-19.275 132.825 2.925
-17.475 131.625 1.575
-17.475 132.675 -0.375
-17.325 132.075 -1.725
-17.325 132.075 -0.075
-18.975 131.175 1.275
-18.975 131.175 0.825
-18.375 131.025 0.225
-17.325 131.925 2.475
-17.325 131.925 -0.225
-17.325 132.375 0.675
-19.425 132.675 1.875
-19.425 132.675 1.125
-19.425 132.675 1.275
-18.225 131.025 1.425
-18.225 131.025 0.075
-17.625 131.325 0.075
-17.625 132.975 3.075
-17.475 131.475 0.675
-17.475 132.825 -0.225
-19.575 132.375 1.575
-17.775 131.175 0.825
-17.775 133.125 3.375
-17.775 133.125 -0.375
-17.775 133.125 0.375
-18.075 131.025 0.975
-19.275 131.325 2.175
-18.825 133.275 2.175
-19.125 131.175 0.825
-19.425 132.825 2.175
-19.425 132.825 1.275
-17.325 132.675 0.375
-17.325 132.675 -0.525
-18.975 131.025 0.825
-17.175 132.075 0.375
-17.175 132.225 -0.075
-17.175 132.225 1.125
-19.575 131.625 -0.375
-19.575 131.625 -0.225
-17.625 131.175 -0.075
-19.575 132.675 1.275
-18.375 130.875 0.225
-19.275 131.175 2.025
-18.225 133.425 3.525
-19.275 133.125 0.225
-19.425 132.975 1.725
-19.725 132.075 1.725
-17.775 133.275 2.325
-17.175 131.775 0.225
-18.075 130.875 -2.025
-19.125 133.275 2.775
-19.125 133.275 1.275
-19.575 131.475 -0.075
-19.575 132.825 2.175
-19.575 132.825 1.575
-19.575 132.825 1.125
-19.575 132.825 1.275
-19.575 132.825 1.425
-19.725 132.525 2.025
-17.475 131.175 0.975
-17.325 132.975 2.775
-17.625 131.025 1.875
-17.625 133.275 3.525
-18.975 130.875 2.775
-18.975 130.875 3.075
-18.975 133.425 3.375
-19.425 131.175 2.475
-19.725 132.675 1.425
-19.725 132.675 1.575
-17.025 132.075 0.975
-17.025 132.225 2.325
-17.025 132.225 0.975
-17.025 132.225 0.225
-17.025 132.225 3.225
-17.025 132.225 0.675
-17.025 132.225 2.925
-19.275 133.275 2.775
-19.575 132.975 2.925
-19.575 132.975 1.425
-19.575 132.975 2.475
-17.025 131.925 0.225
-17.025 131.925 1.125
-17.025 132.375 2.925
-17.025 132.375 0.975
-17.175 132.825 0.675
-17.775 130.875 -0.375
-18.225 130.725 0.675
-18.225 133.575 1.125
-18.675 130.725 0.075
-19.875 132.225 1.725
-19.125 130.875 0.825
-17.025 132.525 -0.825
-19.125 133.425 -0.975
-19.125 133.425 2.625
-19.725 132.825 1.275
-19.725 132.825 1.725
-19.725 132.825 1.125
-19.725 132.825 2.775
-19.875 131.925 1.725
-19.875 132.375 2.775
-19.875 132.375 2.325
-19.875 132.375 1.425
-17.475 131.025 -0.075
-17.325 133.125 2.475
-19.875 131.775 0.225
-19.875 131.775 1.425
-19.875 131.775 1.725
-19.875 132.525 0.975
-19.875 132.525 2.325
-19.875 132.525 1.125
-17.025 131.625 -0.225
-17.025 132.675 1.575
-17.175 132.975 0.225
-19.575 131.175 1.275
-19.575 133.125 2.475
-19.575 133.125 2.025
-19.575 133.125 1.275
-18.975 133.575 2.625
-18.975 133.575 2.775
-19.275 133.425 0.825
-19.275 133.425 1.575
-19.725 132.975 2.175
-19.725 132.975 0.975
-19.725 132.975 2.625
-19.875 131.625 1.425
-19.875 131.625 1.275
-19.875 132.675 2.025
-16.875 132.225 1.425
-16.875 132.225 0.525
-16.875 132.225 1.575
-16.875 131.925 0.375
-17.325 131.025 3.375
-17.325 133.275 2.625
-18.375 133.725 2.025
-17.175 131.175 2.325
-19.125 133.575 0.525
-18.225 133.725 2.775
-16.875 132.525 1.125
-19.875 132.825 1.275
-19.875 132.825 2.025
-20.025 132.075 2.025
-20.025 132.075 1.875
-20.025 132.225 2.625
-20.025 132.225 1.275
-19.575 131.025 1.275
-19.575 133.275 0.825
-19.575 133.275 1.275
-19.575 133.275 2.625
-20.025 131.925 1.725
-20.025 131.925 1.275
-20.025 132.375 0.825
-18.825 130.575 2.025
-17.025 132.975 0.225
-17.625 133.575 2.475
-16.875 131.625 -0.375
-16.875 132.675 0.225
-16.875 132.675 1.125
-20.025 131.775 1.575
-20.025 131.775 1.725
-20.025 132.525 2.325
-19.275 130.725 0.975
-19.275 130.725 1.725
-19.275 130.725 2.475
-19.275 133.575 1.275
-20.025 131.625 0.975
-20.025 132.675 1.275
-20.025 132.675 2.475
-16.875 132.825 1.575
-16.875 132.825 1.425
-16.725 132.075 1.425
-16.725 132.075 0.075
-16.725 132.225 0.525
-17.775 133.725 -0.225
-17.475 130.725 1.575
-17.475 130.725 -0.825
-19.575 130.875 1.275
-17.475 133.575 2.175
-19.725 131.025 0.225
-19.575 133.425 2.325
-19.575 133.425 0.825
-16.725 132.375 1.125
-16.725 132.375 0.525
-19.125 130.575 0.975
-19.125 133.725 1.275
-19.125 133.725 1.425
-19.425 130.725 0.075
-19.425 130.725 1.725
-19.425 133.575 2.625
-19.425 133.575 1.875
-19.425 133.575 0.975
-16.725 132.525 1.125
-20.175 132.075 2.475
-20.175 132.075 2.175
-20.175 132.075 0.525
-20.175 132.225 2.325
-20.175 132.225 1.875
-20.175 132.225 2.175
-20.175 132.225 0.675
-16.875 132.975 0.225
-20.175 131.925 1.275
-20.175 131.925 1.425
-18.825 130.425 3.825
-18.825 133.875 3.075
-18.825 133.875 1.725
-16.725 132.675 3.375
-16.725 132.675 1.125
-19.275 130.575 0.975
-20.175 131.775 1.575
-20.175 131.775 2.175
-20.175 131.775 1.125
-20.175 131.775 1.275
-20.175 132.525 1.425
-17.175 133.425 3.675
-19.275 133.725 2.025
-20.025 131.325 0.675
-20.025 132.975 2.625
-18.975 133.875 1.575
-20.175 131.625 1.575
-20.175 131.625 1.725
-19.575 130.725 1.275
-19.575 133.575 2.025
-16.725 132.825 1.125
-16.725 132.825 0.675
-19.875 133.275 2.025
-17.475 133.725 2.025
-16.575 132.075 0.675
-19.425 130.575 0.525
-19.425 130.575 1.575
-19.425 133.725 2.925
-19.425 133.725 0.975
-16.575 132.375 0.675
-16.575 132.375 0.375
-20.175 131.475 0.975
-20.175 131.475 1.575
-16.725 132.975 0.975
-17.025 133.425 3.075
-20.325 132.075 0.525
-20.325 132.075 1.275
-20.325 132.225 1.875
-17.625 130.425 1.875
-20.325 131.925 2.325
-20.325 131.925 1.425
-20.325 132.375 1.575
-19.275 130.425 1.425
-19.275 130.425 0.825
-19.275 130.425 1.275
-17.325 130.575 3.975
-19.275 133.875 2.025
-16.575 131.625 1.725
-16.575 131.625 0.825
-19.725 130.725 -0.075
-20.175 131.325 0.375
-20.175 131.325 1.725
-20.325 131.775 1.875
-20.325 131.775 2.025
-20.325 131.775 1.575
-20.325 131.775 1.425
-19.575 130.575 1.275
-19.575 130.575 0.825
-20.325 131.625 2.025
-20.325 131.625 1.725
-17.475 130.425 2.025
-20.325 132.675 1.425
-17.475 133.875 2.175
-17.475 133.875 0.975
-20.175 131.175 0.675
-16.425 132.075 0.525
-16.425 132.225 0.225
-16.875 133.425 0.375
-20.325 131.475 0.825
-20.325 131.475 1.575
-20.325 131.475 -0.525
-20.325 131.475 1.275
-16.575 132.975 1.125
-18.525 134.175 0.225
-16.425 132.525 0.825
-19.725 130.575 1.275
-17.625 134.025 0.075
-17.625 134.025 0.975
-20.025 133.425 2.475
-19.275 130.275 1.425
-19.275 130.275 0.825
-18.825 134.175 2.925
-20.325 131.325 2.025
-20.325 131.325 1.725
-20.325 131.325 1.575
-19.575 133.875 2.775
-20.475 131.775 1.425
-20.475 131.775 1.125
-20.475 131.775 2.175
-20.475 131.775 1.275
-20.475 132.525 1.725
-16.575 133.125 0.375
-17.475 134.025 2.025
-17.025 130.575 1.275
-17.025 130.575 2.475
-20.475 131.625 2.175
-20.475 132.675 1.575
-16.725 130.875 0.975
-16.725 133.425 1.275
-20.325 131.175 1.725
-20.325 131.175 0.225
-20.325 131.175 1.425
-19.125 130.125 0.825
-19.125 130.125 0.975
-19.125 134.175 2.175
-19.125 134.175 1.425
-16.275 132.225 0.075
-20.475 131.475 2.175
-20.475 131.475 1.575
-19.725 130.425 0.225
-16.275 131.925 0.975
-20.175 133.425 1.875
-16.275 132.375 -0.225
-16.575 133.275 3.075
-18.225 129.975 2.625
-16.275 132.525 -0.225
-18.675 134.325 2.925
-19.275 130.125 -1.425
-20.625 132.075 1.575
-20.625 132.225 1.275
-20.625 131.925 1.425
-20.625 132.375 -3.375
-16.875 130.575 1.275
-16.875 133.725 0.375
-16.275 131.625 0.225
-16.275 131.625 1.575
-16.725 130.725 3.075
-16.425 133.125 0.225
-16.425 133.125 2.775
-20.625 131.775 0.825
-20.625 131.775 1.725
-20.625 131.775 1.875
-20.025 130.575 3.375
-16.575 130.875 3.075
-16.575 133.425 0.225
-20.625 131.625 0.375
-19.425 134.175 1.425
-20.475 131.175 1.575
-19.125 134.325 2.625
-20.625 132.825 1.425
-16.125 132.075 1.725
-16.125 132.225 1.875
-16.275 131.325 1.725
-16.125 131.925 -0.075
-16.125 132.375 -0.075
-16.725 130.575 2.925
-17.625 134.325 3.375
-16.725 133.725 0.375
-16.125 132.525 -0.075
-20.475 131.025 1.575
-20.475 131.025 1.425
-20.475 131.025 -0.075
-18.225 134.475 1.575
-18.225 134.475 3.225
-16.575 130.725 1.425
-19.275 134.325 1.725
-16.575 133.575 0.375
-16.575 133.575 0.525
-18.675 134.475 2.925
-20.625 131.325 1.575
-20.625 131.325 1.425
-20.175 130.575 2.625
-18.825 134.475 2.025
-16.125 131.625 0.675
-16.425 133.425 -0.375
-17.475 134.325 2.175
-17.475 134.325 2.475
-17.175 130.125 1.575
-19.425 134.325 1.575
-16.125 132.825 1.725
-20.625 131.175 2.175
-20.775 131.625 1.725
-20.775 131.625 0.225
-20.775 132.675 1.725
-16.725 130.425 1.425
-19.125 134.475 3.975
-16.575 130.575 1.575
-16.875 130.275 1.725
-16.875 130.275 1.425
-16.875 130.275 1.575
-17.325 134.325 0.225
-20.775 131.475 1.875
-20.775 131.475 2.025
-16.125 131.325 0.825
-16.125 131.325 1.575
-16.125 132.975 2.175
-16.125 132.975 2.325
-15.975 132.075 -0.225
-16.425 130.725 1.275
-16.425 133.575 -0.225
-17.025 130.125 1.275
-20.025 130.275 1.725
-15.975 131.925 3.225
-15.975 131.925 -0.075
-20.325 130.575 2.475
-20.325 130.575 1.275
-20.625 131.025 1.425
-20.625 131.025 1.125
-19.275 134.475 1.875
-18.525 134.625 3.225
-15.975 131.775 2.325
-20.775 131.325 2.325
-20.775 131.325 1.725
-20.775 131.325 3.075
-16.275 133.425 -0.075
-17.175 129.975 1.275
-18.825 134.625 2.925
-17.175 134.325 0.525
-20.925 132.525 1.725
-16.575 130.425 1.725
-16.725 130.275 1.425
-19.425 134.475 1.425
-20.775 131.175 2.175
-20.775 131.175 0.975
-15.975 131.475 3.075
-15.975 131.475 1.425
-16.425 130.575 2.175
-16.425 130.575 1.425
-16.425 133.725 -0.375
-16.875 130.125 1.425
-16.875 130.125 2.625
-20.925 132.675 1.875
-16.875 134.175 2.325
-17.775 134.625 3.375
-20.175 130.275 0.075
-16.125 131.025 2.775
-20.325 130.425 1.275
-17.325 129.825 -0.075
-17.325 134.475 1.275
-17.325 134.475 2.175
-17.025 129.975 1.575
-15.975 131.325 2.625
-15.975 131.325 0.825
-15.975 131.325 1.725
-15.975 131.325 1.275
-20.775 131.025 2.175
-20.775 131.025 1.575
-20.775 131.025 0.975
-20.775 131.025 1.875
-17.625 134.625 3.525
-15.825 131.775 2.475
-16.125 130.875 1.275
-16.125 130.875 1.125
-16.125 130.875 1.725
-16.125 130.875 0.825
-16.125 130.875 0.675
-18.225 134.775 2.775
-15.975 131.175 1.575
-15.975 131.175 2.925
-17.175 129.825 2.025
-15.975 133.125 0.675
-16.425 130.425 2.325
-17.175 134.475 3.675
-17.175 134.475 2.775
-17.175 134.475 3.525
-16.725 130.125 1.425
-16.725 134.175 2.025
-17.475 134.625 -0.975
-17.475 134.625 2.325
-15.825 131.625 3.075
-15.825 132.675 0.975
-15.825 132.675 0.525
-21.075 132.375 1.425
-16.275 130.575 1.425
-16.275 130.575 2.175
-20.325 130.275 1.275
-20.325 130.275 0.825
-19.425 129.675 0.975
-16.875 129.975 1.725
-17.925 129.525 -0.525
-20.175 130.125 -0.375
-20.925 131.175 1.725
-20.925 131.175 1.875
-20.925 131.175 2.025
-20.925 131.175 1.575
-15.825 132.825 -0.225
-15.825 132.825 0.975
-15.975 131.025 2.325
-17.025 129.825 0.975
-19.125 129.525 2.475
-19.575 129.675 0.975
-19.575 129.675 0.675
-20.925 131.025 1.725
-16.425 130.275 1.275
-20.775 130.725 1.275
-20.775 130.725 1.425
-15.675 132.225 -0.075
-15.975 130.875 2.625
-15.975 130.875 1.725
-15.975 130.875 2.325
-15.975 130.875 2.175
-17.175 129.675 0.825
-21.075 131.325 2.475
-21.075 131.325 1.425
-18.375 129.375 3.075
-20.325 130.125 1.275
-20.325 130.125 1.125
-20.325 130.125 0.225
-20.475 130.275 2.925
-17.175 134.625 2.325
-18.375 134.925 2.625
-15.675 131.775 1.275
-15.825 131.175 1.275
-15.825 131.175 1.425
-15.825 131.175 2.925
-15.825 131.175 2.475
-18.225 129.375 1.275
-18.675 129.375 1.125
-16.125 130.575 1.575
-16.125 130.575 1.875
-16.125 133.725 2.325
-16.125 133.725 0.075
-20.625 130.425 2.325
-18.825 129.375 -1.125
-20.925 130.875 1.425
-19.425 129.525 1.425
-19.425 129.525 2.325
-19.425 129.525 0.975
-21.225 131.925 0.975
-21.075 131.175 2.475
-20.775 130.575 1.125
-15.675 131.475 1.275
-15.825 131.025 1.125
-15.825 131.025 1.575
-15.825 131.025 1.425
-15.825 131.025 1.875
-15.825 131.025 1.275
-15.675 132.825 1.275
-15.675 132.825 0.975
-15.975 130.725 1.425
-15.975 130.725 0.975
-15.975 130.725 1.575
-21.225 131.625 2.025
-17.775 134.925 1.875
-16.275 130.275 1.875
-15.675 131.325 1.275
-15.675 131.325 1.125
-15.675 132.975 0.375
-15.675 132.975 0.975
-15.675 132.975 0.525
-20.925 130.725 1.425
-21.075 131.025 2.025
-21.075 131.025 1.125
-21.225 131.475 1.875
-16.125 133.875 2.025
-16.125 133.875 0.225
-20.325 129.975 2.775
-17.625 129.375 1.575
-17.625 134.925 2.325
-15.825 130.875 1.875
-15.825 133.425 1.275
-15.525 132.225 0.675
-17.175 134.775 2.025
-15.675 131.175 1.575
-15.675 131.175 1.275
-15.675 131.175 0.825
-15.525 131.775 -0.375
-15.525 131.775 2.475
-15.525 131.775 0.975
-15.525 132.525 0.375
-18.225 129.225 1.275
-18.675 129.225 1.275
-18.225 135.075 2.175
-17.475 134.925 2.925
-18.675 135.075 2.775
-21.075 130.875 2.625
-21.075 130.875 1.125
-19.425 129.375 0.975
-15.525 131.625 2.775
-15.525 131.625 1.575
-15.525 131.625 2.625
-15.525 131.625 1.425
-20.925 130.575 -0.525
-20.925 130.575 1.575
-21.225 131.175 2.625
-15.675 131.025 1.275
-18.975 129.225 4.575
-15.675 133.275 -0.525
-15.525 131.475 0.675
-15.525 131.475 2.025
-15.525 132.825 1.425
-20.475 129.975 0.375
-17.325 134.925 1.875
-19.875 129.525 2.625
-19.875 129.525 3.375
-19.125 129.225 4.575
-20.775 134.025 1.725
-21.075 130.725 2.175
-21.225 131.025 0.975
-15.525 131.325 1.275
-15.525 131.325 2.025
-15.525 131.325 1.125
-21.375 131.475 1.875
-20.925 130.425 2.325
-20.925 130.425 1.425
-20.925 130.425 1.575
-15.825 130.575 3.225
-17.175 129.375 2.625
-19.275 129.225 0.975
-17.175 134.925 1.725
-16.875 129.525 1.425
-15.375 131.925 2.175
-15.375 131.925 2.925
-15.375 131.925 2.625
-15.525 131.175 2.025
-15.525 131.175 2.175
-15.525 131.175 1.575
-15.525 133.125 0.975
-18.375 129.075 3.075
-15.375 131.775 2.625
-15.375 131.775 2.325
-15.375 131.775 1.725
-15.375 132.525 0.075
-17.475 135.075 2.325
-17.475 135.075 2.475
-17.475 135.075 2.775
-21.075 130.575 2.325
-21.075 130.575 2.175
-18.675 129.075 2.775
-15.975 130.275 2.625
-15.375 131.625 2.925
-15.375 131.625 1.125
-15.375 131.625 1.725
-15.375 131.625 1.575
-15.375 131.625 1.425
-15.675 130.725 2.625
-18.825 129.075 0.975
-15.525 131.025 2.025
-15.525 133.275 1.425
-15.525 133.275 0.075
-17.925 129.075 2.775
-15.825 130.425 2.475
-15.825 133.875 0.075
-20.925 134.025 1.575
-15.375 131.475 1.875
-17.325 135.075 2.325
-21.225 130.725 1.425
-21.225 130.725 2.025
-17.775 135.225 1.875
-20.175 129.525 2.325
-21.075 130.425 1.425
-15.375 131.325 2.625
-15.675 130.575 2.475
-15.675 133.725 1.725
-17.625 129.075 2.775
-17.625 129.075 2.625
-15.975 134.175 2.625
-17.175 135.075 2.925
-19.275 129.075 3.375
-15.225 132.225 3.225
-15.375 131.175 0.375
-21.525 131.325 2.325
-21.525 131.325 2.175
-15.375 133.125 0.525
-21.225 130.575 2.325
-21.225 130.575 1.275
-21.225 130.575 2.025
-15.225 131.925 2.775
-15.225 131.925 1.875
-15.225 132.375 2.475
-21.375 130.875 2.325
-18.375 128.925 2.325
-15.225 131.775 1.575
-18.225 128.925 2.925
-18.225 128.925 1.425
-18.225 135.375 1.425
-18.675 135.375 1.725
-20.325 129.525 2.325
-20.325 129.525 2.625
-15.225 131.625 1.425
-15.225 131.625 1.275
-15.225 131.625 2.325
-15.225 131.625 1.125
-15.225 131.625 2.625
-15.675 133.875 0.225
-15.675 133.875 1.575
-18.825 135.375 2.475
-15.375 133.275 -0.375
-17.325 135.225 2.925
-17.325 135.225 3.075
-15.225 131.475 1.575
-15.225 131.475 2.025
-21.375 130.725 1.725
-21.375 130.725 2.175
-21.375 130.725 1.425
-16.275 134.625 2.775
-17.775 135.375 2.775
-17.775 135.375 2.325
-17.775 135.375 2.475
-15.825 130.125 2.625
-15.225 131.325 1.575
-15.375 130.875 1.725
-15.375 133.425 1.275
-20.925 134.325 3.825
-20.925 134.325 3.225
-16.875 135.075 3.075
-20.475 129.525 2.475
-20.475 129.525 2.175
-15.675 134.025 -0.225
-21.075 130.125 1.725
-21.075 130.125 1.575
-21.075 130.125 1.875
-21.075 134.175 3.825
-19.725 129.075 2.475
-21.375 130.575 1.275
-21.375 130.575 2.025
-15.225 133.125 0.075
-21.525 130.875 2.325
-15.075 132.075 1.875
-15.075 132.075 1.275
-15.075 131.925 1.125
-20.325 129.375 2.475
-20.325 129.375 2.175
-20.325 129.375 2.025
-15.075 132.375 -0.675
-17.475 128.925 1.275
-17.475 135.375 2.025
-15.375 133.575 1.125
-15.375 133.575 1.275
-15.075 131.775 2.775
-15.075 131.775 1.125
-15.075 131.775 1.875
-15.075 131.775 1.275
-15.075 131.775 2.175
-15.075 131.775 0.975
-18.375 128.775 4.125
-15.075 132.525 2.775
-15.525 133.875 1.575
-16.125 129.675 1.725
-18.225 135.525 1.725
-15.075 131.625 1.575
-15.225 133.275 -0.825
-15.225 133.275 0.375
-18.825 128.775 -0.375
-17.325 135.375 2.625
-21.375 130.425 1.275
-15.075 131.475 2.175
-15.075 132.825 0.075
-20.625 129.525 2.475
-15.375 133.725 1.125
-21.675 131.025 2.475
-21.675 131.025 0.225
-17.775 135.525 2.775
-16.875 135.225 1.425
-20.475 129.375 2.325
-15.075 131.325 2.325
-21.225 130.125 2.325
-21.225 130.125 2.025
-16.575 129.225 0.075
-17.175 135.375 2.775
-17.625 128.775 2.325
-17.625 128.775 0.825
-17.625 128.775 0.975
-21.525 130.575 3.225
-20.325 129.225 2.625
-20.325 129.225 1.875
-21.675 130.875 2.475
-21.675 130.875 1.875
-21.675 130.875 0.975
-21.675 130.875 2.325
-14.925 132.075 3.225
-15.225 133.575 0.675
-15.375 133.875 1.125
-15.375 133.875 0.825
-14.925 131.925 3.075
-14.925 131.925 1.425
-14.925 131.925 1.125
-14.925 131.925 1.275
-14.925 132.375 0.525
-20.925 129.675 3.075
-17.025 135.375 1.875
-21.075 129.825 3.375
-14.925 131.775 0.975
-14.925 131.775 1.275
-14.925 131.775 1.425
-14.925 131.775 2.025
-18.375 135.675 3.525
-15.525 134.175 -0.225
-15.525 134.175 -0.525
-14.925 131.625 2.025
-14.925 132.675 2.625
-21.225 129.975 2.025
-21.225 129.975 1.425
-21.225 129.975 2.175
-21.525 130.425 1.425
-21.525 130.425 -0.225
-21.225 134.325 2.775
-17.325 128.775 1.275
-17.325 135.525 1.125
-17.325 135.525 2.475
-17.325 135.525 2.625
-17.925 128.625 0.825
-17.925 135.675 1.875
-18.975 128.625 0.825
-20.475 129.225 -0.525
-16.875 135.375 1.275
-15.375 134.025 -0.675
-15.375 134.025 1.275
-15.375 134.025 1.125
-15.075 130.875 1.725
-15.075 133.425 0.075
-14.925 132.975 -0.075
-21.675 130.575 1.725
-21.525 130.275 1.125
-21.525 130.275 1.275
-21.825 130.875 2.025
-16.275 135.075 1.275
-14.925 133.125 0.825
-14.925 133.125 -0.075
-21.225 129.825 2.325
-16.725 128.925 4.275
-14.775 132.075 1.425
-14.775 132.075 2.025
-14.775 132.075 1.125
-14.775 132.225 1.125
-14.775 131.925 1.275
-14.775 131.925 2.475
-14.775 131.925 2.775
-14.775 131.925 1.425
-14.775 131.925 2.625
-14.775 131.925 1.875
-14.775 132.375 0.375
-21.375 129.975 1.425
-21.675 130.425 1.575
-21.675 130.425 1.425
-14.925 133.275 0.825
-21.825 130.725 1.275
-14.775 131.625 1.125
-14.775 131.625 2.025
-18.075 128.475 2.025
-14.775 132.675 0.525
-18.075 135.825 4.125
-17.325 135.675 1.275
-19.575 128.625 0.225
-15.225 134.025 1.125
-14.925 133.425 0.225
-14.925 133.425 -0.075
-21.675 130.275 2.925
-21.675 130.275 1.125
-21.675 130.275 1.425
-21.375 129.825 0.375
-21.375 129.825 2.025
-17.625 135.825 4.575
-19.275 128.475 0.675
-20.625 129.075 -0.525
-14.775 133.125 0.525
-21.525 129.975 0.375
-21.525 129.975 2.325
-21.525 129.975 0.225
-17.025 135.675 0.675
-17.475 135.825 2.025
-17.475 135.825 2.325
-20.175 128.775 -0.075
-14.625 132.075 1.125
-14.625 132.225 1.125
-14.625 132.225 1.575
-14.625 132.225 0.975
-14.625 132.225 1.875
-14.625 132.225 1.725
-14.625 131.925 1.575
-14.625 131.925 2.025
-14.625 131.925 1.725
-14.625 132.375 3.525
-14.625 132.375 2.325
-14.625 132.525 2.775
-14.775 133.275 0.825
-14.775 133.275 1.275
-14.775 133.275 -0.075
-18.525 128.325 3.825
-21.675 130.125 1.425
-21.675 130.125 -0.525
-18.225 128.325 2.475
-18.675 128.325 2.475
-21.075 129.375 1.575
-17.325 135.825 2.025
-14.625 132.675 0.225
-14.625 132.675 2.625
-16.125 135.225 0.675
-18.825 128.325 2.625
-21.375 129.675 1.125
-21.375 129.675 1.875
-16.875 135.675 0.825
-16.875 135.675 1.425
-18.975 128.325 1.425
-18.975 128.325 2.325
-20.775 129.075 0.075
-14.775 133.425 4.575
-14.775 133.425 0.825
-20.325 128.775 0.225
-17.175 135.825 1.275
-19.725 128.475 -0.075
-14.925 130.425 2.175
-15.825 135.075 1.125
-14.625 133.125 2.925
-15.375 134.625 3.375
-20.175 128.625 0.375
-21.225 129.375 1.125
-21.225 129.375 2.025
-17.475 135.975 2.475
-21.075 129.225 1.125
-21.975 130.425 1.725
-21.975 130.425 1.425
-21.375 129.525 1.125
-21.375 129.525 1.875
-19.875 128.475 0.975
-14.475 132.075 1.425
-14.475 132.075 1.725
-14.475 132.075 1.125
-14.475 132.225 1.125
-14.475 132.225 2.325
-14.475 132.225 1.575
-14.475 132.375 2.475
-14.475 132.375 1.725
-14.625 133.275 1.275
-14.475 132.525 3.075
-18.375 128.175 4.125
-18.525 128.175 1.725
-18.675 128.175 3.525
-17.325 135.975 1.875
-17.325 135.975 3.825
-14.475 132.675 2.625
-14.475 132.675 2.775
-14.475 132.675 3.675
-16.875 135.825 4.425
-21.675 129.825 1.125
-18.825 128.175 1.725
-15.075 134.325 -0.525
-20.325 128.625 0.075
-20.325 128.625 -0.075
-20.025 128.475 0.975
-20.025 128.475 0.675
-14.475 131.475 0.675
-18.975 128.175 2.925
-18.975 128.175 2.625
-18.975 128.175 2.325
-14.625 133.425 2.775
-20.625 128.775 3.675
-17.775 128.175 1.875
-17.775 128.175 1.125
-17.175 135.975 1.425
-17.175 135.975 2.025
-15.825 135.225 0.825
-21.825 129.975 -0.525
-21.825 129.975 2.025
-19.125 128.175 1.575
-14.475 132.975 3.375
-21.225 129.225 0.825
-21.225 129.225 1.275
-15.225 134.625 -0.525
-16.725 135.825 3.975
-14.625 133.575 -0.075
-14.625 133.575 0.825
-20.175 128.475 0.075
-20.175 128.475 -0.225
-14.475 133.125 2.925
-17.025 128.325 4.125
-20.475 128.625 2.925
-20.475 128.625 0.075
-17.025 135.975 3.225
-21.675 129.675 1.275
-21.675 129.675 1.425
-21.975 130.125 1.875
-21.975 130.125 2.325
-17.475 128.175 0.825
-16.125 135.525 3.225
-19.875 128.325 1.425
-19.875 128.325 0.975
-19.875 128.325 1.275
-17.475 136.125 4.425
-14.325 132.075 1.125
-14.325 132.075 2.325
-14.325 132.225 1.425
-14.325 132.225 3.525
-14.325 132.225 2.025
-14.325 132.225 1.575
-14.325 132.225 1.725
-14.325 131.925 0.975
-14.325 131.925 1.125
-14.325 131.925 1.425
-14.475 133.275 1.275
-14.475 133.275 -0.225
-14.475 133.275 0.225
-21.825 129.825 1.425
-21.825 129.825 2.775
-14.625 133.725 0.225
-14.325 131.775 2.325
-14.325 132.525 1.725
-14.325 132.525 1.575
-14.325 132.525 -0.375
-18.375 128.025 1.425
-17.325 136.125 1.575
-18.675 128.025 2.925
-20.325 128.475 0.525
-14.325 131.625 2.325
-18.075 128.025 1.125
-18.825 128.025 2.925
-20.025 128.325 0.675
-20.025 128.325 0.975
-20.625 128.625 -0.525
-22.275 130.575 1.725
-22.275 130.575 2.325
-22.275 130.575 2.025
-17.925 136.275 2.625
-18.975 128.025 2.625
-21.975 129.975 1.875
-21.975 129.975 2.775
-21.975 129.975 2.625
-17.175 136.125 1.425
-21.675 129.525 -1.575
-14.775 134.175 1.275
-22.575 131.625 3.525
-16.725 135.975 2.475
-16.725 135.975 1.725
-21.825 129.675 1.725
-21.825 129.675 1.575
-20.175 128.325 -0.225
-20.175 128.325 2.325
-14.925 134.475 1.575
-20.475 128.475 0.225
-20.475 128.475 2.025
-16.125 135.675 3.525
-22.125 130.125 1.875
-22.125 130.125 1.725
-22.125 130.125 2.325
-22.275 130.425 2.175
-17.025 136.125 1.425
-14.325 133.125 0.225
-19.875 128.175 0.975
-19.875 128.175 1.425
-15.375 135.075 3.075
-17.475 128.025 2.775
-17.475 136.275 1.275
-15.675 135.375 0.825
-19.425 128.025 0.825
-16.575 135.975 3.525
-14.175 132.075 0.975
-14.175 132.375 1.575
-14.175 132.375 1.875
-14.175 132.375 1.725
-16.275 135.825 4.125
-16.275 135.825 3.525
-21.225 128.925 1.125
-14.175 131.775 2.775
-14.175 132.525 1.575
-18.375 127.875 1.425
-18.225 127.875 1.725
-20.625 128.475 0.075
-14.175 131.625 0.975
-14.175 132.675 2.775
-14.175 132.675 -0.225
-18.075 127.875 1.425
-22.125 129.975 2.775
-22.125 129.975 1.275
-22.125 129.975 2.025
-14.925 134.625 1.425
-14.925 134.625 1.575
-21.825 129.525 1.725
-14.325 130.875 -0.075
-22.425 130.575 1.725
-14.175 132.825 -0.075
-14.625 130.125 1.875
-14.625 130.125 0.975
-17.175 136.275 1.275
-16.425 135.975 1.725
-19.725 128.025 0.975
-17.775 127.875 1.725
-17.775 127.875 0.075
-16.725 136.125 1.725
-14.175 132.975 -0.075
-14.175 132.975 3.225
-14.175 132.975 2.775
-20.175 128.175 0.375
-20.175 128.175 0.525
-20.175 128.175 -0.075
-14.325 133.575 -0.075
-22.275 130.125 2.025
-15.075 134.925 -0.525
-14.175 133.125 2.025
-14.175 133.125 2.775
-21.525 129.075 2.925
-21.375 128.925 1.125
-14.475 130.275 0.825
-14.925 134.775 1.125
-14.625 134.325 1.125
-14.625 134.325 1.275
-15.825 135.675 4.275
-22.575 130.725 -0.675
-21.825 129.375 1.575
-16.575 136.125 1.575
-14.175 133.275 1.275
-20.325 128.175 3.675
-20.325 128.175 -0.075
-20.325 128.175 0.525
-14.025 132.225 0.975
-14.025 132.375 1.725
-14.025 132.375 2.475
-14.775 134.625 -0.525
-14.775 134.625 1.125
-17.325 136.425 2.025
-18.525 127.725 1.725
-18.375 136.575 1.275
-18.225 127.725 1.575
-18.225 127.725 3.075
-14.025 132.675 2.475
-14.025 132.675 2.175
-14.025 132.675 0.975
-14.025 132.675 1.875
-18.075 127.725 1.575
-14.175 130.875 0.525
-18.825 127.725 3.075
-15.225 135.225 -0.225
-20.925 128.475 1.125
-15.375 135.375 0.525
-15.375 135.375 3.675
-15.075 135.075 -0.675
-14.625 134.475 1.125
-20.175 128.025 0.225
-20.175 128.025 3.225
-22.425 130.125 1.725
-22.425 130.125 1.875
-14.175 133.575 -0.075
-22.575 130.425 1.575
-22.275 129.825 3.225
-22.275 129.825 1.275
-17.625 127.725 1.725
-14.775 134.775 0.075
-14.775 134.775 -0.525
-14.775 134.775 1.275
-14.775 134.775 0.825
-17.025 136.425 1.275
-21.975 129.375 1.725
-21.975 129.375 1.875
-19.275 127.725 3.375
-14.025 133.125 0.525
-14.475 134.325 -0.225
-21.075 128.475 3.225
-15.975 135.975 3.375
-22.425 129.975 3.075
-22.425 129.975 1.875
-16.875 136.425 1.425
-15.375 135.525 3.825
-15.375 135.525 4.425
-13.875 132.075 0.975
-13.875 132.375 0.975
-13.875 132.375 0.825
-14.925 135.075 -0.525
-13.875 131.775 1.425
-13.875 132.525 0.675
-13.875 132.525 1.125
-13.875 132.525 1.275
-18.375 127.575 1.425
-22.275 129.675 3.075
-22.725 130.575 1.575
-18.225 127.575 -2.325
-18.225 127.575 1.575
-21.825 129.075 1.875
-21.825 129.075 2.025
-13.875 132.675 0.975
-14.475 134.475 -1.275
-18.075 127.575 2.025
-16.425 136.275 1.725
-14.175 133.875 0.675
-18.825 127.575 2.925
-21.975 129.225 1.425
-13.875 131.475 1.725
-13.875 132.825 2.475
-13.875 132.825 0.525
-20.475 128.025 2.325
-20.475 128.025 -3.975
-19.725 127.725 -0.225
-17.775 127.575 1.425
-22.125 129.375 1.425
-19.125 127.575 2.625
-13.875 132.975 3.075
-13.875 132.975 2.175
-15.825 135.975 -1.125
-17.025 136.575 1.725
-14.325 134.325 3.075
-14.325 134.325 0.525
-14.175 134.025 0.825
-15.075 135.375 -0.375
-13.875 131.175 1.725
-13.875 133.125 1.725
-22.875 130.725 -1.125
-15.975 136.125 1.125
-14.025 133.725 -0.375
-14.775 135.075 -1.575
-22.575 129.975 1.875
-20.925 128.175 3.225
-21.975 129.075 2.325
-21.975 129.075 2.025
-22.425 129.675 1.425
-20.025 127.725 0.525
-13.725 132.225 2.475
-13.725 132.225 0.825
-13.725 132.225 1.875
-13.725 132.375 1.125
-13.725 132.375 0.975
-13.725 132.375 1.875
-14.325 134.475 0.075
-13.725 132.525 3.225
-13.725 132.525 1.125
-18.525 127.425 2.175
-18.525 127.425 3.675
-18.225 127.425 1.425
-13.725 132.675 1.125
-18.075 127.425 1.425
-18.825 127.425 2.775
-22.275 129.375 1.425
-17.925 127.425 1.875
-22.725 130.125 3.075
-13.725 132.825 1.275
-13.725 132.825 2.475
-13.725 132.825 0.975
-13.725 132.825 1.125
-22.575 129.825 1.725
-22.575 129.825 2.625
-15.075 135.525 -0.075
-13.725 132.975 2.625
-14.775 135.225 -0.525
-22.425 129.525 2.175
-22.425 129.525 2.325
-22.425 129.525 1.425
-14.025 134.025 0.675
-14.025 134.025 0.375
-21.825 128.775 1.875
-21.975 128.925 2.475
-13.725 133.125 3.825
-15.525 135.975 4.125
-22.125 129.075 0.375
-20.325 127.725 3.675
-20.325 127.725 -0.225
-19.425 127.425 -0.075
-22.575 129.675 1.725
-22.575 129.675 1.575
-14.475 134.925 3.225
-14.025 134.175 0.675
-14.025 134.175 1.275
-14.025 134.175 -0.075
-13.575 132.225 0.975
-13.575 132.225 1.875
-13.575 131.925 2.325
-13.575 132.375 1.125
-16.425 136.575 0.825
-22.425 129.375 1.575
-15.075 135.675 -0.375
-13.575 132.525 1.125
-16.725 127.575 3.975
-13.575 132.675 1.875
-13.575 132.675 1.425
-13.575 132.675 1.575
-13.575 132.675 2.175
-13.575 132.675 1.725
-22.725 129.825 2.025
-18.075 127.275 -2.325
-18.075 127.275 1.275
-18.825 127.275 1.575
-18.825 127.275 2.925
-18.825 127.275 1.425
-21.825 128.625 1.125
-21.975 128.775 1.275
-17.925 127.275 0.375
-13.575 131.475 2.025
-13.575 132.825 2.025
-21.675 128.475 1.725
-21.675 128.475 1.575
-21.675 128.475 1.125
-22.125 128.925 0.525
-22.575 129.525 1.575
-22.575 129.525 1.725
-14.025 134.325 0.675
-14.475 135.075 3.225
-14.175 134.625 -0.975
-13.575 131.325 1.725
-16.275 136.575 0.525
-13.875 134.025 -0.225
-16.575 136.725 2.325
-19.875 127.425 2.025
-19.275 127.275 0.075
-13.575 133.125 -0.075
-23.175 130.725 0.975
-13.725 133.725 0.675
-15.675 136.275 3.825
-15.675 136.275 -1.425
-14.775 135.525 -0.525
-14.025 134.475 0.675
-21.225 128.025 0.225
-14.625 135.375 -1.875
-14.625 135.375 -1.725
-21.975 128.625 2.325
-21.975 128.625 2.625
-21.975 128.625 2.475
-21.975 128.625 1.125
-21.975 128.625 3.525
-21.825 128.475 1.125
-13.425 131.925 1.275
-13.425 132.375 0.975
-14.475 135.225 -0.375
-20.475 127.575 -0.375
-21.675 128.325 0.825
-21.675 128.325 2.925
-21.675 128.325 1.125
-13.425 132.525 2.175
-13.425 132.525 1.275
-13.575 133.425 3.975
-18.225 127.125 2.625
-18.675 127.125 0.975
-13.425 132.675 1.125
-22.725 129.525 1.725
-20.175 127.425 2.325
-14.325 135.075 -1.125
-13.875 134.325 1.275
-23.175 130.425 1.725
-14.025 134.625 -0.375
-14.025 134.625 0.075
-18.975 127.125 2.625
-13.575 133.575 0.375
-15.975 136.575 -0.975
-17.775 127.125 2.025
-19.125 127.125 1.125
-17.025 137.025 1.425
-16.575 136.875 2.025
-14.925 135.825 -0.375
-15.675 136.425 1.875
-13.425 133.125 2.325
-13.425 133.125 1.875
-13.425 133.125 0.375
-14.475 135.375 -0.525
-22.125 128.625 2.175
-22.125 128.625 1.875
-13.875 134.475 0.675
-22.725 129.375 1.875
-22.725 129.375 1.425
-21.825 128.325 1.275
-13.725 134.175 -0.375
-14.025 134.775 0.525
-14.325 135.225 -0.525
-16.425 136.875 1.575
-23.025 129.825 2.025
-13.275 132.075 1.725
-21.525 128.025 3.075
-22.875 129.525 1.575
-22.875 129.525 0.675
-16.725 137.025 1.425
-16.725 137.025 1.725
-13.275 132.525 1.275
-18.375 126.975 1.425
-13.275 132.675 1.275
-13.275 132.675 1.425
-19.725 127.125 1.875
-23.325 130.425 0.225
-22.725 129.225 1.725
-18.975 126.975 1.275
-20.925 127.575 -0.375
-21.975 128.325 2.625
-16.575 137.025 1.725
-13.275 132.975 -0.375
-13.275 132.975 -0.075
-14.325 135.375 1.425
-23.025 129.675 2.175
-23.025 129.675 1.575
-19.875 127.125 0.225
-21.825 128.175 2.775
-22.425 128.775 2.025
-13.275 133.125 2.325
-13.275 133.125 2.625
-22.575 128.925 1.725
-13.875 134.775 -0.225
-16.125 136.875 1.425
-16.875 137.175 1.575
-20.025 127.125 0.225
-20.025 127.125 0.075
-22.725 129.075 1.725
-21.075 127.575 -0.375
-14.625 135.825 -0.675
-13.425 133.875 -1.125
-14.475 135.675 0.825
-16.725 137.175 1.425
-13.275 133.425 2.625
-14.325 135.525 1.425
-13.725 134.625 0.075
-20.175 127.125 1.875
-22.125 128.325 3.825
-22.275 128.475 0.075
-21.975 128.175 3.825
-21.975 128.175 2.775
-22.425 128.625 1.425
-13.125 132.675 1.425
-13.125 132.675 -0.225
-13.125 132.675 1.125
-18.675 126.825 3.375
-13.875 134.925 -0.075
-13.875 134.925 -0.225
-19.725 126.975 2.325
-21.825 128.025 3.375
-22.575 128.775 2.175
-13.275 133.575 0.075
-13.275 133.575 0.225
-18.975 126.825 1.425
-18.975 126.825 2.775
-21.225 127.575 2.775
-13.125 132.975 -0.075
-23.025 129.375 0.825
-20.325 127.125 2.475
-14.025 135.225 0.975
-19.875 126.975 2.025
-19.875 126.975 1.575
-22.725 128.925 1.725
-13.125 133.125 -0.375
-21.525 127.725 2.325
-22.875 129.075 1.875
-14.325 135.675 0.975
-14.325 135.675 0.525
-16.425 137.175 1.875
-13.875 135.075 -0.075
-13.875 135.075 -0.225
-13.875 135.075 0.375
-19.425 126.825 1.425
-13.125 133.275 2.325
-22.275 128.325 1.425
-23.175 129.525 1.725
-20.475 127.125 3.225
-20.475 127.125 1.125
-22.125 128.175 2.325
-14.175 135.525 0.975
-14.175 135.525 3.975
-14.175 135.525 -1.725
-14.175 135.525 -1.125
-23.475 130.125 -0.375
-22.575 128.625 2.175
-23.025 129.225 1.875
-23.025 129.225 0.825
-13.125 133.425 0.225
-14.025 135.375 0.975
-16.275 137.175 2.475
-18.225 126.675 -0.675
-12.975 132.675 1.575
-19.725 126.825 1.875
-19.725 126.825 0.675
-20.625 127.125 0.675
-20.625 127.125 0.975
-12.975 132.825 1.425
-13.875 135.225 -0.975
-23.175 129.375 1.575
-23.175 129.375 1.725
-16.575 137.325 1.425
-16.575 137.325 1.725
-18.975 126.675 2.925
-14.325 135.825 0.975
-20.325 126.975 3.075
-19.875 126.825 1.875
-19.875 126.825 2.475
-19.125 126.675 2.925
-15.825 137.025 1.275
-14.925 136.425 2.625
-23.025 129.075 1.725
-22.425 128.325 0.975
-22.425 128.325 2.175
-22.425 128.325 1.275
-13.125 133.725 -0.075
-13.125 133.725 -0.375
-19.275 126.675 1.575
-13.725 135.075 -1.275
-13.725 135.075 3.375
-12.975 133.125 -1.425
-16.425 137.325 1.125
-19.425 126.675 1.575
-20.475 126.975 0.975
-21.375 127.425 2.475
-23.175 129.225 2.025
-13.125 133.875 -0.525
-13.125 133.875 -1.125
-13.125 133.875 -0.675
-13.575 134.925 -1.725
-15.975 137.175 1.425
-12.975 133.425 4.125
-20.175 126.825 2.925
-20.175 126.825 2.025
-16.275 137.325 1.425
-16.275 137.325 1.125
-12.825 131.925 2.325
-14.475 136.125 0.675
-12.825 132.375 1.575
-14.625 136.275 0.675
-14.625 136.275 1.125
-20.625 126.975 1.425
-20.625 126.975 1.575
-18.525 126.525 1.875
-13.125 134.025 -1.275
-12.825 132.675 1.725
-22.425 128.175 2.175
-22.425 128.175 1.125
-16.575 137.475 1.875
-22.575 128.325 1.725
-12.825 132.825 1.575
-21.525 127.425 2.325
-18.975 126.525 1.575
-20.325 126.825 0.975
-13.275 134.475 -1.125
-12.825 132.975 2.325
-16.125 137.325 1.575
-22.875 128.625 2.775
-12.975 133.725 -0.375
-13.125 134.175 1.275
-16.425 126.825 3.975
-16.425 137.475 1.125
-16.425 137.475 1.875
-21.825 127.575 2.475
-23.025 128.775 1.725
-23.025 128.775 2.025
-19.425 126.525 1.725
-14.475 136.275 0.525
-13.275 134.625 -0.075
-12.975 133.875 3.225
-14.175 135.975 3.075
-14.625 136.425 1.125
-14.625 136.425 0.675
-23.175 128.925 1.425
-23.175 128.925 1.875
-23.175 128.925 0.225
-19.575 126.525 0.225
-19.575 126.525 1.575
-19.575 126.525 1.725
-22.425 128.025 3.525
-22.425 128.025 2.775
-22.425 128.025 2.625
-22.425 128.025 1.125
-12.825 133.425 -0.225
-22.275 127.875 2.475
-23.475 129.375 2.175
-12.675 132.525 1.575
-12.675 132.525 2.625
-22.875 128.475 0.525
-22.875 128.475 3.075
-19.725 126.525 1.875
-19.725 126.525 1.575
-18.375 126.375 0.375
-21.525 127.275 2.475
-21.525 127.275 3.225
-12.675 132.675 1.875
-18.225 126.375 1.275
-23.325 129.075 2.175
-13.275 134.775 0.825
-18.075 126.375 0.675
-12.675 132.825 2.175
-12.675 132.825 2.025
-20.325 126.675 2.175
-20.325 126.675 2.025
-15.825 137.325 1.425
-15.825 137.325 0.825
-15.825 137.325 1.125
-16.125 137.475 1.275
-12.675 132.975 1.575
-20.775 126.825 3.525
-12.825 133.725 1.575
-23.175 128.775 1.725
-23.475 129.225 2.625
-12.675 133.125 2.625
-12.675 133.125 2.775
-19.275 126.375 2.625
-19.275 126.375 1.725
-14.625 136.575 0.675
-22.575 128.025 0.075
-22.425 127.875 1.725
-13.125 134.625 -0.075
-13.125 134.625 0.825
-13.125 134.625 0.375
-22.725 128.175 1.275
-14.775 136.725 0.675
-14.775 136.725 0.375
-19.425 126.375 1.725
-22.275 127.725 2.475
-15.675 137.325 1.125
-16.725 137.775 1.725
-19.575 126.375 1.725
-19.575 126.375 1.875
-20.175 126.525 2.175
-12.675 133.425 0.675
-17.175 126.375 -2.925
-13.125 134.775 0.675
-13.125 134.775 -0.075
-13.125 134.775 1.125
-13.125 134.775 0.075
-15.075 137.025 0.225
-12.525 132.675 2.025
-12.525 132.675 2.175
-18.225 126.225 1.125
-18.075 126.225 0.975
-14.475 136.575 0.675
-15.525 137.325 1.725
-23.325 128.775 2.325
-22.575 127.875 1.425
-22.425 127.725 2.775
-23.625 129.225 1.575
-23.625 129.225 0.525
-23.625 129.225 1.725
-12.675 133.725 3.825
-22.275 127.575 1.725
-22.275 127.575 2.625
-23.025 128.325 1.875
-21.675 127.125 3.075
-16.875 137.925 3.075
-19.275 126.225 1.875
-19.275 126.225 1.725
-20.475 126.525 2.175
-22.125 127.425 1.575
-13.275 135.225 -1.575
-23.175 128.475 1.875
-23.175 128.475 1.725
-12.525 133.275 2.775
-15.375 137.325 3.375
-20.925 126.675 2.475
-16.725 137.925 2.475
-16.275 137.775 1.275
-21.525 126.975 0.675
-20.175 126.375 2.175
-19.575 126.225 1.875
-12.675 134.025 -0.375
-12.975 134.775 1.275
-12.375 132.375 1.725
-22.725 127.875 1.725
-22.725 127.875 1.575
-22.725 127.875 -0.225
-22.575 127.725 0.075
-22.575 127.725 1.275
-22.575 127.725 2.025
-12.375 132.525 2.025
-22.875 128.025 0.225
-14.625 136.875 0.825
-16.575 137.925 1.875
-23.475 128.775 1.875
-18.375 126.075 3.675
-22.425 127.575 0.075
-12.375 131.625 1.275
-12.375 132.675 2.025
-12.375 132.675 2.475
-23.025 128.175 0.525
-23.025 128.175 1.875
-20.325 126.375 2.325
-18.675 126.075 0.825
-18.075 126.075 0.675
-15.225 137.325 -0.075
-12.375 132.825 2.025
-23.925 129.525 1.425
-22.275 127.425 2.625
-22.275 127.425 2.925
-23.175 128.325 1.275
-23.175 128.325 2.025
-23.175 128.325 1.125
-19.875 126.225 1.575
-21.675 126.975 3.075
-12.375 132.975 1.875
-12.525 133.725 3.675
-19.125 126.075 3.075
-19.125 126.075 2.325
-19.125 126.075 1.875
-22.125 127.275 1.275
-22.125 127.275 2.325
-22.125 127.275 1.575
-22.125 127.275 1.125
-12.975 134.925 0.675
-23.325 128.475 1.725
-23.325 128.475 2.175
-23.325 128.475 1.125
-20.475 126.375 2.475
-12.825 134.625 0.225
-15.675 137.625 -1.725
-12.375 133.125 2.625
-15.975 137.775 0.975
-15.975 137.775 2.475
-21.975 127.125 -0.075
-12.525 133.875 2.925
-12.675 134.325 3.525
-19.425 126.075 1.725
-23.475 128.625 2.025
-21.525 126.825 2.475
-14.475 136.875 1.875
-16.275 137.925 1.275
-22.725 127.725 2.175
-22.725 127.725 1.575
-22.725 127.725 2.325
-22.875 127.875 3.825
-22.575 127.575 1.125
-20.175 126.225 0.075
-20.175 126.225 -0.075
-23.025 128.025 1.575
-23.025 128.025 0.525
-13.575 135.975 3.825
-12.375 133.425 3.375
-22.425 127.425 2.475
-22.425 127.425 1.125
-12.825 134.775 0.675
-12.825 134.775 1.275
-12.975 135.075 0.675
-23.175 128.175 1.125
-23.175 128.175 1.875
-15.525 137.625 2.025
-12.225 132.375 1.575
-22.275 127.275 1.125
-22.275 127.275 2.775
-16.575 138.075 1.875
-19.725 126.075 0.525
-19.725 126.075 1.575
-23.325 128.325 2.175
-23.325 128.325 0.975
-14.775 137.175 1.425
-16.125 137.925 0.975
-16.125 137.925 1.125
-12.225 132.675 1.575
-12.225 132.675 1.425
-18.675 125.925 2.475
-20.775 126.375 1.275
-21.675 126.825 3.825
-22.125 127.125 1.125
-22.125 127.125 0.825
-12.525 134.175 -0.675
-23.475 128.475 1.125
-14.925 137.325 1.125
-12.825 134.925 0.375
-12.375 133.725 0.075
-12.975 135.225 0.225
-19.125 125.925 2.175
-15.675 137.775 -0.525
-20.475 126.225 2.325
-21.975 126.975 -0.525
-13.575 136.125 3.675
-22.725 127.575 0.075
-15.975 137.925 1.725
-15.975 137.925 0.975
-23.025 127.875 1.125
-23.025 127.875 0.225
-12.225 133.125 2.025
-20.025 126.075 1.725
-22.575 127.425 2.325
-23.175 128.025 1.725
-20.925 126.375 1.125
-12.375 133.875 3.075
-15.075 137.475 -0.825
-13.425 135.975 2.925
-19.425 125.925 1.725
-14.625 137.175 0.825
-23.325 128.175 1.875
-23.325 128.175 1.425
-21.825 126.825 -1.425
-21.825 126.825 -0.225
-20.175 126.075 1.725
-12.825 135.075 0.225
-12.825 135.075 0.675
-22.275 127.125 1.275
-19.575 125.925 1.275
-13.275 135.825 1.275
-23.475 128.325 1.275
-23.475 128.325 1.725
-12.225 133.425 1.725
-12.225 133.425 3.075
-12.225 133.425 2.475
-14.775 137.325 0.525
-12.975 135.375 1.275
-12.975 135.375 -0.375
-12.975 135.375 3.375
-12.375 134.025 0.675
-15.225 137.625 -0.225
-19.725 125.925 1.575
-16.125 138.075 2.175
-21.675 126.675 2.775
-12.225 133.575 2.175
-13.125 135.675 0.975
-23.925 128.925 0.225
-23.175 127.875 1.725
-23.175 127.875 1.425
-12.075 132.825 1.725
-19.875 125.925 1.575
-22.575 127.275 -0.075
-15.675 137.925 -0.225
-23.325 128.025 1.575
-20.475 126.075 0.075
-15.975 138.075 2.475
-21.225 126.375 -0.975
-23.475 128.175 1.725
-12.075 133.125 3.075
-20.925 126.225 1.575
-20.925 126.225 0.825
-20.925 126.225 1.125
-19.275 125.775 1.575
-12.225 133.875 -0.825
-16.275 138.225 1.725
-19.425 125.775 2.925
-12.075 133.275 3.075
-23.625 128.325 -0.525
-12.675 135.075 0.825
-13.875 136.725 0.075
-14.775 137.475 3.225
-14.775 137.475 0.075
-15.525 137.925 -0.075
-21.375 126.375 -0.225
-23.025 127.575 -0.375
-23.775 128.475 3.225
-22.875 127.425 1.275
-14.325 137.175 1.575
-21.675 126.525 0.075
-12.975 135.675 0.975
-16.125 138.225 1.725
-14.925 137.625 0.825
-14.925 137.625 -0.075
-19.725 125.775 1.875
-19.725 125.775 1.725
-19.725 125.775 1.575
-20.325 125.925 1.725
-13.275 136.125 3.525
-12.075 133.575 2.475
-20.775 126.075 1.125
-14.475 137.325 0.375
-11.925 132.525 1.725
-22.575 127.125 0.375
-12.675 135.225 2.025
-19.875 125.775 1.875
-11.925 132.825 1.425
-16.425 138.375 1.875
-12.825 135.525 -0.375
-18.975 125.625 -0.075
-20.475 125.925 1.575
-20.475 125.925 2.175
-21.525 126.375 2.625
-21.525 126.375 0.075
-21.525 126.375 -0.075
-20.925 126.075 1.725
-22.275 126.825 1.575
-20.025 125.775 2.175
-20.025 125.775 1.575
-12.075 133.875 3.825
-12.525 135.075 0.525
-16.275 138.375 1.275
-12.675 135.375 0.825
-16.725 125.775 2.325
-22.875 127.275 1.125
-20.625 125.925 1.125
-15.225 137.925 2.325
-14.325 137.325 -0.525
-15.825 138.225 2.175
-23.475 127.875 1.425
-19.575 125.625 1.725
-12.075 134.025 3.075
-22.575 126.975 1.125
-14.475 137.475 -0.225
-14.475 137.475 -0.075
-14.475 137.475 -0.375
-14.475 137.475 -0.525
-16.125 138.375 1.875
-16.125 138.375 1.725
-16.125 138.375 1.275
-21.975 126.525 4.125
-19.725 125.625 2.325
-12.525 135.225 0.825
-22.425 126.825 1.125
-11.925 133.575 4.125
-12.675 135.525 0.225
-13.875 137.025 3.375
-15.075 137.925 3.075
-19.875 125.625 2.025
-19.875 125.625 1.875
-14.025 137.175 0.075
-11.775 132.825 1.275
-22.275 126.675 1.125
-22.275 126.675 0.825
-11.925 133.725 3.225
-15.975 138.375 1.275
-15.975 138.375 2.925
-20.475 125.775 2.175
-20.475 125.775 2.775
-20.475 125.775 1.875
-21.825 126.375 3.075
-23.025 127.275 -0.075
-14.175 137.325 0.225
-23.325 127.575 1.425
-11.775 132.975 1.125
-11.775 132.975 1.275
-22.875 127.125 1.275
-22.875 127.125 3.225
-23.475 127.725 1.575
-20.025 125.625 1.575
-14.325 137.475 -0.675
-19.275 125.475 0.375
-12.525 135.375 1.275
-12.525 135.375 0.825
-12.525 135.375 0.075
-23.625 127.875 1.125
-15.525 138.225 1.725
-15.225 138.075 -0.525
-20.625 125.775 2.025
-20.625 125.775 2.625
-19.425 125.475 1.725
-22.575 126.825 3.225
-20.175 125.625 1.725
-14.475 137.625 -0.075
-11.775 133.425 2.925
-21.975 126.375 -0.225
-22.425 126.675 1.125
-16.575 138.675 -1.425
-13.275 136.575 0.975
-20.325 125.625 1.725
-12.525 135.525 3.675
-12.525 135.525 1.425
-12.525 135.525 0.825
-12.525 135.525 0.075
-15.375 138.225 -0.525
-23.325 127.425 2.475
-23.025 127.125 -0.375
-12.075 134.625 -0.225
-11.625 132.675 1.575
-11.625 132.675 1.875
-12.675 135.825 0.525
-19.875 125.475 1.725
-18.825 125.325 -2.025
-18.075 138.975 2.625
-11.625 132.825 2.625
-11.625 132.825 1.425
-22.725 126.825 -0.375
-14.325 137.625 -0.225
-23.775 127.875 1.275
-11.625 132.975 1.275
-11.925 134.325 2.475
-12.375 135.375 3.675
-12.375 135.375 -0.375
-20.025 125.475 1.575
-20.025 125.475 1.875
-22.575 126.675 0.075
-15.225 138.225 -0.525
-23.925 128.025 2.775
-12.525 135.675 0.975
-12.525 135.675 0.825
-14.475 137.775 -0.075
-20.625 125.625 2.025
-21.375 125.925 2.625
-15.825 138.525 3.225
-15.825 138.525 1.125
-11.625 133.275 2.175
-11.625 133.275 0.225
-19.425 125.325 1.875
-22.425 126.525 2.775
-21.975 126.225 -0.375
-12.675 135.975 4.125
-23.175 127.125 2.175
-23.475 127.425 1.725
-16.125 138.675 1.575
-16.125 138.675 -1.275
-23.625 127.575 1.575
-12.975 136.425 -0.375
-12.975 136.425 -1.425
-12.375 135.525 3.825
-12.375 135.525 0.075
-20.775 125.625 1.725
-20.775 125.625 2.925
-20.775 125.625 1.575
-14.175 137.625 -0.075
-20.325 125.475 1.575
-23.775 127.725 1.425
