# .PCD v0.7 - Point Cloud Data file format
VERSION 0.7
FIELDS x y z
SIZE 4 4 4
TYPE F F F
COUNT 1 1 1
WIDTH 2048
HEIGHT 1
VIEWPOINT 0 0 0 1 0 0 0
POINTS 2048
DATA ascii
-19.575 18.675 3.225
-19.425 18.525 1.125
-19.275 18.675 -1.725
-19.425 18.525 -0.225
-19.275 18.825 2.475
-19.275 18.825 1.575
-19.275 18.525 2.625
-19.275 18.525 1.575
-19.275 18.525 1.875
-19.425 18.375 1.725
-19.425 18.975 -0.375
-19.725 18.675 -1.125
-19.125 18.675 1.725
-19.125 18.675 1.425
-19.125 18.675 -2.025
-19.425 18.375 -1.425
-19.125 18.675 1.575
-19.125 18.825 1.725
-19.575 18.375 2.175
-19.125 18.825 -1.425
-19.125 18.825 1.425
-19.125 18.825 1.575
-19.575 18.975 -0.675
-19.575 18.375 0.525
-19.575 18.975 2.175
-19.125 18.825 2.175
-19.125 18.825 2.775
-19.275 18.975 2.175
-19.125 18.525 1.875
-19.275 18.975 1.575
-19.275 18.975 1.425
-19.125 18.525 4.275
-19.125 18.975 1.425
-19.125 18.975 2.325
-19.725 18.975 2.625
-19.725 18.975 -0.975
-19.125 18.375 2.475
-19.125 18.975 1.125
-19.725 18.375 -0.975
-19.725 18.975 3.375
-19.125 18.375 2.175
-19.125 18.975 1.575
-18.975 18.675 1.125
-18.975 18.675 1.425
-19.875 18.675 -0.975
-19.425 18.225 -1.275
-18.975 18.675 1.275
-18.975 18.675 1.575
-18.975 18.825 1.125
-18.975 18.825 3.975
-19.575 18.225 -0.525
-19.575 18.225 -0.375
-18.975 18.825 2.025
-19.875 18.825 5.025
-19.875 18.825 3.225
-18.975 18.825 1.575
-18.975 18.825 1.725
-18.975 18.825 -1.125
-18.975 18.525 2.025
-18.975 18.525 1.425
-18.975 18.525 1.725
-19.275 18.225 -0.525
-19.275 18.225 -1.275
-19.125 19.125 1.275
-18.975 18.375 1.875
-19.875 18.975 0.075
-19.125 19.125 1.575
-19.875 18.975 -0.675
-18.975 18.375 2.025
-19.125 18.225 2.325
-18.975 18.975 1.425
-19.425 19.275 3.375
-18.825 18.675 1.125
-19.425 18.075 2.625
-18.825 18.675 1.575
-18.825 18.675 1.425
-18.825 18.675 3.825
-19.575 19.275 2.925
-19.575 19.275 2.175
-19.275 19.275 3.525
-18.825 18.825 2.925
-18.825 18.825 1.125
-18.825 18.825 2.625
-18.825 18.825 2.325
-18.825 18.525 2.025
-18.825 18.525 1.425
-18.825 18.525 2.625
-19.275 18.075 -0.825
-18.825 18.525 2.175
-18.825 18.525 1.725
-18.825 18.525 1.575
-18.975 19.125 0.825
-19.875 19.125 -0.675
-18.975 19.125 1.875
-18.975 18.225 2.175
-19.875 18.225 0.525
-18.975 19.125 1.725
-18.975 19.125 1.425
-19.125 19.275 1.425
-19.725 19.275 3.825
-20.025 18.375 0.825
-18.825 18.375 1.575
-19.725 18.075 -0.375
-18.825 18.375 1.275
-18.825 18.375 2.475
-18.825 18.975 0.825
-18.825 18.375 2.175
-19.125 18.075 -0.675
-18.825 18.375 1.425
-18.825 18.975 1.275
-18.825 18.975 2.025
-18.825 18.975 1.125
-18.825 18.375 2.325
-20.025 18.225 1.275
-18.975 19.275 3.075
-18.975 19.275 1.125
-18.975 19.275 1.725
-20.025 19.125 3.075
-18.975 19.275 1.575
-19.875 19.275 -0.225
-20.025 18.225 0.825
-18.975 19.275 3.225
-19.875 19.275 2.775
-18.975 19.275 1.275
-19.425 17.925 2.475
-18.675 18.675 1.425
-20.175 18.675 5.025
-19.425 19.425 3.525
-18.675 18.675 0.975
-18.675 18.675 1.275
-18.675 18.675 1.125
-18.825 18.225 1.575
-18.825 18.225 1.275
-18.825 19.125 1.575
-19.875 18.075 0.825
-18.975 18.075 -0.525
-18.825 18.225 2.325
-18.825 18.225 2.475
-18.825 19.125 1.125
-18.825 18.225 3.375
-19.875 18.075 6.225
-18.675 18.825 1.575
-19.575 17.925 -0.675
-18.675 18.825 0.975
-18.675 18.825 1.275
-18.675 18.525 1.275
-18.675 18.525 1.425
-18.675 18.525 1.125
-20.175 18.525 -2.775
-19.275 17.925 -0.375
-18.675 18.525 1.875
-20.175 18.525 0.525
-18.675 18.525 1.725
-18.675 18.525 1.575
-20.175 18.375 0.825
-19.725 19.425 2.175
-20.175 18.375 1.125
-19.725 19.425 -0.375
-18.675 18.375 1.575
-18.675 18.375 1.725
-20.175 18.375 1.575
-20.175 18.375 1.275
-20.175 18.975 -0.225
-18.675 18.375 2.025
-18.675 18.375 2.325
-19.125 19.425 3.075
-19.725 17.925 0.525
-20.175 18.975 -0.375
-19.125 19.425 2.925
-19.125 19.425 0.825
-19.125 19.425 2.475
-18.675 18.375 1.875
-18.675 18.375 1.275
-18.825 19.275 1.125
-18.825 19.275 0.525
-20.025 18.075 -0.375
-18.825 19.275 1.575
-18.825 19.275 2.475
-20.025 18.075 0.825
-18.825 19.275 0.375
-18.825 18.075 2.475
-18.825 18.075 1.125
-18.975 19.425 3.225
-18.675 19.125 0.825
-19.875 17.925 0.825
-19.875 17.925 0.975
-20.175 18.225 0.825
-19.875 19.425 -0.975
-19.875 17.925 1.425
-18.675 18.225 1.425
-18.675 18.225 2.025
-19.875 19.425 3.675
-18.975 17.925 -0.675
-19.875 19.425 -0.525
-18.975 17.925 2.925
-20.175 19.125 -0.825
-18.675 18.225 1.725
-18.675 18.225 1.875
-18.975 19.425 3.375
-18.675 18.225 1.575
-18.975 19.425 1.725
-20.325 18.675 0.525
-20.325 18.675 0.825
-20.325 18.675 4.725
-18.525 18.675 1.575
-19.425 17.775 3.525
-18.525 18.675 1.725
-18.525 18.675 1.875
-18.525 18.675 1.275
-18.525 18.675 0.975
-20.325 18.825 4.275
-20.325 18.525 1.275
-19.275 19.575 2.625
-20.325 18.525 0.825
-19.275 19.575 3.225
-19.275 19.575 2.925
-19.575 17.775 3.975
-18.525 18.825 1.425
-18.525 18.525 1.575
-18.525 18.525 1.425
-18.525 18.525 1.125
-18.525 18.525 1.275
-19.725 19.575 3.225
-20.325 18.975 4.725
-20.325 18.375 0.825
-19.725 17.775 0.825
-19.725 17.775 1.125
-18.525 18.375 1.875
-18.525 18.375 1.425
-19.125 17.775 -1.425
-18.525 18.375 2.025
-18.525 18.375 3.225
-19.125 17.775 -0.525
-18.525 18.375 1.125
-18.675 19.275 1.125
-20.175 19.275 -0.525
-18.675 18.075 1.575
-18.825 19.425 1.425
-18.675 18.075 1.875
-18.825 19.425 3.225
-18.675 18.075 1.425
-18.825 19.425 1.575
-18.675 18.075 4.125
-18.675 18.075 1.275
-18.825 19.425 1.125
-20.325 18.225 0.825
-20.325 19.125 -0.525
-19.875 19.575 -0.525
-20.325 18.225 1.725
-18.975 19.575 1.575
-19.875 19.575 -1.125
-18.975 19.575 1.425
-18.525 18.225 4.425
-18.525 18.225 2.325
-18.525 18.225 1.575
-18.525 18.225 1.275
-19.875 17.775 0.825
-19.875 17.775 1.275
-20.475 18.675 -0.375
-20.475 18.675 1.425
-19.425 17.625 -0.375
-18.375 18.675 1.425
-20.475 18.675 1.275
-18.375 18.675 1.125
-18.675 19.425 3.225
-18.675 19.425 1.575
-18.675 19.425 1.275
-18.675 19.425 2.925
-18.675 17.925 0.825
-20.175 17.925 0.825
-18.375 18.825 0.975
-18.375 18.825 2.175
-19.575 17.625 2.475
-20.475 18.525 0.825
-19.275 19.725 2.925
-18.375 18.525 1.275
-18.375 18.525 1.575
-18.375 18.525 0.975
-18.375 18.525 2.325
-20.025 19.575 3.675
-18.825 19.575 1.275
-18.825 19.575 2.475
-20.325 18.075 0.225
-18.825 19.575 1.725
-18.825 19.575 1.875
-18.825 19.575 2.325
-20.025 17.775 0.825
-18.825 17.775 4.425
-18.525 18.075 2.025
-18.525 18.075 1.275
-19.725 17.625 0.825
-18.375 18.375 1.725
-19.125 19.725 1.575
-18.375 18.975 1.875
-18.375 18.975 1.575
-18.375 18.375 1.275
-20.475 18.975 -0.675
-18.375 18.375 1.875
-18.375 18.375 2.175
-18.375 18.225 1.725
-18.975 19.725 2.325
-18.975 17.625 3.225
-20.475 18.225 0.825
-18.375 18.225 1.875
-18.975 17.625 3.825
-18.375 18.225 2.025
-19.875 19.725 -0.675
-18.375 18.225 1.425
-20.475 18.225 -0.675
-18.375 18.225 2.175
-20.325 17.925 0.825
-18.675 19.575 2.625
-18.675 19.575 2.775
-20.325 19.425 -0.975
-20.175 19.575 -0.375
-18.675 19.575 1.725
-18.675 19.575 1.425
-18.675 19.575 1.125
-18.675 19.575 1.575
-20.325 17.925 -0.075
-20.325 19.425 3.975
-18.525 19.425 2.925
-18.525 17.925 1.875
-18.225 18.675 2.775
-20.625 18.675 0.825
-19.425 19.875 2.475
-18.225 18.675 0.975
-18.225 18.675 1.575
-19.575 19.875 1.875
-19.575 17.475 3.675
-19.575 17.475 1.275
-18.225 18.825 3.225
-20.625 18.825 0.825
-20.025 19.725 -0.675
-20.025 19.725 1.275
-19.275 17.475 -0.375
-18.225 18.525 1.575
-20.625 18.525 0.825
-19.275 19.875 2.025
-18.225 18.525 0.975
-18.225 18.525 1.875
-19.275 19.875 2.925
-20.025 17.625 0.225
-18.825 17.625 3.225
-18.825 19.725 1.125
-18.375 18.075 1.875
-18.825 19.725 2.625
-18.825 19.725 2.775
-18.375 18.075 2.025
-18.375 18.075 1.575
-18.375 18.075 2.175
-18.225 18.375 1.425
-18.225 18.375 2.775
-19.125 17.475 2.925
-18.225 18.375 -0.075
-20.625 18.975 2.325
-20.625 18.975 0.825
-19.725 17.475 1.575
-19.125 17.475 3.225
-20.625 18.375 0.075
-18.225 18.375 3.825
-19.725 17.475 1.425
-19.125 19.875 2.625
-20.625 18.375 -0.075
-18.225 18.375 0.975
-18.225 18.375 3.525
-20.325 19.575 4.125
-18.525 19.575 2.925
-18.525 19.575 2.625
-18.525 19.575 1.425
-18.525 19.575 1.575
-20.325 17.775 1.125
-18.525 19.575 1.125
-18.525 19.575 1.275
-18.225 18.225 1.725
-18.975 19.875 2.325
-18.975 19.875 2.175
-18.225 18.225 3.825
-18.975 17.475 3.225
-20.625 18.225 0.825
-20.625 18.225 3.375
-18.225 19.125 2.775
-18.975 19.875 1.875
-19.875 17.475 1.725
-18.975 19.875 2.475
-19.875 17.475 -0.075
-18.225 18.225 1.425
-18.675 19.725 2.925
-18.675 19.725 1.725
-18.675 19.725 1.425
-18.675 19.725 1.875
-20.175 19.725 2.625
-20.475 19.425 4.425
-20.475 17.925 0.075
-18.375 17.925 1.875
-18.375 17.925 2.025
-20.475 17.925 -0.075
-18.675 19.725 1.575
-20.025 17.475 3.075
-20.025 17.475 0.825
-18.225 19.275 2.925
-20.625 19.275 -0.525
-18.225 18.075 1.425
-18.225 18.075 1.875
-18.825 17.475 -0.525
-18.225 18.075 4.725
-18.825 19.875 1.125
-18.825 17.475 -0.675
-18.825 19.875 1.575
-18.825 19.875 2.325
-20.775 18.675 -0.075
-20.775 18.675 0.075
-20.775 18.675 0.825
-19.425 20.025 3.225
-19.425 20.025 1.275
-19.425 20.025 2.475
-19.425 17.325 1.275
-19.425 17.325 0.525
-18.075 18.675 1.575
-18.075 18.675 1.425
-18.075 18.675 1.125
-18.075 18.675 1.875
-19.425 17.325 0.825
-19.575 20.025 3.675
-19.575 20.025 1.275
-20.775 18.525 2.775
-19.275 20.025 2.025
-19.575 17.325 0.825
-19.575 17.325 -0.075
-18.075 18.825 1.575
-18.075 18.525 1.725
-18.075 18.525 1.425
-18.075 18.525 1.275
-19.125 20.025 2.325
-19.125 20.025 2.025
-20.775 18.975 0.825
-19.125 20.025 2.475
-19.725 20.025 1.425
-20.775 18.975 1.275
-20.775 18.975 0.525
-20.775 18.375 -0.225
-20.775 18.375 3.525
-20.325 19.725 1.575
-20.325 19.725 3.525
-20.325 19.725 -0.225
-20.325 17.625 0.975
-18.375 19.575 1.575
-20.475 19.575 4.425
-18.375 19.575 2.475
-18.375 19.575 1.275
-18.375 19.575 1.875
-18.375 19.575 2.175
-19.725 17.325 0.825
-19.125 17.325 -1.125
-18.075 18.975 1.725
-18.075 18.975 1.125
-18.075 18.375 3.225
-18.075 18.375 2.925
-19.725 17.325 -1.125
-18.075 18.375 0.975
-18.075 18.375 3.825
-18.075 18.375 1.875
-18.525 19.725 2.175
-18.525 17.625 5.025
-18.525 17.625 -1.275
-18.525 19.725 1.575
-18.525 19.725 2.925
-18.525 19.725 2.025
-18.675 17.475 -0.375
-18.225 17.925 1.875
-20.625 17.925 4.275
-18.675 17.475 -0.675
-18.675 19.875 2.325
-20.625 19.425 -0.225
-20.625 19.425 2.775
-20.175 19.875 3.675
-20.175 19.875 -0.375
-18.675 19.875 2.175
-18.675 19.875 1.875
-18.675 19.875 1.725
-18.675 19.875 1.125
-18.675 19.875 1.575
-20.775 18.225 0.975
-20.775 18.225 0.825
-18.975 20.025 2.175
-18.975 17.325 -0.375
-19.875 17.325 -0.075
-19.875 17.325 -0.225
-19.875 17.325 0.075
-19.875 17.325 0.825
-18.075 18.225 0.225
-18.075 18.225 3.825
-20.775 19.275 0.525
-18.825 20.025 0.675
-20.775 18.075 -0.375
-20.775 18.075 -0.975
-20.025 17.325 2.625
-20.025 17.325 0.675
-20.025 17.325 3.225
-18.825 17.325 -0.675
-18.825 17.325 3.075
-18.825 17.325 3.225
-18.825 17.325 -0.525
-18.075 18.075 2.175
-20.475 19.725 4.125
-20.475 19.725 -0.525
-20.475 17.625 -0.375
-18.375 19.725 1.275
-20.475 17.625 1.725
-18.375 19.725 1.425
-18.375 19.725 2.925
-18.375 19.725 1.875
-18.225 19.575 1.425
-20.625 19.575 1.575
-20.325 17.475 -0.975
-20.325 19.875 -0.525
-18.225 19.575 1.575
-18.225 19.575 2.325
-18.225 19.575 2.625
-20.325 17.475 0.825
-19.425 20.175 2.625
-19.425 17.175 1.425
-19.425 17.175 0.825
-19.425 17.175 -2.025
-17.925 18.675 3.675
-17.925 18.675 1.575
-20.925 18.675 0.825
-18.525 17.475 -0.525
-18.525 17.475 -0.225
-18.525 17.475 0.525
-18.225 17.775 5.175
-18.525 19.875 1.425
-18.225 17.775 3.225
-17.925 18.825 1.875
-17.925 18.825 0.975
-17.925 18.825 1.425
-17.925 18.825 2.025
-17.925 18.825 0.675
-20.925 18.825 -0.075
-19.575 20.175 2.475
-19.575 20.175 2.325
-19.575 20.175 2.775
-19.275 17.175 3.525
-17.925 18.525 2.925
-17.925 18.525 2.625
-20.925 18.525 -0.975
-19.125 20.175 1.875
-19.125 20.175 2.325
-17.925 18.975 1.725
-19.725 20.175 3.525
-17.925 18.975 2.025
-17.925 18.975 2.325
-17.925 18.975 1.875
-20.925 18.975 0.825
-20.925 18.975 1.425
-20.925 18.975 -0.375
-19.125 17.175 3.825
-19.725 17.175 0.075
-19.725 17.175 -1.275
-20.925 18.375 0.525
-19.125 20.175 2.175
-20.775 17.925 2.775
-20.775 19.425 4.725
-18.675 20.025 2.475
-20.175 20.025 -0.525
-20.175 20.025 3.225
-20.775 19.425 2.925
-18.075 19.425 2.475
-18.675 17.325 3.225
-20.175 17.325 0.975
-18.075 19.425 0.975
-18.075 19.425 1.125
-18.075 19.425 2.175
-18.075 19.425 0.675
-18.075 19.425 1.725
-18.075 19.425 2.925
-18.075 17.925 0.525
-20.925 18.225 0.825
-18.975 20.175 2.325
-17.925 19.125 2.175
-17.925 19.125 2.025
-19.875 20.175 3.675
-18.975 17.175 4.275
-18.975 17.175 2.925
-20.925 19.125 0.075
-17.925 19.125 1.725
-17.925 18.225 3.675
-19.875 17.175 -0.225
-20.925 18.225 -0.675
-20.625 19.725 -0.975
-18.225 19.725 1.725
-18.225 19.725 1.275
-18.225 19.725 2.475
-18.225 19.725 2.625
-18.375 19.875 1.425
-18.375 19.875 1.575
-18.375 19.875 1.725
-20.475 17.475 -0.525
-18.225 19.725 1.425
-20.025 17.175 0.525
-17.925 19.275 1.425
-17.925 19.275 2.175
-20.925 19.275 0.825
-20.925 19.275 4.275
-18.825 17.175 -0.825
-18.825 17.175 -0.375
-18.825 20.175 1.575
-20.775 19.575 0.225
-20.325 20.025 3.375
-20.325 20.025 4.275
-20.325 20.025 1.125
-18.525 20.025 1.425
-18.525 20.025 1.125
-18.075 19.575 1.425
-18.075 19.575 2.625
-18.075 19.575 1.875
-20.325 17.325 2.175
-18.525 17.325 -0.225
-18.075 17.775 4.425
-18.525 17.325 -0.525
-18.525 17.325 -0.375
-21.075 18.675 0.075
-21.075 18.675 -0.675
-19.425 20.325 1.575
-19.425 20.325 3.225
-19.425 17.025 0.825
-17.775 18.675 0.975
-17.775 18.675 1.275
-19.425 17.025 -0.075
-19.425 17.025 -0.375
-21.075 18.825 4.575
-19.575 20.325 2.325
-21.075 18.525 0.375
-19.275 20.325 1.725
-19.575 17.025 -0.225
-19.575 17.025 -0.675
-19.575 17.025 0.825
-17.775 18.525 3.225
-19.275 17.025 1.275
-19.275 17.025 1.425
-19.275 17.025 0.525
-19.275 17.025 0.825
-19.125 20.325 2.775
-19.125 20.325 2.175
-21.075 18.975 -0.075
-21.075 18.975 -0.525
-21.075 18.975 0.825
-19.725 20.325 2.475
-18.675 20.175 1.725
-20.925 17.925 -0.525
-20.175 17.175 2.025
-17.925 19.425 2.475
-17.925 19.425 3.375
-20.925 19.425 2.775
-18.675 17.175 -1.125
-18.675 17.175 0.375
-18.675 17.175 -0.675
-18.675 17.175 3.075
-18.675 20.175 1.125
-17.775 18.375 3.225
-17.775 18.375 3.675
-19.725 17.025 -0.075
-19.725 17.025 2.025
-19.725 17.025 -0.375
-19.725 17.025 0.825
-17.775 18.975 1.875
-17.775 18.975 1.725
-19.125 17.025 3.075
-19.125 17.025 0.825
-19.125 17.025 -1.125
-18.225 19.875 0.975
-20.625 19.875 -0.225
-20.625 19.875 2.625
-18.975 20.325 1.875
-19.875 20.325 2.925
-21.075 19.125 0.075
-21.075 19.125 -0.075
-21.075 19.125 0.825
-20.775 19.725 -0.375
-18.375 20.025 2.625
-18.375 20.025 2.475
-18.375 20.025 0.825
-20.475 20.025 3.375
-18.375 20.025 1.425
-18.075 19.725 2.475
-18.075 19.725 -0.825
-18.075 19.725 1.875
-18.075 19.725 2.175
-18.075 17.625 4.575
-18.075 17.625 4.425
-17.775 19.125 3.375
-17.775 19.125 1.875
-17.775 19.125 1.275
-18.975 17.025 0.525
-18.975 17.025 -0.225
-18.975 17.025 -0.975
-20.925 19.575 3.825
-17.925 19.575 0.825
-20.325 20.175 -0.675
-17.925 19.575 2.475
-17.925 19.575 1.575
-20.325 20.175 3.075
-20.325 17.175 1.275
-20.325 17.175 1.875
-20.925 17.775 2.325
-18.525 20.175 1.575
-18.525 17.175 2.775
-18.525 17.175 2.625
-21.075 19.275 0.825
-21.075 19.275 0.225
-21.075 19.275 1.275
-21.075 19.275 1.425
-21.075 19.275 0.525
-18.825 20.325 1.875
-21.075 18.075 2.175
-21.075 18.075 2.775
-21.075 18.075 3.075
-17.775 19.275 1.725
-20.025 17.025 2.325
-18.825 17.025 0.525
-19.425 20.475 2.175
-19.425 20.475 1.875
-21.225 18.675 2.625
-21.225 18.675 0.825
-21.225 18.675 0.975
-21.225 18.675 0.375
-21.225 18.675 1.125
-19.425 16.875 0.525
-19.425 16.875 0.825
-18.225 20.025 1.275
-20.625 20.025 2.625
-20.625 20.025 3.825
-20.625 20.025 4.125
-18.225 20.025 2.025
-20.775 17.475 -0.675
-20.775 17.475 -0.525
-17.625 18.825 1.125
-18.075 19.875 1.575
-21.225 18.825 -0.525
-21.225 18.825 -0.675
-21.225 18.825 6.075
-21.225 18.825 1.125
-21.225 18.825 0.525
-18.075 19.875 2.325
-18.075 17.475 3.525
-19.575 16.875 0.825
-18.225 17.325 5.175
-20.625 17.325 2.175
-19.575 16.875 -0.225
-19.575 16.875 3.375
-19.575 16.875 -0.075
-19.575 16.875 0.075
-21.225 18.525 0.375
-19.275 20.475 2.025
-19.275 20.475 1.425
-19.275 20.475 1.575
-19.275 20.475 2.325
-19.275 20.475 1.275
-21.225 18.525 2.475
-19.275 16.875 0.825
-19.275 20.475 1.725
-21.075 19.425 0.825
-20.175 20.325 2.925
-21.075 19.425 4.425
-17.775 19.425 3.075
-19.125 20.475 1.875
-19.725 20.475 3.675
-19.125 20.475 1.575
-17.625 18.975 2.325
-19.725 20.475 2.325
-19.725 20.475 1.875
-19.725 20.475 2.475
-21.225 18.975 0.975
-17.625 18.375 3.525
-19.125 16.875 0.825
-19.125 16.875 -0.825
-19.125 16.875 1.275
-17.625 18.375 3.675
-19.725 16.875 -1.725
-21.225 18.375 3.975
-21.225 18.375 2.625
-19.725 16.875 -0.075
-17.925 19.725 1.875
-18.375 20.175 1.875
-20.925 17.625 -0.975
-20.925 19.725 3.825
-20.475 20.175 3.375
-20.475 17.175 -0.225
-20.925 17.625 5.025
-20.475 17.175 0.225
-19.875 20.475 2.175
-19.875 20.475 2.625
-18.975 20.475 0.825
-19.875 20.475 1.875
-19.875 20.475 2.475
-17.625 18.225 3.075
-21.225 19.125 0.225
-21.225 18.225 5.625
-21.225 18.225 2.175
-18.975 16.875 0.525
-18.975 16.875 1.275
-18.975 16.875 0.825
-18.975 16.875 0.075
-21.075 19.575 -0.075
-18.525 20.325 1.575
-21.075 17.775 3.375
-18.525 20.325 2.025
-18.525 17.025 1.575
-21.225 19.275 -1.725
-21.225 19.275 0.375
-21.225 19.275 0.225
-20.025 20.475 3.975
-20.025 20.475 3.225
-21.225 19.275 0.825
-20.025 16.875 -0.675
-18.825 20.475 1.425
-18.825 16.875 0.825
-18.825 16.875 0.975
-18.825 16.875 0.525
-17.625 18.075 3.375
-17.625 18.075 6.675
-18.825 16.875 -1.125
-21.225 18.075 -1.125
-21.225 18.075 3.075
-20.775 20.025 2.175
-17.925 19.875 4.425
-17.925 19.875 2.325
-17.925 19.875 0.825
-20.625 20.175 -0.825
-20.925 17.475 -0.825
-18.225 20.175 2.025
-17.475 18.675 3.375
-21.375 18.675 0.525
-19.425 20.625 2.175
-19.425 20.625 2.025
-19.425 16.725 0.825
-21.375 18.675 -0.825
-18.675 16.875 4.275
-18.675 16.875 0.525
-18.675 20.475 2.475
-20.175 20.475 4.725
-20.175 16.875 2.025
-21.225 19.425 1.275
-21.375 18.825 0.525
-17.475 18.825 1.725
-18.375 20.325 1.875
-19.575 20.625 2.175
-19.575 20.625 1.875
-19.575 16.725 -0.075
-19.575 16.725 2.775
-18.375 20.325 2.025
-21.375 18.825 3.675
-21.075 17.625 -0.825
-21.075 17.625 0.075
-21.075 19.725 3.675
-21.075 17.625 -0.975
-20.475 20.325 2.475
-17.475 18.525 3.375
-19.275 20.625 2.175
-19.275 16.725 -0.225
-21.375 18.525 -0.525
-21.375 18.525 2.325
-21.375 18.525 5.175
-19.275 20.625 1.875
-17.475 18.525 3.075
-18.375 17.025 -0.675
-20.475 17.025 -1.425
-17.475 18.375 0.525
-19.125 16.725 -0.075
-19.125 20.625 1.275
-19.125 20.625 1.425
-21.375 18.375 3.825
-21.375 18.375 3.525
-19.725 20.625 1.875
-21.375 18.975 0.825
-19.725 20.625 2.175
-19.725 20.625 2.475
-19.125 16.725 -0.675
-17.475 18.375 3.225
-19.125 16.725 0.825
-19.725 16.725 5.175
-18.975 16.725 1.425
-18.975 16.725 3.825
-18.975 16.725 0.825
-19.875 20.625 1.725
-19.875 20.625 2.475
-21.375 18.225 2.625
-18.975 20.625 2.625
-19.875 20.625 1.875
-17.475 19.125 3.225
-17.475 19.125 1.725
-19.875 16.725 -0.375
-17.475 18.225 3.525
-17.475 18.225 3.375
-17.625 19.575 1.725
-21.225 19.575 0.825
-21.225 19.575 0.525
-21.225 19.575 1.425
-17.625 19.575 1.875
-17.625 19.575 3.525
-18.525 16.875 0.525
-18.525 20.475 1.425
-18.525 20.475 2.025
-20.775 20.175 -0.375
-17.925 20.025 1.725
-20.925 20.025 -0.525
-20.925 17.325 -0.375
-20.625 20.325 -0.375
-20.625 20.325 4.725
-18.225 20.325 1.425
-18.225 20.325 1.275
-21.075 19.875 0.525
-21.075 19.875 -0.075
-21.075 17.475 -0.075
-21.375 19.275 0.075
-21.375 19.275 0.825
-21.375 19.275 -0.225
-17.475 19.275 1.575
-21.375 19.275 -0.075
-21.375 19.275 -0.375
-20.025 20.625 4.275
-20.025 20.625 2.925
-21.375 18.075 2.925
-18.825 16.725 -0.975
-18.825 20.625 0.825
-18.825 20.625 0.975
-21.375 18.075 2.775
-18.825 16.725 0.525
-18.825 16.725 -0.225
-18.825 20.625 1.425
-17.475 18.075 3.525
-17.775 19.875 1.125
-17.775 17.475 3.375
-17.775 17.475 3.525
-18.225 17.025 3.075
-20.625 17.025 3.225
-17.625 19.725 1.425
-17.625 19.725 1.725
-18.375 16.875 3.225
-18.375 20.475 1.725
-18.375 20.475 0.975
-18.375 16.875 0.525
-18.375 16.875 -0.225
-18.375 16.875 -1.575
-21.375 19.425 0.825
-21.375 19.425 -0.375
-21.375 19.425 -0.675
-18.675 16.725 3.525
-21.375 17.925 -1.125
-18.675 16.725 0.975
-17.475 19.425 1.575
-21.375 19.425 0.525
-20.175 16.725 -0.525
-20.175 20.625 2.625
-20.175 20.625 2.925
-17.475 17.925 4.575
-17.475 17.925 4.275
-21.375 19.425 0.075
-21.525 18.675 3.375
-19.425 20.775 1.425
-19.425 20.775 1.725
-19.425 20.775 1.875
-21.525 18.825 0.225
-21.525 18.825 -0.675
-21.525 18.825 -0.825
-21.525 18.825 -0.375
-19.575 20.775 1.275
-19.575 20.775 1.725
-19.575 20.775 1.875
-21.525 18.525 1.875
-19.275 20.775 1.875
-19.275 20.775 1.425
-19.275 20.775 2.025
-19.575 16.575 3.675
-19.575 16.575 0.075
-17.325 18.525 2.925
-17.325 18.525 3.225
-17.325 18.525 5.325
-19.275 16.575 -0.075
-19.275 16.575 0.825
-21.525 18.375 3.225
-21.525 18.375 -0.675
-19.725 20.775 2.025
-21.525 18.975 2.475
-21.525 18.975 2.775
-19.125 20.775 2.775
-19.125 20.775 1.425
-19.125 20.775 1.125
-17.925 20.175 1.725
-20.925 20.175 -0.075
-17.925 17.175 0.075
-17.325 18.375 3.375
-17.325 18.375 2.925
-19.125 16.575 0.825
-19.725 16.575 -0.675
-18.075 20.325 0.675
-18.075 20.325 2.175
-17.775 20.025 1.725
-20.775 17.025 2.475
-19.875 20.775 2.025
-21.525 18.225 3.225
-21.525 18.225 -0.675
-21.525 18.225 2.625
-21.525 19.125 -0.075
-18.975 20.775 1.425
-21.375 19.575 1.425
-21.375 19.575 -0.975
-21.375 19.575 -0.525
-20.325 20.625 2.325
-20.325 20.625 4.125
-21.375 19.575 5.625
-18.525 16.725 0.075
-21.375 17.775 -0.675
-18.525 16.725 1.275
-18.525 20.625 2.475
-18.975 16.575 -0.525
-18.975 16.575 0.825
-18.975 16.575 -0.375
-18.975 16.575 1.275
-19.875 16.575 -0.375
-19.875 16.575 -0.525
-21.225 17.475 2.925
-21.225 19.875 3.675
-18.225 16.875 2.925
-21.525 19.275 -0.225
-21.525 19.275 0.825
-21.525 19.275 -0.675
-20.025 20.775 2.175
-20.025 20.775 1.575
-20.025 20.775 2.325
-20.025 20.775 2.025
-18.825 20.775 1.125
-17.325 19.275 1.875
-20.025 16.575 -0.525
-20.025 16.575 -0.075
-18.825 16.575 1.875
-18.825 16.575 1.275
-18.825 16.575 0.675
-18.825 16.575 0.825
-18.825 16.575 3.675
-18.825 16.575 2.175
-17.325 18.075 4.125
-17.325 18.075 3.075
-18.375 16.725 -0.075
-20.475 16.725 0.075
-20.475 16.725 0.375
-20.475 16.725 3.375
-20.475 16.725 3.675
-21.375 19.725 0.825
-17.475 19.725 1.425
-20.475 20.625 0.375
-21.375 19.725 4.575
-21.375 19.725 -0.675
-21.375 17.625 -0.675
-21.375 17.625 -0.825
-18.375 16.725 3.225
-18.375 16.725 1.125
-18.375 16.725 3.675
-21.525 19.425 0.975
-20.175 20.775 1.875
-20.175 20.775 2.475
-20.175 20.775 2.025
-17.925 20.325 2.175
-20.925 20.325 3.375
-21.075 17.175 -0.225
-21.075 17.175 3.375
-21.075 20.175 3.075
-17.325 19.425 1.875
-17.325 19.425 1.575
-17.325 17.925 3.975
-20.175 16.575 3.525
-18.675 16.575 -0.225
-18.675 16.575 -1.275
-18.675 16.575 0.825
-18.675 16.575 3.525
-18.675 16.575 3.675
-18.675 16.575 0.075
-17.775 20.175 1.725
-20.775 16.875 3.525
-20.775 20.475 -1.125
-20.775 20.475 3.075
-21.225 20.025 0.075
-19.425 16.425 3.225
-17.175 18.675 3.225
-19.425 20.925 2.025
-19.425 20.925 1.725
-19.425 20.925 1.575
-21.675 18.675 -0.225
-21.675 18.675 0.075
-18.075 16.875 2.775
-18.075 16.875 0.225
-18.075 16.875 0.525
-18.075 16.875 3.525
-18.075 16.875 0.375
-18.075 16.875 3.225
-19.575 16.425 4.275
-19.575 16.425 -0.225
-17.175 18.825 2.625
-17.175 18.825 2.475
-19.575 20.925 1.425
-19.575 20.925 2.025
-21.675 18.825 -0.225
-17.175 18.525 3.675
-17.175 18.525 3.225
-17.175 18.525 3.075
-19.125 16.425 -0.375
-19.125 16.425 0.075
-19.125 20.925 1.425
-19.725 20.925 2.175
-19.725 20.925 1.875
-19.725 20.925 1.725
-17.175 18.375 3.075
-17.175 18.375 0.975
-21.675 18.375 -0.075
-19.725 16.425 1.575
-21.525 19.575 0.825
-20.325 20.775 2.925
-21.525 19.575 0.525
-17.325 19.575 2.025
-18.525 16.575 -0.075
-18.525 16.575 3.975
-20.625 16.725 4.575
-17.475 19.875 1.125
-18.225 16.725 2.925
-21.375 19.875 1.275
-18.225 16.725 3.975
-21.375 19.875 -0.675
-18.225 16.725 3.375
-21.375 19.875 2.775
-21.375 19.875 0.825
-21.375 19.875 0.225
-21.375 19.875 0.375
-21.375 19.875 0.525
-18.225 20.625 1.425
-18.225 16.725 2.625
-21.375 17.475 3.675
-17.175 18.225 3.375
-19.875 20.925 1.875
-19.875 20.925 1.275
-19.875 20.925 1.425
-18.975 20.925 1.425
-17.175 19.125 3.225
-21.675 18.225 -0.525
-21.675 19.125 -0.075
-18.975 16.425 -1.875
-19.875 16.425 -0.825
-20.025 20.925 2.175
-20.025 20.925 2.025
-20.025 20.925 1.875
-17.175 19.275 1.425
-18.825 16.425 1.425
-18.825 16.425 -0.375
-18.825 16.425 1.575
-18.825 16.425 -0.525
-18.825 16.425 1.875
-18.825 16.425 -0.825
-17.175 18.075 3.675
-17.175 18.075 3.375
-18.825 16.425 0.825
-21.075 20.325 2.325
-21.075 17.025 3.075
-17.925 16.875 0.375
-21.225 20.175 2.925
-21.225 20.175 -0.225
-20.475 20.775 3.075
-21.525 19.725 0.225
-17.325 19.725 1.125
-18.375 16.575 3.825
-18.375 16.575 0.375
-20.475 16.575 -0.225
-20.475 16.575 0.075
-20.775 16.725 2.025
-20.775 20.625 3.225
-21.375 20.025 2.925
-21.375 20.025 0.075
-18.675 20.925 2.025
-18.675 20.925 0.525
-17.175 17.925 4.125
-20.175 20.925 2.325
-20.175 20.925 1.875
-20.175 20.925 2.475
-20.175 20.925 2.025
-20.175 20.925 2.175
-17.175 19.425 2.475
-21.675 19.425 2.625
-21.675 19.425 4.875
-18.675 16.425 0.375
-18.675 16.425 -0.975
-18.675 16.425 3.525
-18.675 16.425 1.725
-18.075 16.725 -0.225
-18.075 16.725 3.075
-21.375 17.325 3.825
-19.425 21.075 3.225
-21.825 18.675 -0.375
-19.575 21.075 3.225
-21.825 18.825 -0.225
-21.825 18.525 -1.575
-21.825 18.525 2.025
-17.025 18.525 3.075
-17.025 18.525 3.225
-17.025 18.525 2.775
-21.525 19.875 0.825
-21.525 19.875 1.425
-21.525 19.875 1.275
-21.525 19.875 -0.225
-18.225 20.775 1.425
-21.525 17.475 3.225
-21.525 17.475 2.775
-21.525 17.475 -0.825
-21.825 18.975 2.775
-21.825 18.975 -0.525
-17.325 17.475 4.275
-18.225 16.575 -0.075
-18.225 16.575 3.075
-20.625 16.575 3.825
-18.225 16.575 3.225
-20.625 16.575 1.725
-20.625 16.575 3.675
-19.125 16.275 0.975
-19.125 16.275 -0.375
-19.125 16.275 4.725
-19.125 16.275 -0.075
-19.725 16.275 0.975
-19.725 16.275 0.525
-19.725 16.275 -0.525
-20.325 20.925 1.875
-20.325 16.425 -0.225
-21.675 19.575 0.825
-21.675 19.575 0.975
-21.675 19.575 0.075
-17.175 19.575 1.125
-18.525 16.425 2.475
-18.525 16.425 2.925
-18.525 16.425 -0.075
-18.525 16.425 3.675
-18.525 16.425 2.625
-18.525 20.925 5.025
-18.525 20.925 -0.675
-19.875 21.075 1.725
-21.825 19.125 2.175
-21.075 16.875 2.475
-21.075 20.475 2.175
-21.225 20.325 -0.075
-21.225 17.025 2.775
-18.975 16.275 0.825
-17.025 18.225 3.375
-17.025 19.125 2.175
-17.925 16.725 3.225
-17.925 16.725 -0.225
-21.375 20.175 -0.525
-21.375 20.175 0.225
-21.375 20.175 0.075
-17.925 16.725 2.925
-21.375 17.175 2.925
-21.375 17.175 4.125
-21.375 17.175 3.675
-17.475 20.175 1.125
-20.925 16.725 3.525
-17.475 17.175 3.225
-17.475 17.175 2.925
-20.025 21.075 1.725
-21.825 19.275 -0.675
-21.825 19.275 0.075
-18.825 21.075 2.175
-21.825 18.075 0.225
-18.825 16.275 0.825
-18.825 16.275 -0.225
-17.025 18.075 3.675
-17.175 19.725 1.125
-17.175 19.725 1.725
-17.175 19.725 2.025
-21.675 19.725 0.825
-21.675 19.725 0.375
-18.375 16.425 3.225
-18.375 16.425 3.525
-18.375 16.425 -0.225
-18.375 16.425 -0.075
-18.375 16.425 1.575
-18.375 16.425 1.875
-20.475 16.425 3.675
-20.475 16.425 3.375
-20.775 20.775 -1.125
-21.525 20.025 1.425
-21.525 20.025 1.875
-21.525 17.325 3.225
-20.775 16.575 3.525
-20.775 16.575 3.675
-20.175 21.075 2.175
-20.175 21.075 1.875
-20.175 21.075 1.725
-20.175 21.075 2.025
-20.175 21.075 -0.825
-21.825 19.425 -1.125
-21.825 19.425 -0.225
-21.825 17.925 4.275
-21.825 17.925 3.675
-18.675 16.275 0.825
-18.675 16.275 1.425
-18.675 16.275 -0.075
-17.025 17.925 3.675
-20.175 16.275 4.425
-21.225 16.875 3.225
-21.225 16.875 3.675
-21.225 20.475 -1.725
-21.225 20.475 3.675
-20.625 20.925 1.125
-20.625 20.925 3.075
-21.675 19.875 0.375
-21.675 19.875 -0.075
-21.675 19.875 0.825
-18.225 16.425 2.775
-18.225 16.425 -0.675
-20.625 16.425 3.675
-20.625 16.425 3.075
-20.625 16.425 0.225
-20.625 16.425 1.575
-18.225 20.925 1.875
-19.425 21.225 0.675
-21.975 18.675 3.375
-21.375 20.325 -0.675
-21.375 20.325 -1.875
-21.075 20.625 -0.525
-17.775 16.725 -0.975
-17.775 16.725 -0.525
-17.775 16.725 -0.075
-21.375 17.025 -0.525
-21.375 17.025 3.525
-21.375 17.025 3.225
-19.575 16.125 3.375
-16.875 18.525 2.625
-16.875 18.525 3.225
-20.325 21.075 1.725
-20.325 21.075 1.875
-20.325 21.075 2.325
-20.325 21.075 2.775
-21.825 19.575 5.625
-21.825 19.575 -0.075
-21.825 19.575 0.975
-20.325 16.275 3.675
-18.525 16.275 -0.525
-18.525 16.275 0.525
-18.525 16.275 0.825
-18.525 16.275 1.275
-17.025 17.775 4.425
-16.875 18.975 3.225
-16.875 18.375 3.525
-19.125 16.125 3.525
-19.725 21.225 -0.975
-19.725 16.125 0.525
-19.725 16.125 1.275
-21.975 18.375 2.925
-21.975 18.375 2.625
-21.975 18.375 2.175
-21.975 18.975 2.775
-20.925 20.775 -0.975
-21.525 20.175 2.625
-21.525 17.175 3.225
-21.525 17.175 3.075
-21.525 17.175 2.775
-21.525 17.175 -0.225
-21.525 17.175 3.375
-17.925 16.575 2.775
-21.975 18.225 -0.675
-18.975 16.125 3.825
-16.875 18.225 3.675
-19.875 21.225 1.725
-19.875 16.125 4.125
-19.875 16.125 -1.125
-21.975 19.125 3.975
-20.475 21.075 2.775
-18.375 21.075 1.125
-21.975 19.275 -0.975
-21.975 19.275 -0.075
-20.025 21.225 1.275
-20.025 21.225 1.425
-20.025 16.125 4.425
-20.025 16.125 2.475
-20.025 16.125 4.125
-20.025 16.125 4.725
-18.825 21.225 1.875
-18.825 16.125 -0.375
-18.825 16.125 0.075
-16.875 18.075 3.825
-17.025 19.725 1.725
-17.025 19.725 1.575
-18.375 16.275 -0.075
-20.475 16.275 5.325
-20.475 16.275 3.675
-21.675 20.025 0.525
-21.675 20.025 -0.375
-17.175 20.025 1.275
-20.775 20.925 0.975
-20.775 20.925 3.225
-20.775 16.425 2.925
-20.775 16.425 3.975
-20.775 16.425 3.825
-20.775 16.425 2.775
-18.075 16.425 3.375
-18.075 16.425 3.225
-21.675 17.325 2.475
-21.675 17.325 3.225
-17.625 16.725 -0.375
-17.625 16.725 0.075
-21.375 16.875 3.375
-21.375 16.875 2.475
-21.375 16.875 2.925
-21.375 16.875 2.775
-21.225 16.725 3.225
-16.875 19.425 2.325
-16.875 19.425 2.175
-20.175 21.225 1.425
-20.175 21.225 2.025
-20.175 21.225 1.875
-20.175 21.225 2.475
-21.975 19.425 0.825
-18.675 16.125 4.275
-18.675 16.125 0.075
-20.175 16.125 3.675
-20.175 16.125 4.575
-20.175 16.125 2.475
-21.075 20.775 3.975
-21.525 20.325 0.825
-21.525 20.325 0.525
-21.525 20.325 -2.025
-21.525 17.025 3.675
-17.775 16.575 -0.225
-17.775 16.575 3.675
-17.775 16.575 2.925
-17.325 17.025 4.425
-18.225 21.075 1.275
-18.225 21.075 -2.775
-18.225 21.075 1.425
-21.825 19.875 0.825
-21.825 19.875 0.975
-21.825 17.475 2.325
-18.225 16.275 -0.525
-18.225 16.275 -0.225
-18.225 16.275 3.075
-18.225 16.275 -0.675
-18.225 16.275 -0.825
-20.625 16.275 2.775
-20.625 16.275 3.225
-20.625 16.275 2.925
-19.575 21.375 0.825
-19.575 21.375 3.225
-22.125 18.825 1.725
-21.675 20.175 0.825
-17.175 20.175 1.725
-17.925 16.425 3.075
-17.925 16.425 -0.225
-17.925 16.425 -0.675
-17.925 16.425 -0.375
-20.925 16.425 -0.075
-21.675 17.175 3.225
-21.675 17.175 2.775
-20.325 21.225 2.175
-20.325 21.225 2.025
-20.325 21.225 1.875
-20.325 16.125 3.825
-20.325 16.125 3.975
-19.275 15.975 -1.275
-19.275 15.975 4.275
-18.525 16.125 0.975
-18.525 16.125 1.575
-18.525 16.125 0.075
-18.525 16.125 -0.075
-18.525 16.125 -3.225
-18.525 16.125 1.725
-16.875 17.775 3.525
-16.725 18.375 3.225
-19.725 15.975 1.875
-19.125 15.975 3.675
-16.725 18.225 2.775
-16.725 18.225 2.625
-19.875 21.375 3.225
-19.875 21.375 1.275
-16.725 18.225 3.375
-22.125 18.225 -0.675
-19.875 21.375 2.175
-18.975 15.975 -0.225
-18.975 15.975 -0.075
-19.875 15.975 4.575
-19.875 15.975 4.875
-19.875 15.975 4.725
-20.775 21.075 2.475
-21.825 20.025 1.275
-21.825 20.025 0.375
-21.825 20.025 0.075
-21.825 20.025 -0.075
-21.825 20.025 -0.525
-21.825 17.325 2.475
-18.075 16.275 1.575
-18.075 16.275 -0.525
-18.075 16.275 3.075
-21.975 19.725 0.375
-21.975 19.725 -1.575
-20.475 21.225 1.725
-20.475 21.225 2.025
-16.875 19.725 1.725
-18.375 21.225 1.275
-18.375 16.125 -0.375
-20.475 16.125 2.025
-20.475 16.125 3.375
-20.475 16.125 -0.375
-21.225 20.775 -0.675
-21.225 20.775 -0.825
-21.225 20.775 3.225
-21.525 20.475 -0.675
-21.525 20.475 0.075
-21.525 20.475 0.375
-21.525 20.475 0.525
-20.025 21.375 1.425
-16.725 19.275 2.625
-22.125 19.275 3.375
-22.125 19.275 -0.675
-16.725 18.075 2.925
-22.125 18.075 3.525
-18.825 21.375 1.425
-20.025 15.975 -1.275
-18.825 15.975 -0.075
-21.675 20.325 1.275
-21.675 20.325 0.825
-21.675 20.325 1.125
-21.675 17.025 3.075
-17.775 16.425 2.775
-17.775 16.425 2.925
-17.775 16.425 -0.525
-20.175 21.375 0.975
-20.175 21.375 0.375
-20.175 21.375 2.025
-16.725 17.925 3.675
-20.175 15.975 4.725
-21.975 19.875 -0.075
-21.975 19.875 -0.225
-20.625 21.225 1.875
-18.225 16.125 3.675
-18.225 16.125 3.525
-18.225 16.125 1.875
-18.225 16.125 -0.675
-20.625 16.125 3.525
-20.625 16.125 3.375
-21.975 17.475 1.425
-21.825 20.175 -0.975
-17.925 16.275 3.825
-17.925 16.275 3.225
-17.925 16.275 3.075
-20.325 21.375 2.025
-20.325 21.375 1.875
-20.325 21.375 1.725
-20.325 21.375 2.175
-22.125 19.575 -1.275
-22.125 19.575 -0.225
-20.325 21.375 1.575
-16.725 17.775 4.275
-18.525 21.375 0.375
-20.325 15.975 5.625
-18.525 15.975 4.275
-18.525 15.975 1.425
-22.275 18.675 -1.875
-16.575 18.675 1.875
-19.425 15.825 0.825
-19.425 15.825 -0.075
-19.425 15.825 0.525
-19.425 15.825 3.975
-19.425 15.825 -0.225
-22.275 18.825 -0.675
-22.275 18.825 1.575
-19.575 15.825 1.125
-19.575 15.825 1.575
-19.275 15.825 3.975
-19.275 15.825 4.125
-19.275 15.825 1.575
-19.275 15.825 -0.225
-19.725 21.525 2.925
-19.725 21.525 1.875
-21.525 20.625 0.225
-22.275 18.375 2.475
-21.525 16.725 1.125
-17.475 16.575 -0.825
-17.475 16.575 -0.225
-17.475 16.575 -0.675
-17.325 16.725 3.825
-17.325 16.725 -0.075
-19.125 15.825 -0.975
-19.125 15.825 -1.125
-19.125 15.825 0.075
-19.725 15.825 1.575
-19.725 15.825 2.775
-16.575 18.375 2.925
-16.575 18.375 2.625
-16.575 18.375 2.475
-16.575 18.375 2.025
-17.625 16.425 3.225
-21.675 16.875 3.525
-21.225 20.925 2.625
-21.225 20.925 -0.675
-21.675 20.475 0.375
-21.675 20.475 0.675
-21.675 20.475 0.225
-17.625 20.925 1.725
-19.875 21.525 3.525
-22.275 19.125 2.025
-21.975 20.025 0.825
-21.975 20.025 -0.075
-21.975 20.025 2.025
-20.775 21.225 2.175
-20.775 21.225 2.775
-20.775 21.225 2.625
-16.575 18.225 2.625
-19.875 15.825 5.475
-19.875 15.825 -0.225
-19.875 15.825 1.575
-18.975 15.825 -0.375
-18.075 16.125 2.325
-18.075 16.125 3.975
-18.075 16.125 -0.375
-21.975 17.325 3.975
-20.475 21.375 2.775
-20.475 21.375 1.575
-22.125 19.725 -3.375
-22.125 19.725 4.425
-22.125 19.725 -0.675
-22.125 19.725 -1.275
-18.375 21.375 0.525
-18.375 15.975 1.425
-18.375 15.975 0.525
-18.375 15.975 3.975
-20.475 15.975 2.325
-20.475 15.975 3.525
-20.025 21.525 1.275
-22.275 19.275 3.375
-21.075 21.075 -0.825
-21.075 21.075 1.875
-21.075 21.075 3.375
-21.825 20.325 0.825
-18.825 15.825 0.975
-17.775 16.275 -0.975
-17.775 16.275 3.525
-20.175 21.525 0.675
-22.275 19.425 2.325
-18.675 15.825 0.225
-18.675 15.825 -1.875
-18.675 15.825 0.975
-20.625 21.375 2.325
-20.625 21.375 1.275
-20.625 21.375 1.875
-18.225 21.375 1.425
-22.125 19.875 -0.225
-22.125 19.875 -0.075
-18.225 15.975 -0.225
-18.225 15.975 -0.375
-18.225 15.975 1.125
-18.225 15.975 2.025
-17.925 16.125 3.075
-21.975 20.175 0.825
-21.975 20.175 3.375
-20.925 21.225 4.275
-21.375 20.925 0.225
-17.475 16.425 -0.375
-21.675 16.725 3.675
-17.175 16.725 3.975
-20.325 21.525 1.575
-20.325 21.525 1.425
-20.325 21.525 1.875
-22.275 19.575 0.525
-16.575 19.575 0.975
-16.575 19.575 -1.125
-20.325 15.825 2.325
-20.325 15.825 3.975
-18.525 15.825 0.825
-18.525 15.825 -0.225
-18.525 15.825 4.125
-21.825 20.475 0.825
-21.825 20.475 1.125
-21.825 20.475 0.675
-21.825 20.475 1.425
-21.225 21.075 0.225
-21.825 16.875 3.225
-21.825 16.875 3.675
-16.425 18.675 2.775
-19.425 15.675 4.125
-19.425 15.675 3.825
-19.425 15.675 0.225
-19.425 15.675 3.675
-17.625 16.275 2.925
-17.625 16.275 2.625
-17.625 16.275 -0.225
-19.575 15.675 3.825
-19.575 15.675 3.375
-16.425 18.525 2.325
-19.275 15.675 -0.075
-19.275 21.675 1.275
-16.425 18.375 2.925
-19.125 15.675 3.525
-19.125 15.675 -0.375
-19.125 15.675 -0.225
-19.125 15.675 3.675
-22.425 18.375 2.325
-19.125 21.675 0.825
-20.775 21.375 2.325
-20.775 21.375 2.475
-20.775 21.375 -0.825
-20.775 21.375 -0.525
-20.775 21.375 2.175
-20.775 15.975 3.225
-22.125 17.325 1.575
-18.075 15.975 3.675
-18.075 15.975 0.375
-18.075 15.975 -1.575
-18.075 15.975 3.975
-18.975 15.675 -0.075
-16.425 19.125 2.625
-19.875 15.675 -0.225
-16.425 18.225 3.375
-22.425 19.125 -0.675
-20.475 21.525 1.125
-20.475 21.525 1.575
-22.275 19.725 4.425
-22.275 17.625 3.375
-22.275 17.625 3.075
-21.075 21.225 2.325
-21.075 21.225 2.025
-21.975 20.325 0.825
-18.375 15.825 4.125
-18.375 15.825 0.075
-18.375 15.825 1.275
-18.375 15.825 -0.825
-18.375 15.825 0.825
-20.475 15.825 3.675
-21.975 17.025 3.975
-17.775 16.125 3.375
-20.025 21.675 0.825
-20.025 21.675 1.725
-20.025 15.675 -0.825
-20.025 15.675 2.775
-20.025 15.675 2.475
-20.025 15.675 3.375
-20.025 15.675 0.225
-18.825 15.675 0.075
-18.825 15.675 0.375
-18.825 15.675 0.825
-18.825 15.675 -0.075
-22.425 18.075 3.075
-17.325 16.425 5.175
-20.925 21.375 2.025
-22.125 17.175 3.975
-22.125 20.175 -1.575
-22.125 20.175 -0.075
-16.725 20.175 2.325
-17.925 15.975 0.075
-17.925 15.975 -0.675
-20.625 21.525 1.125
-20.625 21.525 2.025
-20.625 21.525 2.175
-20.625 21.525 1.875
-20.625 21.525 1.575
-22.275 19.875 0.075
-22.275 17.475 2.925
-22.275 17.475 4.125
-21.375 21.075 -5.175
-21.375 21.075 0.225
-21.375 21.075 -0.825
-21.825 20.625 1.275
-21.825 20.625 0.375
-21.825 20.625 1.125
-21.825 20.625 0.675
-21.825 20.625 -0.225
-20.175 21.675 0.975
-20.175 15.675 2.925
-20.175 21.675 0.825
-20.175 21.675 0.375
-16.425 19.425 -1.275
-18.225 15.825 0.825
-18.225 15.825 0.525
-18.225 15.825 4.275
-18.225 15.825 3.675
-18.225 15.825 -0.975
-20.625 15.825 3.825
-17.475 16.275 0.225
-17.475 16.275 2.775
-21.975 20.475 0.075
-21.975 20.475 0.675
-17.625 16.125 -0.075
-17.625 16.125 2.475
-16.875 16.875 1.875
-20.325 21.675 2.025
-20.325 21.675 1.875
-20.325 21.675 0.975
-20.325 21.675 0.525
-20.325 15.675 2.775
-18.525 15.675 1.425
-19.425 21.825 2.625
-19.425 15.525 0.075
-20.775 21.525 1.425
-20.775 21.525 1.275
-20.775 21.525 2.925
-22.275 20.025 1.725
-22.275 20.025 -0.375
-22.575 18.825 3.525
-19.275 21.825 0.375
-19.575 15.525 3.225
-19.575 15.525 0.225
-19.275 15.525 -0.225
-19.275 15.525 0.075
-18.075 15.825 -0.375
-18.075 15.825 0.225
-16.275 18.825 3.075
-16.275 18.525 2.325
-16.275 18.525 2.775
-19.725 21.825 2.025
-22.575 18.975 3.825
-21.075 21.375 -1.275
-22.125 20.325 -0.525
-22.125 20.325 0.825
-19.125 15.525 -0.375
-19.125 15.525 0.375
-16.725 17.025 1.125
-17.775 15.975 -0.375
-17.775 15.975 -0.525
-20.475 21.675 1.425
-20.475 21.675 1.275
-20.475 21.675 2.175
-20.475 21.675 1.875
-17.175 16.425 3.375
-21.675 20.925 -0.375
-19.875 15.525 -0.525
-18.975 15.525 0.375
-18.975 15.525 2.025
-18.975 15.525 3.525
-18.975 15.525 0.525
-18.975 15.525 -0.225
-18.975 15.525 0.075
-16.275 18.225 3.075
-21.825 16.575 3.225
-17.325 16.275 -1.425
-22.575 18.075 -0.075
-20.025 15.525 0.075
-18.825 15.525 -0.375
-18.825 15.525 -2.175
-18.825 15.525 0.225
-21.375 21.225 0.075
-21.975 20.625 1.275
-21.975 20.625 0.675
-21.975 20.625 -0.675
-17.475 16.125 3.375
-17.475 16.125 2.775
-17.475 16.125 3.525
-21.975 16.725 3.825
-21.975 16.725 2.775
-16.875 16.725 0.375
-16.875 16.725 1.575
-20.925 21.525 2.325
-20.925 21.525 -0.525
-22.275 20.175 -0.075
-20.925 21.525 1.125
-17.925 15.825 3.825
-17.925 15.825 -1.425
-17.925 15.825 4.275
-17.925 15.825 -0.375
-20.625 21.675 0.825
-20.625 21.675 3.225
-20.625 21.675 1.575
-20.625 21.675 1.125
-20.625 21.675 1.725
-18.225 15.675 1.575
-18.225 15.675 0.825
-18.225 15.675 3.675
-18.225 15.675 1.425
-20.625 21.675 1.275
-22.425 19.875 -0.975
-22.425 19.875 0.225
-22.425 19.875 -0.075
-22.425 17.475 3.375
-18.225 15.675 2.775
-16.425 17.475 2.925
-22.575 19.425 4.125
-18.675 21.825 3.225
-18.675 15.525 4.125
-21.225 21.375 -0.375
-22.125 20.475 -0.225
-17.625 15.975 3.525
-17.625 15.975 2.925
-20.325 21.825 1.125
-22.575 19.575 2.475
-20.325 21.825 1.425
-18.525 15.525 0.075
-18.525 15.525 0.975
-20.775 21.675 2.025
-20.775 21.675 2.175
-20.775 21.675 2.325
-20.775 21.675 0.975
-20.775 21.675 1.575
-20.775 21.675 1.425
-20.775 21.675 1.275
-22.425 20.025 -0.075
-21.825 20.925 0.075
-18.075 15.675 0.375
-18.075 15.675 3.825
-18.075 15.675 0.225
-22.425 17.325 2.325
-17.175 16.275 0.525
-17.175 16.275 3.825
-21.075 21.525 2.175
-21.075 21.525 2.925
-22.275 20.325 -1.575
-21.075 21.525 2.475
-21.075 21.525 2.325
-22.275 17.025 3.375
-17.775 15.825 -0.375
-17.775 15.825 3.825
-17.775 15.825 0.975
-19.425 15.375 -3.225
-22.725 18.675 0.825
-21.975 20.775 -0.975
-21.525 21.225 0.225
-21.525 21.225 -1.575
-21.975 20.775 3.975
-21.975 20.775 1.275
-21.975 20.775 0.075
-19.575 21.975 2.775
-22.725 18.825 -2.925
-19.275 15.375 0.375
-16.125 18.525 2.775
-22.725 18.525 4.275
-17.325 16.125 -0.675
-17.325 16.125 2.775
-17.325 16.125 3.225
-17.325 16.125 3.375
-16.875 16.575 3.525
-19.725 21.975 2.025
-19.125 15.375 0.075
-19.125 15.375 -0.075
-19.125 15.375 5.475
-19.125 15.375 -0.375
-19.125 15.375 -0.525
-16.125 18.375 2.175
-19.725 15.375 0.075
-22.725 18.975 3.975
-22.725 18.375 -0.525
-20.475 21.825 1.725
-22.575 19.725 -1.425
-20.475 21.825 3.225
-18.375 15.525 0.975
-16.275 17.625 1.125
-16.275 17.625 1.275
-22.125 20.625 0.675
-22.125 16.725 3.825
-21.375 21.375 0.375
-18.975 15.375 -0.075
-19.875 21.975 1.875
-18.975 15.375 -0.375
-16.125 19.125 1.425
-18.975 15.375 -0.225
-18.975 15.375 3.525
-17.925 15.675 2.625
-20.925 21.675 2.025
-20.925 21.675 1.575
-20.925 21.675 2.325
-20.925 21.675 3.075
-22.425 20.175 0.075
-22.425 20.175 3.375
-20.025 15.375 1.425
-22.725 19.275 -0.975
-22.725 19.275 3.675
-20.025 21.975 1.875
-18.825 15.375 -0.525
-18.825 15.375 0.075
-18.825 21.975 3.375
-18.825 15.375 -0.225
-20.625 21.825 1.275
-22.575 19.875 4.125
-20.625 21.825 1.575
-20.625 21.825 2.325
-20.625 21.825 0.825
-22.575 17.475 4.125
-20.625 21.825 1.875
-21.225 21.525 0.525
-21.225 21.525 2.775
-21.225 21.525 0.225
-21.225 21.525 3.525
-21.225 21.525 2.625
-18.225 15.525 -0.225
-18.225 15.525 -0.375
-18.225 15.525 -0.075
-18.225 15.525 0.975
-16.275 17.475 1.275
-20.175 21.975 2.175
-18.675 15.375 -0.075
-16.125 17.925 3.225
-18.675 15.375 -0.675
-20.175 15.375 2.775
-20.175 15.375 2.475
-22.725 17.925 4.275
-21.825 21.075 -1.275
-17.025 16.275 3.375
-17.025 16.275 3.675
-21.975 20.925 0.225
-21.675 21.225 0.525
-17.175 16.125 -0.375
-21.525 21.375 -0.525
-21.525 21.375 -1.425
-22.725 19.575 3.525
-16.725 16.575 2.625
-18.525 15.375 -0.075
-22.725 17.775 4.575
-17.325 15.975 2.775
-17.325 15.975 3.375
-17.325 15.975 2.625
-21.075 21.675 2.175
-21.075 21.675 2.325
-21.075 21.675 2.475
-21.075 21.675 1.725
-16.425 17.025 1.575
-22.575 20.025 2.475
-20.775 21.825 0.975
-20.775 21.825 2.025
-20.775 21.825 1.725
-20.775 21.825 2.175
-18.075 15.525 4.575
-18.075 15.525 0.525
-18.075 15.525 1.275
-18.075 15.525 0.825
-18.075 15.525 1.425
-16.275 17.325 1.275
-19.425 15.225 1.725
-22.275 20.625 0.675
-22.275 16.725 3.675
-21.375 21.525 0.525
-21.375 21.525 2.625
-19.275 22.125 1.875
-17.475 15.825 -0.825
-17.475 15.825 2.775
-19.575 15.225 1.275
-15.975 18.525 2.175
-22.875 18.375 0.675
-22.875 18.375 0.975
-22.875 18.975 3.975
-20.475 21.975 2.475
-20.475 15.375 4.575
-18.375 15.375 -0.225
-18.375 15.375 -0.375
-18.375 15.375 5.625
-22.725 19.725 3.975
-22.725 19.725 -0.675
-22.725 19.725 3.375
-16.125 17.625 1.575
-16.125 17.625 2.325
