# .PCD v0.7 - Point Cloud Data file format
VERSION 0.7
FIELDS x y z
SIZE 4 4 4
TYPE F F F
COUNT 1 1 1
WIDTH 2048
HEIGHT 1
VIEWPOINT 0 0 0 1 0 0 0
POINTS 2048
DATA ascii
-21.525 55.575 0.675
-21.375 55.575 1.425
-21.525 55.725 1.725
-21.675 55.575 2.025
-21.675 55.575 1.125
-21.525 55.425 2.025
-21.525 55.425 2.475
-21.675 55.425 0.825
-21.675 55.425 2.475
-21.225 55.575 1.725
-21.825 55.575 2.175
-21.825 55.575 0.825
-21.525 55.275 1.275
-21.525 55.275 2.175
-21.675 55.875 1.875
-21.225 55.425 2.025
-21.825 55.725 2.325
-21.825 55.425 1.425
-21.825 55.425 2.325
-21.375 55.275 2.325
-21.375 55.275 0.975
-21.675 55.275 2.325
-21.675 55.275 2.175
-21.225 55.875 2.475
-21.825 55.875 1.875
-21.825 55.275 1.725
-21.825 55.275 1.875
-21.825 55.275 4.725
-21.525 56.025 0.975
-21.525 55.125 2.025
-21.975 55.575 2.325
-21.375 56.025 0.375
-21.075 55.425 1.575
-21.675 55.125 1.725
-21.825 56.025 3.075
-21.225 55.125 2.025
-21.225 55.125 2.175
-21.225 55.125 1.725
-21.975 55.275 1.875
-20.925 55.575 1.725
-21.675 56.175 2.175
-21.675 56.175 3.525
-22.125 55.725 0.975
-21.375 54.975 1.725
-21.375 54.975 2.025
-21.675 54.975 2.175
-21.675 54.975 1.725
-21.075 56.025 4.275
-21.975 56.025 1.875
-21.975 56.025 2.175
-21.075 55.125 0.825
-21.075 55.125 2.025
-21.975 55.125 -2.475
-21.225 56.175 2.175
-21.225 56.175 1.425
-21.825 56.175 2.325
-21.225 54.975 1.425
-21.225 54.975 0.375
-21.225 54.975 1.125
-21.225 54.975 2.775
-22.125 55.875 2.925
-20.925 56.025 2.025
-21.975 56.175 2.325
-21.525 54.825 3.225
-21.525 54.825 1.725
-21.525 54.825 -0.375
-21.075 54.975 3.525
-20.775 55.725 1.875
-22.275 55.725 1.725
-20.775 55.725 2.025
-21.675 54.825 1.575
-20.775 55.425 1.725
-20.775 55.875 1.875
-21.225 54.825 1.575
-21.225 54.825 1.275
-20.775 55.875 0.825
-20.775 55.875 3.225
-20.775 55.875 2.325
-21.825 56.325 2.625
-20.775 55.275 2.175
-22.125 56.175 1.575
-20.925 54.975 2.325
-21.075 54.825 1.425
-21.975 56.325 1.575
-21.975 56.325 1.725
-21.975 56.325 1.275
-20.625 55.575 1.275
-20.625 55.725 0.825
-20.625 55.425 2.175
-21.375 54.675 2.325
-21.375 54.675 1.725
-21.375 54.675 -0.975
-21.675 54.675 2.175
-20.625 55.875 1.575
-20.625 55.875 1.725
-21.225 54.675 2.325
-20.775 56.175 2.025
-22.275 56.175 0.675
-20.925 54.825 1.575
-20.925 54.825 -0.075
-20.925 54.825 0.525
-20.925 54.825 1.425
-20.775 54.975 1.275
-20.625 56.025 1.425
-20.625 56.025 1.875
-20.625 56.025 2.625
-21.075 56.475 1.725
-21.975 56.475 1.575
-21.975 56.475 2.775
-21.975 56.475 2.475
-20.475 55.575 2.325
-20.775 56.325 2.175
-22.275 56.325 0.075
-20.775 54.825 1.725
-21.375 54.525 2.025
-21.675 54.525 1.575
-20.625 56.175 0.825
-20.625 56.175 1.575
-20.625 56.175 1.275
-20.925 56.475 2.325
-20.925 56.475 2.025
-20.925 54.675 2.475
-20.925 54.675 2.025
-22.125 54.675 2.475
-21.825 56.625 2.175
-21.225 54.525 1.425
-21.225 54.525 1.575
-20.475 56.025 1.425
-20.475 56.025 1.275
-20.475 56.025 0.525
-20.475 56.025 1.725
-21.975 56.625 2.175
-20.475 55.125 1.275
-21.075 54.525 2.475
-20.775 56.475 2.175
-20.625 56.325 0.675
-20.625 54.825 1.125
-20.625 56.325 0.825
-20.625 56.325 0.525
-20.775 54.675 1.875
-20.325 55.575 1.575
-20.325 55.575 2.925
-21.525 54.375 2.325
-20.475 56.175 1.125
-20.475 56.175 0.825
-20.475 56.175 3.375
-20.475 56.175 0.975
-21.675 56.775 3.375
-20.925 56.625 1.725
-20.325 55.725 1.275
-20.325 55.425 1.575
-20.325 55.425 1.725
-20.325 55.425 -2.475
-22.125 54.525 2.775
-21.825 56.775 1.575
-20.325 55.875 0.525
-20.325 55.275 1.875
-20.325 55.275 1.725
-20.325 55.275 2.775
-20.325 55.275 -5.025
-20.325 55.275 1.275
-20.325 55.275 0.975
-21.225 54.375 1.425
-20.625 56.475 0.975
-20.625 56.475 1.725
-22.425 56.475 2.925
-20.625 54.675 2.025
-20.625 54.675 1.875
-20.625 54.675 1.425
-21.975 56.775 2.475
-20.325 56.025 1.125
-20.325 56.025 1.425
-20.325 56.025 1.275
-20.325 55.125 2.025
-21.075 54.375 1.275
-20.475 56.325 0.975
-20.475 54.825 1.425
-22.275 56.625 2.325
-22.275 56.625 2.175
-20.775 54.525 3.075
-20.925 56.775 1.725
-20.325 56.175 1.275
-20.325 56.175 0.975
-20.325 56.175 1.125
-20.325 54.975 1.575
-20.925 54.375 1.275
-21.525 56.925 3.225
-20.175 55.425 1.275
-20.175 55.425 1.875
-21.825 56.925 1.875
-20.175 55.875 0.525
-20.175 55.275 1.125
-20.175 55.275 1.425
-20.175 55.275 0.975
-20.175 55.275 1.275
-20.175 55.275 1.575
-22.425 56.625 1.275
-20.475 54.675 1.575
-20.475 54.675 1.425
-22.575 54.675 3.075
-22.275 56.775 1.425
-20.325 56.325 1.125
-20.325 54.825 0.225
-20.775 54.375 1.725
-21.975 56.925 1.725
-20.175 56.025 1.725
-20.175 56.025 0.525
-20.175 56.025 1.425
-20.175 56.025 1.125
-20.175 55.125 2.175
-20.175 55.125 1.875
-20.175 55.125 1.575
-22.125 56.925 2.325
-20.175 56.175 0.975
-20.175 56.175 1.125
-20.175 56.175 1.275
-20.925 54.225 1.725
-20.925 54.225 2.025
-20.925 54.225 0.825
-20.925 54.225 0.075
-20.475 56.625 3.525
-20.625 56.775 1.275
-22.425 56.775 1.875
-22.425 56.775 1.275
-20.325 56.475 1.425
-20.025 55.575 2.175
-21.525 54.075 2.025
-20.625 54.375 1.725
-20.625 54.375 2.175
-20.325 54.675 1.725
-21.375 57.075 2.925
-21.675 57.075 1.725
-20.025 55.425 1.125
-20.025 55.425 2.025
-20.025 55.425 1.275
-21.825 57.075 1.725
-20.025 55.275 1.275
-20.025 55.275 0.975
-20.025 55.275 0.825
-20.025 55.275 1.725
-20.025 55.275 2.325
-20.175 56.325 1.125
-20.175 56.325 0.975
-20.175 56.325 0.525
-20.175 56.325 0.225
-20.175 56.325 0.825
-20.775 54.225 2.025
-20.025 56.025 1.275
-21.075 54.075 0.375
-20.025 55.125 0.825
-20.025 55.125 1.875
-20.025 55.125 1.275
-20.475 56.775 1.125
-20.475 56.775 0.975
-20.475 56.775 1.425
-20.475 54.375 0.525
-20.025 56.175 1.275
-20.025 56.175 1.575
-20.025 56.175 0.825
-20.025 56.175 1.425
-20.025 56.175 1.125
-22.125 57.075 1.575
-20.025 54.975 1.725
-20.025 54.975 1.875
-20.625 56.925 2.175
-22.425 56.925 -1.875
-20.175 56.475 0.675
-20.175 56.475 -1.425
-20.175 56.475 1.275
-20.625 54.225 0.225
-20.175 54.675 1.875
-21.525 57.225 1.575
-19.875 55.575 0.675
-21.525 57.225 1.275
-21.525 57.225 1.425
-21.375 57.225 2.325
-21.375 57.225 2.475
-21.675 57.225 1.875
-21.675 57.225 2.475
-19.875 55.425 1.275
-19.875 55.425 0.975
-19.875 55.425 1.425
-19.875 55.425 0.825
-19.875 55.425 0.675
-23.175 55.425 0.825
-21.825 57.225 2.025
-23.025 54.825 -2.175
-20.775 54.075 1.875
-20.025 56.325 0.825
-20.025 56.325 0.225
-20.025 56.325 0.975
-20.025 54.825 2.025
-20.025 54.825 1.575
-20.325 56.775 1.575
-20.325 56.775 0.975
-20.325 56.775 1.425
-20.325 54.375 0.975
-20.325 54.375 1.575
-20.475 56.925 1.425
-22.575 56.925 1.575
-20.175 56.625 0.675
-20.175 56.625 1.575
-19.875 56.025 0.375
-21.975 57.225 1.575
-19.875 55.125 1.575
-19.875 55.125 1.275
-21.975 57.225 2.025
-21.975 57.225 1.725
-20.025 56.475 0.675
-20.625 54.075 2.025
-20.025 56.475 0.975
-19.875 56.175 1.275
-19.875 56.175 1.425
-19.875 56.175 1.575
-19.875 54.975 1.275
-22.125 57.225 2.025
-19.875 54.975 0.525
-19.875 54.975 0.975
-21.525 57.375 1.725
-19.725 55.575 0.675
-20.325 56.925 1.275
-20.175 56.775 0.375
-20.175 56.775 0.825
-19.725 55.725 0.675
-21.375 57.375 2.325
-21.675 57.375 1.725
-21.675 57.375 2.325
-20.325 54.225 2.025
-19.875 56.325 0.675
-19.875 56.325 0.825
-20.775 57.225 0.975
-19.875 56.325 1.125
-19.875 54.825 0.975
-19.875 54.825 1.725
-19.725 55.875 0.225
-21.225 57.375 2.175
-21.225 57.375 2.325
-21.825 57.375 2.475
-21.825 57.375 1.575
-19.725 55.275 0.225
-19.725 55.275 0.975
-19.725 55.275 1.125
-19.725 55.275 0.825
-19.725 55.275 2.625
-20.025 56.625 0.525
-20.475 57.075 -0.225
-20.475 54.075 2.025
-20.475 54.075 0.825
-19.725 56.025 0.375
-21.075 57.375 1.125
-21.075 57.375 1.275
-21.075 57.375 0.975
-19.725 55.125 -1.725
-20.625 57.225 0.675
-19.725 56.175 0.975
-19.725 56.175 1.275
-19.725 56.175 -0.525
-20.925 57.375 2.475
-20.925 57.375 2.775
-20.925 57.375 2.325
-19.725 54.975 1.875
-19.725 54.975 0.675
-19.725 54.975 0.825
-20.175 54.225 1.125
-20.175 54.225 0.975
-20.025 56.775 0.525
-20.325 54.075 0.825
-21.525 57.525 2.175
-21.525 57.525 2.625
-20.775 57.375 2.925
-20.775 57.375 2.475
-19.575 55.575 0.675
-19.575 55.575 0.975
-21.375 57.525 2.025
-21.675 57.525 0.825
-21.675 57.525 1.125
-20.475 57.225 0.225
-19.875 56.625 0.675
-19.575 55.725 1.425
-19.575 55.425 1.575
-19.575 55.425 1.275
-19.575 55.425 0.675
-21.225 57.525 2.475
-21.075 57.525 2.175
-21.075 57.525 1.125
-21.075 57.525 2.625
-21.075 57.525 0.825
-21.975 57.525 2.025
-19.575 55.125 0.975
-19.575 55.125 2.025
-20.625 57.375 0.225
-19.725 54.675 2.175
-20.175 57.075 3.375
-20.025 54.225 1.875
-20.025 54.225 2.325
-20.925 57.525 0.975
-20.925 57.525 1.125
-22.125 57.525 2.325
-19.575 56.175 1.875
-20.325 57.225 0.075
-20.325 57.225 0.225
-19.575 54.975 2.175
-19.575 54.975 2.025
-19.575 54.975 1.875
-19.575 54.975 1.275
-20.475 57.375 0.675
-19.725 56.625 0.525
-19.725 54.525 6.225
-19.725 54.525 1.425
-19.725 54.525 2.325
-19.725 54.525 1.725
-20.775 57.525 2.325
-20.775 57.525 0.675
-20.775 57.525 1.275
-20.775 57.525 1.125
-19.575 56.325 2.175
-19.575 56.325 1.725
-19.575 54.825 1.725
-21.525 57.675 2.025
-19.425 55.575 0.675
-19.425 55.575 0.825
-19.425 55.575 0.375
-19.425 55.575 0.525
-19.425 55.575 2.025
-19.425 55.575 -0.525
-21.675 57.675 2.325
-19.425 55.425 0.525
-19.425 55.425 0.075
-21.825 57.675 1.425
-20.025 54.075 1.575
-20.025 54.075 2.175
-20.175 57.225 0.675
-19.875 54.225 1.875
-19.875 54.225 1.125
-19.875 54.225 1.425
-21.075 57.675 2.625
-21.075 57.675 1.125
-21.075 57.675 1.575
-21.975 57.675 1.575
-19.425 55.125 1.875
-19.575 54.675 2.325
-20.325 57.375 0.675
-19.725 54.375 1.575
-19.725 54.375 0.975
-23.325 54.375 0.675
-20.925 57.675 2.025
-20.925 57.675 1.125
-20.925 57.675 2.175
-20.925 57.675 0.975
-20.925 57.675 2.475
-20.925 57.675 0.825
-22.125 57.675 1.425
-22.125 57.675 1.725
-19.425 54.975 0.675
-19.575 56.625 2.175
-19.575 54.525 1.725
-19.575 54.525 2.775
-19.575 54.525 -2.475
-20.775 57.675 0.975
-22.275 57.675 1.275
-20.775 57.675 1.125
-20.775 57.675 -0.075
-20.775 57.675 0.675
-19.425 56.325 2.475
-19.425 54.825 0.525
-19.425 54.825 2.325
-19.875 57.075 2.175
-19.875 54.075 2.025
-20.175 57.375 0.975
-20.175 57.375 0.525
-19.725 54.225 1.425
-21.525 57.825 2.475
-21.525 57.825 2.175
-19.275 55.575 -0.825
-21.525 57.825 1.425
-19.275 55.725 6.225
-21.375 57.825 2.325
-21.675 57.825 1.425
-21.675 57.825 2.025
-19.275 55.425 -0.675
-19.275 55.875 0.975
-21.825 57.825 0.975
-21.825 57.825 1.725
-20.625 57.675 0.825
-20.625 57.675 3.675
-20.625 57.675 0.975
-19.425 56.475 4.425
-19.425 56.475 1.575
-19.425 54.675 2.175
-20.325 57.525 0.375
-19.275 56.025 2.025
-19.275 56.025 1.275
-21.075 57.825 1.725
-21.075 57.825 0.975
-21.975 57.825 1.275
-21.975 57.825 1.875
-19.275 56.175 1.425
-20.925 57.825 1.275
-20.925 57.825 1.425
-20.925 57.825 2.475
-20.925 57.825 0.825
-19.275 54.975 2.475
-19.875 57.225 1.125
-19.875 53.925 1.575
-19.875 53.925 1.125
-19.725 54.075 2.475
-19.725 54.075 2.025
-19.725 57.075 2.625
-19.725 57.075 0.675
-19.725 57.075 -0.075
-19.725 57.075 0.525
-20.025 57.375 0.525
-20.025 57.375 4.275
-23.325 54.075 -0.675
-20.025 53.775 0.675
-20.475 57.675 0.825
-19.425 56.625 0.675
-19.425 54.525 2.025
-19.425 54.525 2.175
-19.425 54.525 1.575
-20.175 57.525 0.825
-20.175 57.525 0.975
-20.175 57.525 -0.225
-19.275 56.325 2.475
-19.275 54.825 2.325
-19.275 56.325 1.575
-20.775 57.825 2.175
-19.575 54.225 1.125
-19.575 54.225 2.025
-23.475 54.225 -0.675
-19.125 55.575 -0.075
-21.525 57.975 2.025
-21.525 57.975 1.725
-19.125 55.425 -0.075
-19.125 55.425 -0.225
-21.675 53.175 -3.225
-20.325 57.675 0.975
-20.325 57.675 1.125
-19.425 56.775 2.625
-19.125 55.275 2.175
-19.425 54.375 0.675
-19.275 56.475 -0.075
-19.275 54.675 0.825
-19.275 54.675 2.025
-19.875 57.375 1.125
-19.725 57.225 -0.975
-19.875 57.375 0.525
-19.125 56.025 2.025
-19.125 56.025 2.625
-19.125 56.025 2.325
-21.075 57.975 2.175
-21.075 57.975 1.725
-21.975 57.975 1.725
-23.925 56.025 -1.875
-19.725 53.925 1.125
-19.725 53.925 1.275
-20.025 57.525 1.425
-20.025 57.525 0.825
-19.575 54.075 1.125
-19.575 54.075 0.975
-19.575 54.075 1.575
-19.575 57.075 0.375
-19.125 56.175 1.725
-19.125 56.175 2.175
-20.925 57.975 0.825
-22.125 57.975 -0.225
-19.275 56.625 1.725
-19.275 54.525 1.275
-19.275 54.525 2.025
-19.275 54.525 0.825
-19.425 54.225 2.175
-19.425 54.225 0.525
-20.775 57.975 2.475
-20.775 57.975 2.325
-19.125 54.825 0.825
-19.125 56.325 -0.225
-19.725 57.375 0.975
-19.725 53.775 1.875
-21.525 58.125 0.975
-18.975 55.575 -0.525
-18.975 55.575 -0.375
-18.975 55.575 2.025
-18.975 55.575 2.175
-19.275 54.375 2.325
-19.275 54.375 1.725
-21.375 58.125 1.275
-21.375 58.125 1.125
-18.975 55.425 0.375
-19.575 57.225 1.125
-19.575 53.925 1.275
-19.575 53.925 1.425
-20.625 57.975 0.375
-19.125 56.475 2.475
-18.975 55.875 -0.075
-18.975 55.875 2.625
-18.975 55.875 2.325
-21.225 58.125 1.125
-18.975 55.875 -0.225
-21.225 58.125 3.225
-21.825 58.125 1.875
-18.975 55.275 2.175
-18.975 55.275 0.075
-20.025 57.675 1.575
-19.425 57.075 0.225
-19.425 54.075 1.275
-19.425 54.075 0.825
-18.975 56.025 2.025
-18.975 56.025 2.775
-21.075 58.125 1.875
-21.075 58.125 0.675
-18.975 56.175 0.525
-20.925 58.125 1.125
-20.475 57.975 2.775
-19.125 54.525 2.025
-19.125 54.525 2.325
-19.275 54.225 2.325
-19.275 54.225 0.825
-19.275 54.225 1.725
-19.275 54.225 0.975
-19.725 57.525 0.825
-19.725 53.625 3.075
-18.975 56.325 0.525
-18.975 56.325 -0.225
-18.975 56.325 -0.375
-18.975 54.825 0.975
-19.875 57.675 0.525
-19.425 57.225 0.975
-19.425 53.925 0.675
-19.425 53.925 1.275
-19.425 53.925 1.575
-19.425 53.925 2.175
-19.425 53.925 1.425
-19.125 56.775 0.225
-20.325 57.975 -0.975
-20.325 57.975 0.975
-19.125 54.375 1.875
-19.125 54.375 2.025
-19.125 54.375 0.675
-19.125 54.375 0.375
-18.825 55.575 2.475
-21.375 58.275 0.975
-21.675 58.275 1.875
-21.675 58.275 2.325
-21.675 58.275 1.725
-18.975 56.475 0.525
-18.975 54.675 1.425
-18.975 54.675 0.225
-18.825 55.725 -0.375
-18.825 55.425 0.525
-18.825 55.425 -0.675
-18.825 55.425 2.325
-18.825 55.425 -0.075
-19.275 57.075 0.375
-20.025 57.825 1.725
-19.275 54.075 0.075
-19.275 54.075 1.125
-19.275 54.075 1.725
-19.275 54.075 0.525
-19.275 54.075 0.675
-21.225 58.275 1.275
-18.825 55.875 1.725
-18.825 55.275 -0.825
-18.825 55.275 -0.975
-19.125 56.925 0.825
-19.125 56.925 -0.375
-19.125 56.925 -0.225
-20.175 57.975 0.375
-19.125 54.225 0.675
-19.125 54.225 2.025
-20.175 53.175 2.325
-18.975 56.625 1.875
-18.975 56.625 1.425
-19.575 57.525 -0.375
-18.975 54.525 2.625
-18.975 54.525 -0.375
-19.425 57.375 0.075
-19.425 57.375 2.025
-19.425 57.375 2.175
-18.825 56.175 -0.375
-18.825 54.975 4.275
-18.825 54.975 1.275
-19.425 53.775 1.875
-19.275 57.225 3.075
-19.275 57.225 -0.375
-19.275 53.925 1.275
-19.275 53.925 1.125
-20.775 58.275 -1.875
-18.825 56.325 -0.225
-18.825 54.825 1.125
-18.975 56.775 -0.225
-18.975 56.775 1.275
-20.325 58.125 -0.075
-20.325 58.125 2.325
-18.975 54.375 2.025
-19.125 54.075 1.125
-19.125 57.075 2.475
-19.125 54.075 0.975
-18.825 56.475 2.775
-18.825 56.475 -0.225
-21.525 58.425 2.025
-21.525 58.425 1.725
-18.675 55.575 2.025
-18.675 55.575 0.375
-18.675 55.575 0.975
-21.375 58.425 2.175
-21.375 58.425 0.975
-21.675 58.425 2.175
-21.675 58.425 2.025
-18.675 55.725 0.975
-18.675 55.725 -0.825
-18.675 55.425 2.175
-21.225 58.425 1.725
-21.225 58.425 0.975
-21.825 58.425 1.425
-21.825 58.425 2.325
-21.825 58.425 2.025
-19.575 57.675 0.825
-18.675 55.875 2.025
-18.675 55.275 -0.525
-19.425 53.625 0.675
-19.275 53.775 1.275
-19.275 53.775 2.175
-19.275 53.775 0.225
-19.275 53.775 1.425
-19.275 53.775 1.875
-21.075 58.425 0.975
-21.075 58.425 0.825
-21.075 58.425 0.525
-18.975 56.925 0.675
-18.975 56.925 2.625
-20.175 58.125 0.375
-18.675 56.025 0.525
-18.975 54.225 0.825
-18.675 55.125 0.975
-18.675 55.125 2.925
-18.675 55.125 1.725
-18.675 55.125 -0.525
-20.475 58.275 2.325
-20.475 58.275 2.775
-18.825 56.625 0.675
-20.925 58.425 0.675
-20.925 58.425 1.725
-20.925 58.425 0.975
-18.675 56.175 -0.675
-18.675 56.175 0.975
-18.675 56.175 2.325
-18.675 54.975 1.425
-19.125 57.225 -0.075
-19.125 57.225 -0.225
-19.125 57.225 0.375
-19.125 57.225 -0.525
-19.125 53.925 1.875
-19.125 53.925 1.275
-20.775 58.425 0.825
-20.775 58.425 0.375
-20.775 58.425 0.975
-18.675 54.825 2.025
-18.675 54.825 -0.375
-18.825 56.775 0.675
-18.975 57.075 2.475
-18.975 54.075 1.725
-18.975 54.075 0.675
-20.025 58.125 0.375
-19.425 57.675 0.375
-19.425 57.675 -0.075
-19.425 57.675 -0.525
-19.275 57.525 2.175
-19.275 57.525 -0.525
-19.275 57.525 0.375
-19.275 57.525 0.675
-19.575 57.825 -0.225
-19.575 57.825 1.575
-19.575 57.825 0.975
-19.275 53.625 1.425
-19.275 53.625 1.125
-18.675 56.475 0.675
-18.675 54.675 2.025
-19.725 57.975 0.075
-18.525 55.575 0.675
-21.525 58.575 2.325
-19.125 53.775 0.825
-19.125 53.775 0.525
-19.125 53.775 1.575
-19.125 53.775 0.675
-19.125 53.775 1.125
-21.375 58.575 2.325
-18.525 55.725 2.025
-18.525 55.425 1.275
-18.525 55.425 0.075
-21.225 58.575 0.825
-21.225 58.575 0.675
-21.225 58.575 1.125
-18.525 55.875 1.125
-21.825 58.575 2.325
-18.525 55.275 -0.375
-18.525 55.275 2.925
-18.525 55.275 1.725
-20.175 58.275 1.575
-18.825 56.925 0.675
-24.225 56.925 1.575
-18.525 56.025 2.625
-18.525 56.025 0.525
-21.075 58.575 0.975
-21.075 58.575 1.275
-21.075 58.575 0.825
-21.975 58.575 2.025
-18.525 55.125 1.575
-20.475 58.425 2.775
-19.875 58.125 0.375
-19.875 58.125 -0.525
-18.675 54.525 2.475
-20.925 58.575 0.975
-20.925 58.575 2.025
-20.925 58.575 0.525
-18.525 54.975 0.525
-19.275 57.675 -1.125
-19.275 57.675 0.375
-19.425 57.825 -0.225
-19.425 57.825 0.375
-19.425 57.825 -0.075
-19.275 53.475 1.725
-20.025 58.275 0.075
-18.825 57.075 0.075
-18.825 57.075 1.275
-18.825 57.075 -0.375
-18.825 54.075 0.975
-20.325 58.425 -0.075
-19.125 57.525 0.675
-18.675 56.775 0.825
-19.575 57.975 -0.075
-20.775 58.575 1.125
-20.775 58.575 2.475
-20.775 58.575 0.975
-18.525 54.825 -0.375
-18.525 56.325 0.075
-18.525 56.325 0.675
-18.525 56.325 1.425
-19.125 53.625 0.825
-19.125 53.625 1.575
-19.125 53.625 2.475
-19.125 53.625 2.025
-19.125 53.625 1.725
-18.975 57.375 0.675
-18.975 53.775 0.825
-18.975 53.775 0.525
-18.975 53.775 1.575
-20.625 58.575 0.375
-18.525 56.475 0.675
-18.375 55.575 0.525
-20.175 58.425 1.275
-20.175 58.425 0.975
-18.675 56.925 0.675
-18.675 56.925 1.875
-18.675 56.925 0.375
-18.375 55.725 -0.525
-21.675 58.725 2.175
-21.675 58.725 1.575
-18.375 55.425 -0.975
-18.375 55.425 -0.525
-19.875 58.275 -0.375
-21.225 58.725 1.725
-21.825 58.725 2.475
-21.825 58.725 1.725
-21.825 58.725 1.575
-21.825 58.725 2.325
-18.825 57.225 0.825
-18.375 55.275 0.375
-18.375 55.275 2.475
-18.375 55.275 0.525
-18.375 55.275 -0.225
-18.375 55.275 -0.525
-18.825 53.925 0.375
-20.475 58.575 -0.225
-18.525 56.625 0.975
-18.525 56.625 -0.525
-18.525 56.625 1.125
-18.525 54.525 2.025
-18.525 54.525 1.275
-18.525 54.525 -0.225
-18.375 56.025 0.525
-18.375 56.025 0.375
-21.075 58.725 0.525
-21.075 58.725 1.125
-21.975 58.725 1.875
-19.275 57.825 0.225
-19.125 57.675 -0.375
-19.425 57.975 2.475
-19.425 57.975 0.225
-19.125 53.475 1.425
-19.125 53.475 1.725
-19.125 53.475 1.875
-19.125 53.475 1.575
-18.375 56.175 -0.075
-18.375 56.175 1.125
-18.375 56.175 0.225
-20.925 58.725 1.125
-20.925 58.725 2.175
-22.125 58.725 1.575
-18.375 54.975 2.325
-19.575 58.125 0.075
-19.575 58.125 0.825
-19.575 58.125 -0.375
-18.975 53.625 1.275
-20.025 58.425 1.875
-20.025 58.425 0.525
-18.675 57.075 1.275
-18.675 57.075 1.125
-18.525 56.775 2.775
-18.525 56.775 3.525
-20.325 58.575 -0.075
-20.325 58.575 1.125
-18.525 54.375 1.875
-20.775 58.725 1.125
-18.375 54.825 0.075
-18.825 57.375 0.375
-18.825 57.375 0.675
-18.825 53.775 0.675
-18.375 56.475 0.675
-18.375 56.475 0.375
-18.525 56.925 0.675
-19.275 57.975 0.675
-19.275 57.975 -0.225
-19.125 57.825 0.675
-18.525 54.225 1.875
-19.275 53.175 1.575
-18.225 55.575 0.525
-18.975 57.675 0.825
-19.425 58.125 0.825
-19.425 58.125 0.225
-18.225 55.725 1.125
-24.075 57.675 0.525
-21.375 58.875 1.425
-18.975 53.475 0.825
-18.975 53.475 1.275
-18.975 53.475 6.225
-18.975 53.475 1.425
-18.975 53.475 2.025
-21.375 52.275 -2.925
-18.225 55.875 0.675
-21.225 58.875 2.325
-21.825 58.875 2.475
-21.825 58.875 2.025
-18.225 55.275 0.525
-18.225 55.275 -0.825
-18.375 54.525 2.475
-18.375 54.525 0.525
-18.375 54.525 -0.525
-18.375 54.525 2.025
-19.575 58.275 -0.375
-19.575 58.275 -0.225
-18.225 56.025 0.525
-18.225 56.025 0.225
-18.825 57.525 1.125
-21.075 58.875 1.875
-21.075 58.875 0.525
-18.825 57.525 1.275
-18.225 55.125 -0.975
-18.225 55.125 -0.075
-21.975 58.875 1.875
-18.825 53.625 0.675
-18.825 53.625 0.225
-18.825 53.625 0.525
-18.825 53.625 0.375
-18.225 56.175 0.975
-20.925 58.875 2.025
-18.225 54.975 2.175
-18.525 54.075 2.775
-18.525 54.075 1.425
-18.525 54.075 2.025
-18.525 57.075 -0.375
-18.525 57.075 -0.675
-20.025 58.575 0.975
-20.025 58.575 0.675
-19.725 58.425 2.625
-19.725 58.425 2.475
-18.675 57.375 0.675
-18.375 54.375 0.225
-18.675 53.775 0.675
-18.225 56.325 3.525
-20.775 58.875 1.125
-18.225 54.825 0.075
-18.225 54.825 -1.275
-19.125 57.975 2.025
-19.125 57.975 0.675
-19.125 53.175 1.275
-19.125 53.175 1.125
-18.975 53.325 1.575
-18.975 53.325 1.425
-18.975 53.325 1.125
-19.275 58.125 -0.375
-18.975 57.825 0.675
-19.275 58.125 -0.525
-18.975 57.825 0.375
-19.425 58.275 -0.675
-19.425 58.275 -0.225
-19.425 58.275 -0.075
-18.825 57.675 1.575
-18.825 57.675 2.925
-18.825 57.675 1.425
-18.225 54.675 2.025
-18.225 54.675 -0.075
-18.225 54.675 -0.375
-18.825 53.475 0.525
-18.825 53.475 0.825
-18.825 53.475 2.325
-18.825 53.475 0.975
-19.875 58.575 1.125
-19.875 58.575 -0.225
-19.875 58.575 0.675
-18.375 56.925 2.775
-20.175 58.725 1.125
-21.525 59.025 1.425
-18.075 55.575 0.525
-18.075 55.575 0.225
-19.575 58.425 0.075
-19.575 58.425 -0.225
-21.375 59.025 2.175
-18.675 57.525 1.725
-18.075 55.725 0.975
-18.075 55.725 -0.075
-18.075 55.425 0.675
-18.075 55.425 1.125
-18.675 53.625 0.375
-18.675 53.625 0.675
-18.675 53.625 0.825
-21.225 59.025 1.725
-20.475 58.875 -3.375
-18.075 55.875 -0.675
-18.075 55.275 -0.975
-21.075 59.025 1.575
-21.075 59.025 1.275
-21.975 59.025 2.175
-21.975 59.025 0.975
-18.075 56.025 -0.825
-18.075 56.025 0.525
-18.075 55.125 0.525
-18.075 55.125 -1.575
-20.025 58.725 0.525
-18.525 57.375 -0.525
-19.725 58.575 2.325
-20.925 59.025 0.825
-18.975 57.975 1.275
-19.125 58.125 -0.675
-18.975 57.975 2.325
-18.975 57.975 1.125
-19.125 58.125 2.025
-18.075 54.975 2.175
-18.075 54.975 -0.675
-18.975 53.175 2.775
-18.975 53.175 1.125
-18.975 53.175 1.875
-18.975 53.175 2.175
-18.225 54.375 -0.525
-19.275 58.275 -0.975
-19.275 58.275 2.025
-18.825 57.825 2.325
-18.825 53.325 1.125
-18.825 53.325 1.425
-18.825 57.825 0.675
-18.825 57.825 2.775
-20.775 59.025 1.125
-18.075 54.825 -0.225
-18.075 54.825 0.525
-18.075 54.825 -0.375
-19.425 58.425 1.575
-19.425 58.425 -0.525
-18.375 53.925 2.775
-20.625 59.025 0.825
-20.175 58.875 -0.825
-18.225 54.225 2.175
-18.225 54.225 2.475
-18.075 56.475 -0.225
-18.075 54.675 -0.375
-18.075 54.675 -0.525
-18.525 57.525 2.925
-18.525 53.625 0.975
-18.525 53.625 1.425
-18.525 53.625 0.525
-21.525 59.175 0.975
-21.375 59.175 0.975
-21.375 59.175 1.275
-21.675 59.175 0.975
-20.475 59.025 0.675
-20.475 59.025 0.975
-20.475 59.025 -3.375
-20.475 59.025 0.825
-18.975 58.125 2.175
-18.075 54.525 0.225
-18.075 54.525 -0.975
-18.975 53.025 1.575
-21.225 59.175 1.425
-21.825 59.175 2.025
-21.825 59.175 2.175
-21.825 59.175 -0.075
-19.125 58.275 1.125
-19.125 58.275 3.225
-17.925 55.275 0.525
-17.925 55.275 0.225
-17.925 55.275 0.975
-19.125 52.875 1.725
-18.825 53.175 0.825
-18.825 53.175 1.125
-18.825 53.175 1.575
-18.225 54.075 2.475
-18.225 57.075 -0.825
-20.025 58.875 2.625
-21.075 59.175 1.425
-18.375 57.375 -0.975
-19.725 58.725 0.225
-17.925 55.125 0.675
-18.375 53.775 0.075
-18.375 53.775 -0.675
-18.375 53.775 1.875
-19.275 58.425 2.175
-18.675 57.825 -0.825
-18.675 53.325 0.975
-18.675 53.325 0.375
-19.275 52.725 1.875
-20.925 59.175 2.475
-17.925 56.175 2.325
-17.925 54.975 -0.375
-17.925 54.975 2.475
-20.325 59.025 0.825
-20.325 59.025 -0.825
-18.075 56.775 -0.825
-18.075 56.775 -1.425
-18.075 54.375 2.475
-18.075 54.375 2.025
-22.725 52.125 -2.325
-18.525 57.675 2.325
-19.425 58.575 0.075
-19.425 58.575 -0.675
-19.425 58.575 -0.225
-19.425 58.575 2.775
-19.425 58.575 -0.075
-18.525 53.475 0.975
-22.275 59.175 2.175
-17.925 54.825 0.525
-18.225 57.225 -0.975
-18.225 53.925 0.525
-18.225 53.925 3.225
-23.175 52.275 1.725
-23.175 52.275 1.425
-19.575 58.725 -0.675
-18.375 53.625 0.375
-17.925 56.475 3.825
-17.925 54.675 -0.825
-18.975 58.275 0.675
-18.975 58.275 2.025
-18.825 58.125 -0.525
-18.975 52.875 2.025
-18.825 53.025 1.725
-18.825 53.025 2.025
-18.825 53.025 1.575
-18.825 53.025 1.425
-19.125 58.425 2.025
-19.125 58.425 -0.525
-19.125 52.725 1.575
-18.675 53.175 0.975
-18.675 53.175 1.575
-18.675 53.175 0.825
-18.675 53.175 2.025
-18.675 53.175 1.425
-17.925 54.525 0.675
-17.925 54.525 2.925
-17.925 54.525 -0.225
-19.275 58.575 -0.525
-21.525 59.325 0.975
-18.525 53.325 0.375
-18.525 53.325 0.825
-18.525 53.325 0.525
-18.525 57.825 2.775
-17.775 55.725 -0.525
-21.675 59.325 2.775
-18.225 57.375 -0.675
-19.725 58.875 -0.675
-18.225 53.775 -0.075
-18.225 53.775 2.325
-18.225 53.775 -0.525
-18.075 54.075 -0.525
-18.075 57.075 2.325
-18.075 57.075 1.725
-21.225 59.325 0.825
-21.225 59.325 0.975
-21.825 59.325 2.625
-21.825 59.325 1.875
-21.825 59.325 1.725
-17.775 55.275 0.525
-21.075 59.325 1.125
-21.075 59.325 0.825
-21.975 59.325 2.175
-21.975 59.325 1.425
-18.375 57.675 2.325
-19.425 58.725 1.725
-18.375 53.475 0.225
-20.325 59.175 0.075
-20.325 59.175 0.675
-20.325 59.175 1.125
-17.925 56.775 -0.375
-17.925 56.775 -0.675
-17.925 54.375 -0.525
-17.925 54.375 2.325
-17.925 54.375 2.775
-20.325 51.975 -0.225
-17.775 54.975 1.125
-17.775 54.975 2.925
-17.775 54.975 0.975
-17.775 54.975 0.525
-18.825 58.275 2.625
-18.825 52.875 1.575
-18.825 52.875 1.425
-18.825 52.875 1.275
-18.975 58.425 0.675
-18.975 58.425 0.375
-18.075 57.225 -0.525
-18.075 57.225 1.725
-18.975 52.725 1.425
-18.975 52.725 2.175
-17.775 56.325 1.425
-17.775 54.825 -0.375
-17.775 54.825 -0.675
-18.675 53.025 1.575
-18.675 53.025 1.725
-18.075 53.925 2.775
-18.075 53.925 -1.725
-18.075 53.925 -0.375
-18.075 53.925 1.725
-18.075 53.925 -0.525
-19.575 58.875 -0.075
-19.575 58.875 -0.225
-18.225 53.625 0.225
-19.125 58.575 0.675
-19.125 58.575 2.175
-18.525 57.975 3.525
-19.125 52.575 2.175
-18.525 53.175 1.425
-18.525 53.175 0.375
-18.525 53.175 2.025
-18.525 53.175 1.875
-20.175 59.175 1.425
-20.175 59.175 0.975
-17.925 56.925 2.475
-17.925 54.225 2.475
-18.375 57.825 2.325
-19.275 58.725 0.675
-19.275 58.725 0.825
-18.375 53.325 1.425
-19.725 59.025 -0.825
-19.725 59.025 0.675
-18.075 53.775 1.425
-18.075 53.775 2.475
-18.075 53.775 -0.525
-19.725 52.125 0.675
-17.775 56.625 1.425
-20.475 59.325 1.125
-20.475 59.325 1.275
-17.775 54.525 0.675
-17.775 54.525 -0.375
-21.525 59.475 0.225
-21.525 59.475 1.125
-21.375 59.475 3.075
-21.675 59.475 2.625
-21.675 59.475 2.925
-21.675 59.475 2.175
-19.425 58.875 2.025
-19.425 58.875 0.075
-19.425 58.875 1.875
-17.625 55.875 -0.825
-21.225 59.475 0.975
-21.225 59.475 0.825
-21.825 59.475 2.325
-21.825 59.475 2.475
-18.825 58.425 0.675
-18.675 58.275 -0.825
-17.625 56.025 2.325
-21.075 59.475 0.825
-21.075 59.475 1.875
-21.075 59.475 2.925
-17.625 55.125 -0.525
-21.975 59.475 2.175
-21.975 59.475 1.725
-21.975 59.475 2.475
-18.825 52.725 2.175
-18.975 58.575 0.675
-18.975 58.575 -0.525
-18.525 58.125 -0.525
-18.975 52.575 2.025
-20.325 59.325 0.225
-20.325 59.325 0.825
-17.775 54.375 2.775
-18.525 53.025 2.325
-18.525 53.025 1.575
-18.525 53.025 1.425
-18.525 53.025 1.275
-17.625 56.175 2.175
-20.925 59.475 0.825
-20.925 59.475 0.675
-17.625 54.975 0.225
-17.625 54.975 0.525
-17.625 54.975 2.775
-17.925 57.225 1.875
-19.125 58.725 2.175
-19.125 58.725 2.025
-19.125 58.725 2.475
-18.375 57.975 2.325
-18.375 57.975 0.075
-17.925 53.925 -0.825
-19.575 59.025 0.525
-18.075 57.525 2.175
-18.075 57.525 1.875
-17.625 54.825 0.675
-20.775 59.475 4.275
-20.775 59.475 1.425
-20.775 59.475 0.675
-20.175 59.325 1.125
-20.175 59.325 0.525
-17.775 54.225 3.075
-17.775 54.225 2.925
-19.275 58.875 2.475
-18.225 53.325 1.725
-20.625 59.475 1.125
-19.725 59.175 -0.825
-17.925 57.375 2.025
-17.925 53.775 2.025
-17.925 53.775 0.075
-17.925 53.775 2.175
-17.925 53.775 -0.075
-18.675 58.425 -0.675
-18.675 58.425 -4.275
-18.675 58.425 2.925
-18.675 58.425 -0.525
-18.675 52.725 1.275
-18.675 52.725 1.425
-18.825 52.575 1.425
-18.825 52.575 2.025
-18.825 52.575 1.125
-18.825 52.575 1.275
-18.825 58.575 1.125
-18.525 52.875 2.925
-18.525 52.875 0.825
-18.525 52.875 1.875
-18.525 52.875 1.275
-18.525 52.875 1.125
-18.075 57.675 1.875
-18.075 57.675 1.575
-18.075 57.675 1.725
-17.625 54.525 0.675
-17.625 54.525 -0.375
-17.625 54.525 1.125
-17.775 57.075 2.025
-17.775 57.075 -0.675
-17.775 54.075 1.725
-17.775 54.075 2.625
-18.075 53.475 1.875
-18.075 53.475 -0.225
-18.075 53.475 -0.075
-21.525 59.625 2.775
-17.475 55.575 -0.825
-18.375 58.125 1.425
-18.375 58.125 -0.375
-18.975 58.725 1.725
-18.975 58.725 2.625
-21.375 59.625 0.825
-21.375 59.625 1.575
-21.675 59.625 2.475
-21.675 59.625 1.725
-21.675 59.625 2.175
-18.375 53.025 0.075
-18.975 52.425 1.575
-21.675 51.525 -3.225
-21.825 59.625 2.475
-21.225 59.625 1.275
-21.825 59.625 2.325
-21.075 59.625 0.375
-21.075 59.625 2.025
-17.475 55.125 2.325
-21.975 59.625 2.025
-21.975 51.525 -0.375
-19.125 58.875 2.325
-20.325 59.475 0.675
-20.325 59.475 0.525
-20.325 59.475 0.825
-17.625 54.375 2.925
-18.225 53.175 0.525
-19.125 52.275 2.025
-20.925 59.625 0.975
-17.925 53.625 2.475
-17.925 53.625 2.025
-17.775 53.925 2.625
-20.775 59.625 1.275
-20.775 59.625 1.125
-18.075 53.325 -0.375
-19.275 52.125 0.825
-20.175 59.475 0.675
-20.175 59.475 0.975
-17.625 54.225 -4.425
-18.675 58.575 -0.075
-18.675 58.575 -0.975
-18.675 58.575 1.875
-18.675 52.575 2.175
-18.675 52.575 0.975
-18.675 52.575 0.375
-18.675 52.575 3.225
-18.675 52.575 1.725
-18.675 52.575 1.125
-18.525 52.725 1.575
-18.525 52.725 2.775
-18.525 52.725 2.175
-18.525 52.725 2.025
-18.375 58.275 0.225
-18.375 58.275 -0.525
-18.375 58.275 2.175
-18.825 58.725 -0.675
-18.825 58.725 -0.825
-18.375 52.875 0.975
-18.375 52.875 1.575
-18.375 52.875 1.725
-17.775 53.775 2.025
-17.775 53.775 -0.825
-17.775 53.775 1.875
-19.425 59.175 -0.075
-19.425 59.175 -0.375
-17.925 53.475 -0.225
-17.925 53.475 -0.075
-18.225 58.125 -0.075
-18.225 58.125 2.175
-18.225 58.125 0.075
-18.975 58.875 2.175
-18.975 58.875 -0.675
-18.975 58.875 0.675
-18.225 53.025 0.375
-18.225 53.025 2.325
-18.975 52.275 1.425
-17.625 54.075 0.675
-17.625 57.075 1.725
-17.475 54.525 0.375
-17.475 54.525 0.675
-17.475 54.525 1.125
-21.525 59.775 1.425
-19.125 59.025 0.075
-18.075 57.975 -0.825
-18.075 57.975 2.025
-18.075 53.175 1.275
-18.075 53.175 1.875
-21.225 59.775 2.625
-21.225 59.775 1.425
-21.225 59.775 1.575
-21.225 59.775 2.025
-21.825 59.775 2.475
-17.325 55.275 2.325
-21.975 59.775 2.175
-17.475 56.775 0.225
-20.325 59.625 0.825
-17.475 54.375 0.675
-17.475 54.375 -0.375
-17.775 57.525 -0.675
-17.775 57.525 -0.825
-19.575 59.325 -0.975
-19.575 59.325 -0.225
-17.775 53.625 2.325
-17.625 57.225 0.675
-17.625 53.925 3.075
-20.925 59.775 1.275
-20.925 59.775 2.475
-20.925 59.775 0.375
-17.325 56.175 3.675
-18.525 52.575 6.075
-18.525 52.575 1.125
-18.525 52.575 0.975
-18.525 52.575 0.675
-18.525 58.575 -0.825
-18.525 58.575 3.525
-18.525 58.575 1.725
-18.525 58.575 2.475
-19.275 59.175 -0.675
-17.925 57.825 -0.075
-17.925 53.325 -0.225
-18.375 58.425 2.175
-18.375 58.425 -1.275
-18.375 58.425 -0.825
-18.675 58.725 0.225
-18.375 52.725 0.975
-18.375 52.725 0.375
-18.675 52.425 0.975
-18.675 52.425 2.175
-18.675 52.425 1.575
-18.225 58.275 2.625
-18.825 58.875 0.375
-18.825 58.875 0.675
-18.825 58.875 0.525
-18.825 58.875 2.025
-18.825 52.275 1.575
-22.275 59.775 1.275
-17.475 56.925 0.225
-20.175 59.625 0.675
-17.475 54.225 -1.575
-17.475 54.225 3.075
-17.475 54.225 2.925
-18.975 59.025 2.325
-18.975 59.025 0.675
-18.975 52.125 2.175
-19.725 59.475 -0.075
-17.625 57.375 1.125
-17.625 53.775 0.225
-17.625 53.775 3.225
-17.325 54.675 -0.825
-17.775 57.675 -0.525
-17.775 53.475 -0.675
-17.775 53.475 -0.075
-17.775 53.475 -0.225
-17.475 54.075 0.675
-17.475 54.075 0.075
-19.125 59.175 -0.975
-19.125 59.175 0.675
-17.925 53.175 2.625
-17.325 54.525 0.675
-21.525 59.925 2.925
-21.525 59.925 1.875
-18.375 58.575 2.025
-18.375 58.575 2.175
-18.375 52.575 0.975
-18.375 52.575 0.225
-18.375 52.575 2.175
-18.375 52.575 1.575
-18.525 58.725 2.025
-18.525 58.725 2.775
-18.525 52.425 1.275
-18.525 52.425 0.975
-18.525 52.425 1.125
-21.675 59.925 1.875
-21.675 59.925 2.475
-21.675 59.925 1.275
-17.175 55.725 2.775
-21.225 59.925 0.375
-21.225 59.925 -0.075
-21.825 59.925 1.575
-18.675 58.875 2.475
-18.675 58.875 -1.275
-18.675 58.875 0.075
-18.675 58.875 2.025
-19.575 59.475 -2.325
-19.575 59.475 0.075
-17.175 55.275 3.375
-17.625 53.625 2.475
-17.625 53.625 2.025
-17.625 53.625 -1.275
-17.625 53.625 -0.375
-17.625 53.625 2.325
-18.675 52.275 1.575
-21.075 59.925 1.425
-17.475 57.225 1.575
-17.475 57.225 -0.375
-23.175 59.625 1.425
-17.175 55.125 3.525
-17.475 53.925 1.575
-19.275 59.325 -0.525
-19.275 59.325 0.825
-17.775 53.325 -0.375
-17.775 57.825 2.025
-18.825 59.025 1.125
-18.825 59.025 0.975
-18.825 59.025 -0.525
-18.825 59.025 0.675
-18.975 59.175 -1.125
-20.175 59.775 1.125
-22.875 59.775 2.025
-17.325 56.925 -0.075
-17.325 54.225 2.025
-17.325 54.225 1.875
-20.775 59.925 2.475
-17.625 57.675 2.025
-19.425 59.475 -0.375
-17.625 53.475 -0.675
-17.625 53.475 2.175
-17.625 53.475 -0.525
-19.725 59.625 -0.075
-17.475 53.775 0.675
-17.475 53.775 2.475
-17.175 54.675 -2.475
-19.125 59.325 -0.975
-19.125 59.325 0.225
-19.125 59.325 -0.525
-17.775 53.175 0.825
-17.775 53.175 -0.675
-18.375 58.725 1.575
-18.375 58.725 2.625
-18.375 52.425 0.825
-18.375 52.425 0.675
-18.375 52.425 2.325
-18.375 52.425 1.125
-18.525 58.875 1.875
-18.225 52.575 -0.225
-17.325 54.075 -0.525
-17.325 54.075 0.675
-17.325 54.075 1.275
-17.325 54.075 1.125
-18.525 52.275 0.825
-18.525 52.275 1.575
-18.525 52.275 1.275
-18.525 52.275 0.975
-20.475 59.925 0.675
-20.475 59.925 0.825
-18.675 59.025 -0.075
-18.675 59.025 -1.275
-18.075 58.425 -0.375
-18.075 58.425 2.625
-17.175 54.525 -0.675
-18.675 52.125 2.325
-18.675 52.125 1.575
-20.475 51.225 1.575
-17.475 57.525 0.675
-17.475 53.625 -0.225
-17.925 58.275 -0.375
-21.525 60.075 2.625
-21.525 60.075 2.325
-21.525 60.075 2.175
-19.275 59.475 1.575
-19.275 59.475 2.175
-19.275 59.475 -0.225
-17.625 53.325 2.475
-17.625 53.325 -0.825
-17.625 57.825 0.375
-21.675 60.075 2.025
-21.675 60.075 2.625
-21.675 60.075 1.425
-21.375 60.075 1.875
-21.825 60.075 2.025
-21.825 60.075 2.475
-21.825 60.075 1.725
-21.225 60.075 2.625
-21.225 60.075 1.425
-17.025 55.875 3.375
-23.175 59.775 -2.325
-17.175 56.775 -0.825
-17.175 54.375 -0.825
-17.175 54.375 -0.525
-17.325 53.925 1.125
-17.325 53.925 2.175
-20.325 51.225 -1.575
-17.025 56.025 3.225
-21.075 60.075 1.425
-21.075 60.075 3.525
-21.975 51.075 1.425
-17.775 58.125 -0.375
-17.775 58.125 -0.675
-17.775 53.025 0.225
-17.775 53.025 1.725
-17.025 56.175 -0.675
-20.925 60.075 2.475
-20.925 60.075 1.125
-20.175 59.925 0.675
-17.475 57.675 -0.075
-18.375 58.875 2.625
-18.375 58.875 3.975
-19.425 59.625 -0.375
-17.475 53.475 -0.375
-17.475 53.475 -1.425
-17.025 54.825 -0.525
-17.025 54.825 3.675
-18.225 52.425 1.125
-18.375 52.275 0.825
-18.375 52.275 1.575
-17.325 57.375 -0.825
-17.325 53.775 -0.525
-17.325 53.775 0.675
-18.525 52.125 3.075
-18.525 52.125 1.575
-19.125 59.475 0.225
-19.125 59.475 -0.525
-17.625 53.175 3.075
-17.625 53.175 -0.525
-17.625 53.175 -0.675
-17.625 53.175 -0.225
-20.625 60.075 -0.675
-17.025 54.675 7.425
-17.025 54.675 0.225
-18.675 59.175 -1.125
-18.675 51.975 1.725
-17.175 54.075 0.675
-17.175 54.075 0.375
-18.825 59.325 1.125
-19.575 59.775 1.125
-17.325 57.525 -0.375
-17.325 57.525 0.225
-17.325 57.525 0.675
-17.325 53.625 -1.275
-17.475 53.325 -0.075
-19.275 59.625 0.075
-19.275 59.625 4.575
-17.475 57.825 0.225
-21.525 60.225 2.625
-19.875 59.925 -1.575
-21.675 60.225 2.025
-21.375 60.225 2.325
-21.375 60.225 2.475
-21.375 60.225 1.725
-21.675 60.225 2.325
-17.175 53.925 1.275
-17.175 53.925 0.825
-17.025 56.775 3.075
-20.325 60.075 0.675
-17.625 58.125 -0.975
-21.225 60.225 1.575
-17.625 53.025 0.675
-17.625 53.025 -0.225
-18.225 58.875 -0.075
-18.225 58.875 -0.975
-18.225 52.275 0.675
-18.375 59.025 -1.275
-18.075 58.725 1.725
-18.075 58.725 -0.675
-18.375 52.125 0.975
-18.375 52.125 1.725
-18.075 52.425 0.525
-18.075 52.425 -0.225
-18.075 52.425 0.975
-18.525 59.175 -0.525
-18.525 59.175 1.425
-17.925 52.575 1.125
-17.925 52.575 1.875
-17.925 52.575 1.425
-18.525 51.975 1.425
-20.925 60.225 1.275
-17.175 57.375 1.125
-17.175 57.375 -0.675
-17.175 57.375 0.975
-19.125 59.625 0.075
-17.175 57.375 0.375
-17.475 57.975 -0.225
-17.475 57.975 0.225
-17.175 53.775 -0.675
-17.175 53.775 0.675
-20.775 60.225 1.125
-20.775 60.225 1.725
-17.625 58.275 0.225
-17.625 58.275 -0.075
-17.625 58.275 -0.825
-18.825 59.475 0.675
-17.025 54.075 -0.675
-17.625 52.875 0.525
-19.275 59.775 -1.875
-17.325 53.325 0.675
-17.325 57.825 3.525
-17.325 57.825 0.375
-19.575 59.925 -0.075
-17.175 57.525 -0.825
-17.175 57.525 1.575
-17.175 57.525 0.675
-16.875 56.625 0.675
-20.475 60.225 0.825
-17.175 53.625 0.975
-18.075 58.875 -0.225
-18.075 58.875 3.525
-18.225 52.125 0.525
-18.225 52.125 2.025
-18.075 52.275 -0.375
-17.925 58.725 0.225
-18.375 51.975 1.425
-18.375 51.975 0.525
-17.475 58.125 0.675
-17.475 58.125 -0.075
-17.475 58.125 2.175
-17.475 53.025 -0.225
-17.475 53.025 0.525
-17.475 53.025 -0.675
-17.475 53.025 -0.525
-21.525 60.375 2.325
-21.525 60.375 1.425
-16.725 55.575 0.375
-21.375 60.375 1.125
-21.375 60.375 2.325
-16.875 56.775 -0.075
-20.325 60.225 3.075
-16.875 54.375 -1.125
-18.525 51.825 0.525
-17.775 58.575 0.375
-17.775 58.575 0.675
-21.825 60.375 1.875
-19.425 59.925 0.075
-19.425 59.925 -0.225
-17.625 58.425 0.375
-17.625 58.425 -0.675
-17.175 57.675 1.125
-18.675 59.475 -0.675
-18.675 59.475 0.225
-18.675 59.475 2.475
-18.675 59.475 0.525
-18.675 59.475 -1.125
-17.175 53.475 0.675
-20.925 60.375 1.125
-16.875 56.925 0.375
-17.025 57.375 1.275
-17.025 53.775 2.025
-17.025 53.775 0.675
-17.025 53.775 0.375
-17.025 53.775 1.125
-20.775 60.375 1.125
-20.775 60.375 0.975
-17.475 58.275 0.075
-18.825 59.625 0.525
-18.825 59.625 -0.675
-17.475 52.875 3.225
-17.475 52.875 0.525
-18.825 51.525 1.275
-18.075 59.025 -0.525
-18.075 59.025 0.075
-18.075 52.125 0.375
-18.225 59.175 -0.075
-18.225 59.175 -0.675
-20.625 60.375 -1.125
-18.225 51.975 6.075
-18.225 51.975 0.525
-18.225 51.975 1.125
-17.925 52.275 2.025
-16.875 57.075 -0.675
-16.875 57.075 -0.825
-19.275 59.925 -0.375
-17.175 57.825 3.675
-18.375 59.325 -0.525
-18.375 59.325 0.675
-18.375 59.325 -0.375
-18.375 59.325 0.375
-17.775 58.725 0.675
-18.375 51.825 0.975
-18.375 51.825 0.525
-17.775 52.425 1.875
-17.025 57.525 0.525
-17.025 57.525 0.675
-17.025 53.625 0.825
-18.975 59.775 -0.375
-16.725 56.625 -0.675
-18.975 51.375 1.125
-18.975 51.375 1.725
-17.325 53.025 -0.525
-18.525 59.475 -0.675
-17.625 58.575 1.125
-17.625 58.575 0.675
-17.625 52.575 2.025
-18.525 51.675 1.275
-18.525 51.675 2.025
-18.525 51.675 1.125
-19.875 60.225 -1.575
-16.875 57.225 0.075
-19.875 60.225 -0.675
-16.725 56.775 -0.675
-16.725 54.375 -0.225
-21.525 60.525 2.475
-21.525 60.525 1.575
-17.475 58.425 0.375
-17.475 58.425 -0.375
-21.375 60.525 1.125
-21.375 60.525 1.875
-21.375 60.525 0.975
-21.675 60.525 2.325
-21.375 60.525 2.175
-18.675 59.625 0.975
-18.675 59.625 0.525
-18.675 59.625 -0.675
-18.675 59.625 1.125
-16.575 55.425 1.125
-16.575 55.875 0.525
-19.425 60.075 2.175
-19.425 60.075 0.075
-17.025 53.475 1.125
-19.125 59.925 -1.275
-19.125 59.925 -0.525
-17.175 53.175 -0.375
-21.075 60.525 1.725
-21.075 60.525 1.425
-20.925 60.525 0.975
-20.925 60.525 3.375
-17.925 59.025 1.575
-17.925 59.025 0.075
-17.925 59.025 1.125
-18.075 59.175 2.025
-22.125 60.525 1.575
-19.725 60.225 2.775
-16.725 54.225 -0.375
-16.575 56.175 3.075
-16.575 56.175 2.775
-16.575 54.975 2.325
-18.075 51.975 0.975
-18.075 51.975 1.425
-16.875 53.775 0.675
-18.825 59.775 3.375
-18.825 59.775 0.525
-17.325 52.875 -0.375
-17.325 52.875 -0.225
-17.325 52.875 -0.675
-18.225 59.325 0.675
-18.225 59.325 1.875
-18.225 59.325 -0.225
-18.225 51.825 0.975
-18.225 51.825 1.425
-18.225 51.825 0.375
-18.225 51.825 1.725
-18.225 51.825 0.825
-18.225 51.825 1.275
-17.775 52.275 1.125
-20.775 60.525 1.125
-20.775 60.525 -0.975
-16.575 54.825 2.475
-18.375 59.475 -0.375
-17.625 58.725 2.175
-17.625 58.725 -0.225
-17.625 52.425 -0.675
-18.375 51.675 1.875
-18.375 51.675 0.825
-18.375 51.675 0.975
-18.375 51.675 0.675
-18.375 51.675 1.125
-16.725 54.075 -0.225
-20.025 60.375 2.475
-20.025 60.375 1.875
-20.625 60.525 3.075
-20.625 60.525 1.125
-20.625 60.525 0.825
-16.575 56.475 2.925
-19.275 60.075 -0.525
-17.025 53.325 0.675
-17.025 53.325 1.125
-19.275 60.075 -0.225
-17.475 58.575 -0.075
-17.475 58.575 0.525
-17.475 52.575 1.875
-17.475 52.575 2.025
-17.475 58.575 1.125
-24.525 59.625 1.575
-18.525 51.525 0.975
-18.525 51.525 1.875
-18.975 59.925 0.525
-18.975 59.925 -0.375
-18.975 59.925 0.675
-17.175 58.125 -0.825
-16.875 57.525 0.675
-16.875 57.525 0.075
-16.875 57.525 3.225
-19.575 60.225 2.775
-17.175 53.025 0.675
-16.575 56.625 -0.975
-16.575 56.625 -0.075
-16.575 56.625 -0.675
-18.675 59.775 -0.825
-18.675 59.775 1.575
-17.325 58.425 0.075
-17.325 58.425 1.125
-19.875 60.375 2.325
-16.725 53.925 0.525
-18.675 51.375 1.575
-18.675 51.375 1.725
-19.875 50.775 2.625
-17.925 51.975 0.975
-20.325 60.525 5.325
-18.075 59.325 0.675
-18.075 59.325 -0.525
-18.075 59.325 1.275
-18.075 59.325 1.125
-18.075 51.825 1.575
-18.075 51.825 0.675
-16.425 55.575 0.525
-19.125 60.075 -0.075
-19.125 60.075 2.325
-17.025 53.175 2.325
-17.025 53.175 -0.075
-17.025 53.175 2.475
-21.375 60.675 1.575
-16.875 57.675 -0.075
-16.875 57.675 0.375
-16.875 57.675 0.075
-16.425 55.725 1.125
-19.425 60.225 -0.225
-19.425 60.225 -0.525
-19.425 60.225 1.275
-16.875 53.475 0.375
-16.875 53.475 1.125
-16.875 53.475 0.675
-18.225 59.475 2.325
-18.225 59.475 0.675
-18.225 59.475 2.175
-16.425 55.875 0.675
-16.425 55.875 0.975
-18.225 51.675 1.575
-18.225 51.675 1.875
-21.075 60.675 2.925
-18.825 59.925 -0.525
-18.825 59.925 -0.675
-18.825 59.925 -0.375
-21.975 60.675 1.125
-17.175 58.275 0.225
-17.175 58.275 -1.875
-16.425 56.025 0.675
-16.425 56.025 0.225
-17.175 52.875 -0.375
-19.725 60.375 2.025
-19.725 60.375 -0.225
-19.725 60.375 2.775
-19.725 60.375 -0.375
-19.725 60.375 -1.425
-19.725 60.375 2.625
-20.175 60.525 6.075
-18.375 59.625 -0.525
-17.475 58.725 -0.225
-17.475 58.725 -0.375
-17.475 58.725 0.525
-16.575 56.925 0.225
-16.575 56.925 -0.375
-17.475 52.425 1.575
-17.475 52.425 -0.675
-17.475 52.425 2.025
-17.475 52.425 -0.225
-18.375 51.525 1.275
-18.375 51.525 1.725
-18.375 51.525 0.525
-18.375 51.525 1.125
-18.375 51.525 1.575
-20.775 60.675 2.175
-18.525 59.775 3.075
-18.525 59.775 1.425
-18.525 59.775 2.925
-17.325 58.575 4.125
-17.325 52.575 2.325
-17.325 58.575 1.425
-17.325 58.575 0.525
-18.525 51.375 0.525
-18.525 51.375 1.725
-19.275 60.225 0.525
-19.275 60.225 -0.225
-16.875 53.325 -0.525
-16.875 53.325 0.675
-20.025 60.525 2.325
-18.975 60.075 -0.375
-18.975 60.075 -0.525
-16.575 57.075 -1.275
-17.025 53.025 0.675
-20.625 60.675 1.125
-20.625 60.675 1.725
-19.575 60.375 3.075
-19.575 60.375 -0.675
-19.575 60.375 -0.225
-19.575 60.375 2.175
-19.575 60.375 2.775
-19.575 60.375 2.475
-19.575 60.375 0.525
-17.775 59.175 0.675
-17.925 51.825 1.575
-17.925 59.325 0.675
-17.175 58.425 -0.975
-20.475 60.675 1.425
