# .PCD v0.7 - Point Cloud Data file format
VERSION 0.7
FIELDS x y z
SIZE 4 4 4
TYPE F F F
COUNT 1 1 1
WIDTH 2048
HEIGHT 1
VIEWPOINT 0 0 0 1 0 0 0
POINTS 2048
DATA ascii
-30.525 -18.525 1.275
-30.525 -18.525 -0.075
-30.525 -18.525 1.125
-30.525 -18.375 1.125
-30.525 -18.375 1.725
-30.525 -18.375 1.425
-30.375 -18.525 2.175
-30.375 -18.525 -0.075
-30.525 -18.375 1.575
-30.525 -18.375 1.875
-30.675 -18.525 1.425
-30.675 -18.525 1.275
-30.675 -18.525 1.125
-30.675 -18.525 -4.275
-30.675 -18.525 -0.225
-30.525 -18.675 1.725
-30.375 -18.675 2.025
-30.375 -18.675 1.425
-30.675 -18.375 1.275
-30.675 -18.675 1.125
-30.675 -18.675 1.575
-30.675 -18.675 1.425
-30.675 -18.675 0.525
-30.675 -18.675 -0.075
-30.675 -18.675 1.725
-30.525 -18.225 1.275
-30.825 -18.525 1.275
-30.825 -18.525 2.025
-30.825 -18.525 0.675
-30.525 -18.825 1.875
-30.825 -18.525 -0.525
-30.225 -18.375 0.375
-30.375 -18.225 1.875
-30.225 -18.675 0.075
-30.675 -18.225 -0.225
-30.675 -18.225 1.425
-30.825 -18.375 0.825
-30.375 -18.825 -0.075
-30.825 -18.375 1.425
-30.375 -18.825 1.575
-30.375 -18.825 0.225
-30.375 -18.825 1.275
-30.825 -18.675 1.425
-30.825 -18.675 0.375
-30.675 -18.825 1.425
-30.825 -18.675 0.825
-30.675 -18.825 1.725
-30.225 -18.825 -0.075
-30.225 -18.825 0.075
-30.225 -18.825 -2.625
-30.825 -18.825 1.425
-30.525 -18.075 1.575
-30.525 -18.075 1.275
-30.525 -18.975 1.125
-30.525 -18.975 1.425
-30.525 -18.975 0.975
-30.975 -18.525 2.025
-30.075 -18.375 1.575
-30.075 -18.375 -2.325
-30.375 -18.075 1.425
-30.075 -18.375 -0.225
-30.075 -18.375 0.225
-30.675 -18.075 1.275
-30.675 -18.075 1.425
-30.675 -18.075 0.975
-30.675 -18.075 2.025
-30.675 -18.075 -0.075
-30.675 -18.075 1.575
-30.975 -18.375 0.675
-30.975 -18.375 1.875
-30.375 -18.975 0.975
-30.975 -18.675 1.425
-30.975 -18.675 1.725
-30.675 -18.975 1.575
-30.675 -18.975 0.975
-30.225 -18.075 1.725
-30.075 -18.825 -2.175
-30.825 -18.075 1.425
-30.825 -18.075 1.275
-30.225 -18.975 -0.225
-30.225 -18.975 0.375
-30.825 -18.975 2.175
-30.975 -18.825 0.825
-30.825 -18.975 1.275
-30.825 -18.975 -0.375
-30.825 -18.975 1.125
-30.975 -18.825 1.725
-30.525 -17.925 1.275
-30.525 -17.925 0.675
-29.925 -18.525 0.825
-30.525 -17.925 1.725
-30.525 -17.925 1.425
-30.525 -17.925 0.975
-30.375 -17.925 1.575
-30.375 -17.925 1.125
-30.675 -17.925 1.125
-29.925 -18.675 0.825
-30.675 -17.925 1.275
-29.925 -18.675 2.325
-30.675 -17.925 1.425
-29.925 -18.675 0.525
-30.375 -19.125 1.575
-31.125 -18.375 1.725
-30.375 -19.125 0.975
-30.675 -19.125 1.275
-30.675 -19.125 0.225
-31.125 -18.675 1.875
-30.075 -18.975 2.475
-30.975 -18.975 0.975
-30.975 -18.975 1.125
-30.225 -17.925 1.575
-30.225 -17.925 -0.975
-29.925 -18.225 0.525
-29.925 -18.825 2.025
-30.825 -17.925 -0.825
-31.125 -18.225 1.875
-30.825 -19.125 1.125
-30.825 -19.125 1.275
-30.075 -17.925 -0.525
-30.075 -17.925 1.425
-30.525 -17.775 -0.225
-29.775 -18.525 0.825
-30.525 -17.775 1.575
-30.525 -19.275 1.725
-29.925 -18.975 -0.225
-30.525 -17.775 1.875
-30.525 -17.775 0.675
-30.975 -17.925 1.575
-31.275 -18.525 1.725
-30.525 -17.775 -0.375
-29.925 -18.975 -0.525
-31.125 -18.075 1.725
-30.075 -19.125 0.675
-30.075 -19.125 2.775
-31.125 -18.975 -1.425
-30.975 -19.125 0.975
-30.975 -19.125 1.125
-30.375 -17.775 0.825
-29.775 -18.375 1.725
-29.775 -18.375 2.025
-31.275 -18.375 1.725
-30.375 -19.275 2.025
-30.375 -19.275 0.975
-29.775 -18.375 0.675
-29.775 -18.675 0.675
-31.275 -18.675 2.625
-30.675 -19.275 1.275
-30.675 -19.275 1.875
-30.675 -17.775 1.425
-31.275 -18.675 1.725
-30.675 -17.775 1.125
-30.225 -17.775 0.075
-30.225 -17.775 1.575
-31.275 -18.225 1.875
-29.775 -18.225 1.725
-30.825 -17.775 -0.375
-29.775 -18.825 1.275
-29.775 -18.825 0.675
-30.825 -17.775 1.275
-30.825 -19.275 0.825
-30.825 -17.775 1.575
-31.275 -18.825 2.175
-30.825 -17.775 0.975
-29.925 -19.125 -0.375
-29.925 -19.125 0.675
-31.125 -17.925 2.025
-31.125 -19.125 0.525
-30.075 -17.775 3.375
-30.075 -19.275 0.375
-30.075 -17.775 0.225
-31.275 -18.075 1.875
-29.775 -18.075 -0.075
-30.075 -17.775 1.575
-29.775 -18.075 0.825
-30.075 -19.275 0.675
-29.775 -18.075 0.525
-30.975 -19.275 1.125
-31.275 -18.975 2.175
-30.975 -19.275 -0.075
-30.975 -17.775 1.575
-30.975 -17.775 0.375
-30.525 -17.625 1.275
-29.625 -18.525 1.125
-30.525 -17.625 0.825
-31.425 -18.525 1.875
-30.525 -19.425 1.125
-30.525 -19.425 0.975
-31.425 -18.525 1.725
-30.375 -17.625 1.725
-29.625 -18.375 1.275
-30.375 -17.625 1.125
-30.375 -17.625 1.425
-29.625 -18.375 2.325
-30.675 -17.625 0.825
-29.625 -18.675 0.975
-30.675 -17.625 1.575
-30.675 -17.625 0.975
-31.425 -18.375 1.725
-31.425 -18.375 1.875
-31.425 -18.375 2.025
-31.425 -18.675 1.875
-30.675 -19.425 1.275
-29.625 -18.225 -0.075
-29.625 -18.225 0.675
-29.625 -18.225 1.125
-29.625 -18.825 -1.575
-31.425 -18.225 1.875
-31.425 -18.825 2.175
-30.825 -19.425 0.975
-31.425 -18.825 1.725
-29.925 -17.775 0.225
-29.925 -17.775 1.725
-29.925 -19.275 0.525
-29.925 -17.775 1.575
-29.775 -19.125 0.825
-31.275 -19.125 2.325
-31.275 -19.125 2.025
-29.625 -18.075 0.825
-29.625 -18.075 0.225
-29.625 -18.075 2.475
-30.075 -17.625 1.575
-29.625 -18.975 0.675
-31.425 -18.075 1.875
-30.075 -19.425 -1.725
-31.425 -18.075 2.175
-31.425 -18.075 2.325
-31.425 -18.075 1.575
-30.975 -19.425 1.275
-31.425 -18.975 2.175
-30.975 -19.425 1.125
-31.425 -18.975 1.575
-29.475 -18.525 -0.075
-29.475 -18.525 0.675
-30.525 -17.475 1.275
-30.525 -17.475 1.125
-31.575 -18.525 1.875
-29.475 -18.375 0.675
-30.375 -17.475 1.275
-30.375 -17.475 1.425
-29.475 -18.375 -0.075
-29.475 -18.675 2.025
-30.675 -17.475 1.425
-29.775 -17.775 2.175
-29.775 -17.775 2.325
-29.775 -17.775 1.725
-31.275 -17.775 2.025
-30.375 -19.575 2.475
-30.675 -19.575 0.525
-29.925 -17.625 1.875
-29.925 -17.625 2.325
-31.125 -17.625 1.725
-29.925 -19.425 0.525
-29.925 -19.425 0.975
-31.425 -17.925 1.575
-31.125 -19.425 0.975
-31.425 -19.125 1.425
-31.125 -19.425 1.425
-31.125 -19.425 2.475
-29.475 -18.225 2.025
-29.475 -18.225 2.175
-29.475 -18.225 2.325
-29.475 -18.225 0.375
-30.825 -17.475 2.775
-30.825 -17.475 0.975
-31.575 -18.825 1.575
-31.575 -18.825 1.425
-30.825 -19.575 1.275
-31.575 -18.825 1.725
-30.825 -19.575 -1.125
-30.075 -17.475 1.575
-30.075 -17.475 2.775
-30.075 -17.475 1.875
-30.975 -17.475 1.725
-30.075 -19.575 1.275
-30.075 -19.575 0.375
-31.575 -18.075 1.575
-30.075 -19.575 0.675
-30.975 -19.575 2.025
-31.575 -18.975 1.275
-31.575 -18.975 1.875
-30.975 -19.575 1.425
-30.975 -19.575 1.275
-30.975 -19.575 -1.875
-31.275 -17.625 2.025
-29.625 -17.775 1.275
-31.275 -17.625 1.575
-29.625 -17.775 2.325
-29.775 -17.625 0.525
-31.275 -19.425 1.725
-31.425 -19.275 1.725
-29.775 -19.425 1.275
-31.425 -17.775 -0.075
-31.275 -19.425 0.375
-30.525 -17.325 1.275
-30.525 -17.325 1.125
-29.325 -18.525 1.875
-31.725 -18.525 -1.275
-29.475 -17.925 0.675
-29.475 -17.925 1.575
-29.925 -17.475 2.475
-29.925 -17.475 1.875
-31.125 -17.475 4.125
-29.475 -19.125 -1.575
-30.375 -17.325 1.425
-30.375 -17.325 2.775
-30.375 -17.325 1.125
-29.325 -18.675 3.225
-31.575 -17.925 -2.925
-29.325 -18.675 -0.375
-31.575 -17.925 1.275
-29.325 -18.675 2.175
-30.675 -17.325 1.125
-29.925 -19.575 1.125
-29.925 -19.575 0.675
-29.925 -19.575 -2.475
-30.675 -17.325 0.975
-31.575 -17.925 2.175
-31.725 -18.375 1.725
-31.725 -18.675 1.575
-31.725 -18.675 1.425
-30.225 -17.325 1.425
-29.325 -18.825 1.725
-30.825 -17.325 0.375
-30.825 -17.325 2.775
-30.225 -19.725 0.975
-30.225 -19.725 3.075
-30.225 -19.725 -3.975
-30.825 -19.725 -2.175
-30.825 -19.725 1.125
-30.825 -19.725 1.425
-30.825 -19.725 -2.025
-29.625 -17.625 0.825
-29.625 -17.625 3.075
-29.625 -17.625 1.275
-29.625 -17.625 2.325
-29.625 -17.625 2.175
-31.425 -17.625 1.425
-31.425 -19.425 1.425
-30.075 -17.325 1.725
-30.075 -17.325 1.875
-29.325 -18.075 1.575
-29.325 -18.075 1.725
-29.325 -18.075 -3.375
-30.075 -17.325 1.575
-29.325 -18.975 2.175
-30.075 -19.725 0.525
-30.975 -19.725 1.875
-30.975 -19.725 1.425
-29.775 -17.475 -0.225
-29.475 -17.775 0.675
-29.775 -17.475 1.725
-31.275 -17.475 1.725
-29.775 -17.475 0.825
-31.275 -17.475 1.875
-31.575 -19.275 0.825
-29.775 -19.575 0.525
-31.575 -17.775 1.275
-29.325 -17.925 2.025
-29.325 -17.925 1.575
-29.925 -17.325 1.575
-29.925 -17.325 1.875
-29.325 -17.925 0.525
-29.325 -19.125 2.325
-31.125 -17.325 1.725
-29.925 -19.725 2.325
-29.925 -19.725 0.525
-29.925 -19.725 0.975
-31.725 -19.125 1.725
-31.725 -19.125 1.275
-31.125 -19.725 2.025
-30.525 -17.175 0.825
-30.525 -17.175 1.425
-30.525 -17.175 0.975
-30.525 -19.875 1.725
-30.525 -19.875 5.025
-29.175 -18.375 1.725
-30.375 -17.175 0.975
-30.375 -17.175 1.275
-30.375 -17.175 2.775
-29.625 -17.475 0.825
-29.625 -17.475 1.725
-29.175 -18.225 1.875
-29.175 -18.225 1.725
-29.175 -18.225 1.425
-30.225 -17.175 1.425
-29.175 -18.825 2.325
-31.425 -17.475 1.425
-31.425 -17.475 1.575
-31.575 -17.625 1.125
-29.625 -19.575 2.175
-29.625 -19.575 -0.225
-31.875 -18.225 1.425
-31.425 -19.575 2.175
-31.575 -19.425 1.425
-29.325 -17.775 -2.775
-29.775 -17.325 -0.525
-29.775 -17.325 2.475
-29.325 -19.275 -2.325
-31.275 -17.325 1.875
-29.325 -17.775 0.825
-29.775 -17.325 1.575
-31.725 -19.275 1.725
-31.275 -19.725 2.175
-29.175 -18.075 1.575
-29.175 -18.075 2.025
-30.075 -17.175 0.225
-29.175 -18.975 2.475
-30.975 -19.875 1.575
-29.925 -17.175 2.025
-31.125 -17.175 1.725
-29.925 -19.875 1.725
-29.925 -19.875 1.125
-29.925 -19.875 0.525
-31.125 -19.875 2.625
-31.125 -19.875 -4.875
-31.125 -19.875 5.175
-29.475 -17.475 0.675
-29.625 -17.325 1.275
-29.325 -17.625 2.175
-29.325 -17.625 0.675
-30.525 -17.025 1.425
-30.525 -17.025 1.125
-30.525 -17.025 1.275
-29.325 -19.425 -2.025
-29.325 -19.425 1.875
-29.625 -19.725 -4.275
-29.625 -19.725 -1.125
-29.625 -19.725 0.525
-31.725 -19.425 1.725
-31.725 -19.425 -2.925
-31.425 -19.725 2.175
-31.725 -19.425 0.975
-31.425 -19.725 -2.325
-29.025 -18.375 -1.275
-30.375 -17.025 1.125
-30.375 -17.025 1.425
-30.375 -17.025 1.275
-30.675 -20.025 -0.525
-29.025 -18.225 2.025
-30.225 -20.025 2.175
-29.775 -17.175 1.725
-29.775 -17.175 2.625
-29.775 -17.175 0.525
-31.275 -17.175 1.875
-29.775 -17.175 0.825
-29.175 -17.775 2.025
-29.175 -19.275 -2.025
-31.875 -17.775 0.675
-29.775 -19.875 0.525
-30.075 -17.025 -0.075
-30.075 -17.025 2.175
-29.475 -17.325 0.675
-29.475 -17.325 1.125
-29.325 -19.575 1.575
-29.325 -19.575 0.825
-31.725 -19.575 1.275
-31.725 -19.575 1.725
-31.575 -19.725 2.175
-29.925 -20.025 2.025
-29.025 -17.925 0.075
-29.925 -20.025 -3.075
-29.025 -19.125 -0.075
-29.025 -19.125 -1.425
-31.125 -20.025 1.125
-31.125 -17.025 1.725
-31.125 -17.025 1.575
-29.625 -17.175 1.875
-29.625 -17.175 0.825
-29.175 -19.425 2.025
-30.525 -16.875 2.925
-30.525 -16.875 1.125
-28.875 -18.525 1.125
-28.875 -18.525 2.775
-30.375 -16.875 1.125
-30.375 -16.875 1.575
-30.375 -16.875 1.425
-30.675 -16.875 1.575
-30.675 -16.875 1.425
-28.875 -18.675 2.325
-32.175 -18.675 5.025
-30.675 -16.875 1.875
-30.675 -16.875 1.125
-30.375 -20.175 1.575
-28.875 -18.225 1.725
-30.225 -16.875 1.425
-30.225 -16.875 1.125
-29.775 -20.025 1.875
-31.275 -20.025 1.125
-29.775 -20.025 1.275
-29.775 -20.025 0.375
-31.275 -17.025 2.325
-29.775 -17.025 2.925
-29.325 -17.325 1.725
-29.325 -17.325 0.975
-29.325 -19.725 0.975
-29.325 -19.725 2.025
-31.725 -19.725 1.575
-30.075 -16.875 1.875
-29.175 -19.575 2.925
-30.975 -16.875 1.725
-31.875 -19.575 1.275
-31.875 -19.575 1.725
-30.075 -20.175 2.175
-29.025 -17.625 -3.375
-29.625 -17.025 1.575
-29.625 -20.025 3.075
-29.625 -20.025 -3.675
-28.875 -17.925 1.875
-31.125 -16.875 2.025
-31.125 -16.875 1.725
-29.925 -20.175 0.975
-30.525 -16.725 1.275
-30.525 -16.725 1.125
-28.725 -18.525 -3.825
-28.725 -18.525 -3.525
-30.375 -16.725 1.875
-30.375 -16.725 1.425
-30.375 -16.725 1.125
-30.375 -16.725 1.725
-30.375 -16.725 1.275
-30.675 -16.725 3.225
-30.675 -16.725 0.825
-29.175 -17.325 -0.375
-29.175 -19.725 0.975
-29.175 -19.725 2.325
-29.175 -19.725 2.175
-30.375 -20.325 0.825
-30.375 -20.325 2.025
-30.375 -20.325 -4.125
-29.325 -19.875 0.825
-29.325 -19.875 2.175
-31.875 -19.725 2.475
-31.875 -19.725 1.125
-31.725 -19.875 1.725
-29.775 -16.875 2.925
-32.175 -19.275 1.575
-31.275 -16.875 1.575
-31.275 -16.875 1.875
-31.275 -20.175 1.125
-31.275 -20.175 2.325
-29.775 -20.175 1.725
-29.775 -20.175 -3.825
-29.775 -20.175 -3.975
-28.725 -18.225 2.325
-30.225 -16.725 1.275
-28.725 -18.825 1.875
-30.825 -16.725 1.275
-30.225 -20.325 1.575
-30.225 -20.325 0.375
-30.225 -20.325 0.675
-30.225 -20.325 -0.075
-30.825 -20.325 2.325
-32.325 -18.225 0.075
-32.325 -18.225 0.975
-29.025 -17.475 2.175
-29.475 -17.025 0.675
-29.475 -17.025 0.825
-32.025 -19.575 0.375
-31.575 -20.025 0.225
-29.025 -19.575 3.075
-29.025 -19.575 3.375
-28.725 -18.075 5.025
-30.075 -16.725 0.675
-30.075 -16.725 0.975
-30.075 -16.725 1.575
-28.725 -18.975 3.375
-30.975 -16.725 1.725
-30.975 -16.725 1.425
-30.075 -20.325 4.275
-30.075 -20.325 -0.525
-30.075 -20.325 0.075
-30.075 -20.325 0.525
-30.075 -20.325 1.425
-30.975 -20.325 1.125
-30.975 -20.325 4.725
-32.325 -18.975 1.575
-28.875 -17.625 -0.975
-29.625 -16.875 0.675
-29.625 -16.875 2.775
-29.625 -16.875 -0.675
-32.175 -19.425 1.725
-28.875 -19.425 1.725
-31.425 -16.875 0.675
-29.625 -20.175 0.375
-29.925 -16.725 1.425
-31.125 -16.725 2.325
-31.125 -16.725 -1.125
-29.925 -20.325 0.675
-29.175 -17.175 0.525
-29.175 -17.175 1.575
-29.175 -19.875 0.225
-29.175 -19.875 1.275
-29.175 -19.875 0.975
-29.175 -19.875 0.375
-31.875 -19.875 1.425
-29.025 -17.325 0.675
-29.325 -17.025 -0.525
-29.325 -17.025 0.675
-29.325 -20.025 0.825
-29.025 -19.725 1.275
-29.025 -19.725 1.425
-32.025 -19.725 0.825
-32.025 -19.725 1.875
-29.775 -16.725 0.525
-29.775 -16.725 0.075
-31.275 -16.725 1.725
-29.775 -16.725 2.775
-31.275 -16.725 2.025
-28.575 -18.525 2.325
-28.575 -18.525 0.675
-30.525 -16.575 1.275
-30.525 -16.575 1.125
-29.775 -20.325 1.425
-32.475 -18.525 1.425
-30.525 -20.475 2.025
-32.325 -17.775 0.075
-32.175 -17.475 -2.175
-28.875 -17.475 1.575
-29.475 -16.875 1.125
-29.475 -16.875 0.675
-29.475 -16.875 1.275
-28.575 -18.375 0.825
-30.375 -16.575 1.275
-28.575 -18.675 -3.675
-30.675 -16.575 1.275
-32.475 -18.375 1.275
-30.675 -20.475 2.475
-28.575 -18.225 2.475
-28.575 -18.225 1.125
-30.225 -16.575 0.375
-28.575 -18.825 2.175
-30.825 -16.575 1.725
-30.225 -20.475 1.575
-30.225 -20.475 1.275
-30.825 -20.475 2.025
-32.475 -18.825 1.725
-28.575 -18.075 3.075
-28.575 -18.075 2.325
-30.075 -16.575 2.025
-28.575 -18.975 1.425
-28.575 -18.975 0.075
-30.975 -16.575 1.725
-30.075 -20.475 0.975
-30.075 -20.475 1.275
-30.975 -20.475 2.625
-30.975 -20.475 2.775
-28.725 -17.625 1.425
-29.625 -16.725 0.825
-29.625 -16.725 -0.375
-28.725 -19.425 2.325
-31.425 -20.325 1.125
-32.325 -19.425 5.175
-32.325 -19.425 0.075
-29.175 -17.025 1.425
-29.025 -17.175 -5.025
-29.175 -20.025 0.975
-29.175 -20.025 1.125
-29.175 -20.025 0.675
-29.025 -19.875 0.675
-29.025 -19.875 1.275
-29.025 -19.875 0.975
-31.875 -20.025 0.825
-29.325 -16.875 0.975
-29.925 -16.575 0.975
-29.925 -16.575 0.075
-31.125 -16.575 -1.125
-28.875 -19.725 1.725
-28.875 -19.725 0.675
-32.175 -19.725 -0.075
-29.325 -20.175 4.725
-29.325 -20.175 1.125
-29.925 -20.475 1.275
-29.925 -20.475 -1.725
-29.925 -20.475 0.525
-31.125 -20.475 1.725
-31.125 -20.475 1.125
-31.125 -20.475 -2.025
-31.725 -20.175 0.225
-29.475 -16.725 2.475
-29.475 -16.725 1.275
-29.475 -16.725 1.575
-29.475 -16.725 0.825
-28.725 -17.475 1.875
-28.725 -17.475 3.225
-29.475 -20.325 0.675
-31.575 -20.325 3.225
-28.575 -17.775 1.725
-28.575 -17.775 4.275
-31.275 -20.475 1.125
-28.425 -18.525 2.025
-30.525 -16.425 2.325
-30.525 -16.425 0.225
-30.525 -16.425 0.825
-30.525 -20.625 2.175
-30.375 -16.425 1.125
-30.375 -16.425 1.275
-30.375 -16.425 1.725
-30.675 -16.425 1.875
-28.425 -18.675 2.025
-28.425 -18.675 1.125
-28.425 -18.675 0.675
-32.625 -18.375 1.275
-30.375 -20.625 0.825
-30.375 -20.625 1.575
-30.375 -20.625 2.175
-30.675 -20.625 2.325
-30.225 -16.425 1.125
-30.225 -16.425 0.825
-30.825 -16.425 2.475
-28.425 -18.825 0.975
-28.425 -18.825 0.825
-29.025 -17.025 1.725
-29.025 -20.025 1.275
-29.025 -20.025 1.125
-29.025 -20.025 0.975
-32.025 -20.025 1.275
-32.025 -20.025 2.475
-30.225 -20.625 -0.525
-30.225 -20.625 1.275
-30.825 -20.625 -1.725
-29.175 -16.875 -0.075
-28.875 -17.175 1.875
-28.875 -19.875 1.125
-28.875 -19.875 1.425
-28.875 -19.875 0.825
-28.875 -19.875 1.725
-32.175 -19.875 2.475
-29.175 -20.175 1.125
-31.875 -20.175 -2.625
-31.875 -20.175 3.375
-30.075 -16.425 2.475
-28.575 -17.625 2.775
-29.625 -16.575 1.575
-31.425 -16.575 1.275
-28.575 -19.425 -1.725
-28.575 -19.425 0.975
-30.975 -20.625 2.475
-31.425 -20.475 5.475
-31.425 -20.475 1.125
-29.325 -16.725 0.525
-28.725 -17.325 0.675
-28.725 -19.725 2.625
-28.725 -19.725 2.325
-29.325 -20.325 1.275
-29.325 -20.325 0.825
-32.325 -19.725 2.475
-32.325 -19.725 2.025
-28.425 -17.925 0.825
-28.425 -17.925 0.075
-29.925 -16.425 -0.675
-28.425 -19.125 1.725
-31.125 -16.425 1.875
-29.925 -20.625 0.675
-31.125 -20.625 1.575
-31.125 -20.625 0.825
-31.125 -20.625 1.725
-31.125 -20.625 -2.175
-31.125 -20.625 0.975
-28.575 -17.475 1.125
-28.575 -17.475 2.325
-28.575 -17.475 3.975
-29.475 -16.575 1.125
-29.475 -16.575 2.775
-28.575 -19.575 -1.575
-28.575 -19.575 1.125
-28.425 -17.775 0.825
-28.425 -19.275 1.575
-28.425 -19.275 -0.375
-28.425 -17.775 1.575
-29.775 -16.425 -0.225
-29.775 -16.425 1.875
-31.275 -16.425 1.725
-28.875 -20.025 1.575
-28.875 -17.025 2.025
-28.875 -20.025 0.375
-28.875 -17.025 1.875
-28.875 -20.025 1.125
-28.875 -20.025 1.425
-28.875 -20.025 1.275
-32.175 -17.025 3.075
-31.275 -20.625 1.125
-29.775 -20.625 0.525
-29.025 -20.175 1.125
-29.025 -20.175 0.975
-29.025 -20.175 1.275
-29.025 -20.175 1.425
-29.025 -20.175 0.825
-29.175 -16.725 -2.025
-28.725 -19.875 1.725
-28.725 -19.875 1.575
-29.175 -20.325 0.975
-29.175 -20.325 0.375
-29.175 -20.325 0.675
-29.175 -20.325 0.525
-29.175 -20.325 1.275
-28.275 -18.525 0.825
-30.525 -16.275 1.575
-30.525 -16.275 1.125
-30.525 -20.775 -2.625
-30.525 -20.775 2.925
-30.525 -16.275 1.425
-32.325 -19.875 2.325
-30.375 -16.275 1.425
-28.275 -18.375 1.275
-30.375 -20.775 1.875
-30.375 -20.775 2.325
-28.275 -18.375 1.875
-28.275 -18.675 1.125
-28.275 -18.675 0.825
-28.275 -18.675 0.525
-30.225 -16.275 1.275
-30.225 -20.775 0.375
-30.225 -20.775 0.675
-28.275 -18.825 0.825
-28.275 -18.825 0.675
-28.275 -18.825 0.075
-30.825 -16.275 1.725
-28.275 -18.825 0.525
-30.825 -20.775 2.325
-30.825 -16.275 -2.175
-28.425 -17.625 0.825
-28.425 -17.625 1.575
-28.425 -19.425 2.475
-28.425 -19.425 1.425
-28.425 -19.425 1.125
-28.575 -17.325 1.425
-28.575 -19.725 2.475
-28.575 -19.725 1.275
-29.325 -20.475 -0.075
-29.325 -20.475 0.825
-29.325 -20.475 1.275
-31.725 -20.475 1.275
-28.275 -18.075 1.575
-30.075 -20.775 0.525
-28.275 -18.975 0.825
-28.275 -18.975 2.025
-29.925 -16.275 1.425
-29.925 -16.275 2.775
-29.925 -20.775 0.525
-31.125 -20.775 3.975
-31.125 -16.275 1.425
-31.125 -20.775 1.125
-28.875 -20.175 1.575
-28.875 -20.175 1.725
-28.875 -20.175 -0.075
-28.875 -20.175 0.825
-32.175 -20.175 2.475
-28.725 -17.025 0.675
-29.025 -16.725 1.725
-29.025 -20.325 0.525
-32.325 -20.025 2.475
-32.325 -20.025 2.775
-28.425 -17.475 2.775
-29.475 -16.425 1.275
-29.475 -16.425 1.425
-28.425 -19.575 1.875
-28.425 -19.575 2.475
-28.425 -19.575 1.725
-28.425 -19.575 1.425
-28.425 -19.575 0.825
-29.475 -20.625 0.075
-28.575 -17.175 1.125
-29.175 -16.575 1.275
-29.175 -16.575 0.675
-29.175 -16.575 -0.525
-31.275 -16.275 1.425
-28.275 -17.775 3.075
-28.275 -17.775 1.425
-28.275 -19.275 1.725
-28.275 -17.775 1.875
-28.275 -19.275 1.275
-31.275 -16.275 2.925
-28.275 -19.275 2.325
-28.275 -19.275 1.575
-28.275 -17.775 0.975
-28.275 -17.775 0.825
-29.775 -20.775 0.225
-31.275 -20.775 -0.825
-31.275 -20.775 1.275
-29.775 -16.275 -0.975
-28.575 -19.875 0.975
-28.575 -19.875 -4.425
-28.575 -19.875 1.425
-28.575 -19.875 2.175
-29.175 -20.475 0.375
-29.175 -20.475 0.675
-31.875 -20.475 1.275
-30.525 -16.125 1.425
-30.525 -16.125 1.275
-28.125 -18.525 1.875
-30.525 -20.925 -0.225
-30.375 -16.125 0.825
-30.375 -16.125 1.275
-30.375 -16.125 1.425
-30.375 -16.125 1.575
-28.125 -18.375 -0.675
-28.125 -18.675 0.375
-30.675 -16.125 1.575
-30.375 -20.925 2.175
-30.675 -20.925 2.025
-30.675 -20.925 0.375
-29.325 -16.425 0.675
-29.325 -16.425 0.825
-28.425 -17.325 2.025
-30.225 -16.125 -1.425
-30.225 -16.125 1.275
-30.225 -16.125 1.425
-30.225 -16.125 1.725
-28.125 -18.825 0.825
-28.125 -18.825 1.125
-28.425 -19.725 1.875
-28.425 -19.725 1.125
-28.425 -19.725 0.825
-28.425 -19.725 0.675
-29.325 -20.625 0.975
-29.325 -20.625 1.275
-29.325 -20.625 0.225
-29.325 -20.625 0.375
-29.325 -20.625 0.075
-30.825 -20.925 -0.525
-30.825 -20.925 2.025
-28.275 -17.625 1.875
-29.625 -20.775 -0.375
-29.625 -16.275 0.525
-31.425 -16.275 1.575
-28.275 -19.425 0.975
-28.875 -16.725 1.875
-28.875 -16.725 -3.375
-30.075 -16.125 0.825
-30.975 -16.125 2.175
-30.975 -16.125 0.825
-30.975 -16.125 1.725
-28.125 -18.975 1.575
-28.125 -18.975 -4.425
-28.125 -18.975 0.825
-28.125 -18.975 0.225
-28.125 -18.975 1.875
-28.875 -20.325 1.125
-30.075 -20.925 1.725
-30.075 -20.925 -2.025
-30.075 -20.925 1.575
-30.075 -20.925 1.275
-30.075 -20.925 0.975
-30.975 -20.925 2.175
-30.975 -20.925 2.025
-28.575 -20.025 1.425
-28.575 -20.025 0.975
-29.025 -20.475 1.125
-29.025 -20.475 1.275
-29.025 -20.475 2.325
-29.025 -20.475 0.825
-29.925 -16.125 1.575
-29.925 -16.125 1.875
-29.925 -20.925 1.125
-29.925 -20.925 0.525
-29.925 -20.925 3.525
-31.125 -20.925 1.425
-31.125 -20.925 -1.275
-29.475 -16.275 0.675
-29.475 -16.275 1.125
-28.275 -17.475 0.825
-28.275 -17.475 -4.275
-28.275 -17.475 0.975
-28.275 -19.575 1.125
-28.275 -19.575 1.275
-31.575 -20.775 3.825
-31.575 -16.275 0.975
-29.175 -16.425 0.675
-28.425 -17.175 2.475
-29.175 -20.625 0.525
-29.175 -20.625 1.125
-29.175 -20.625 0.225
-28.125 -17.775 0.675
-31.275 -16.125 1.725
-29.775 -16.125 3.525
-29.775 -16.125 1.275
-28.125 -19.275 0.375
-28.125 -19.275 1.575
-28.125 -19.275 1.725
-31.275 -20.925 -0.825
-29.775 -20.925 1.125
-31.275 -20.925 1.125
-28.725 -20.325 2.175
-28.725 -20.325 1.425
-28.725 -20.325 2.475
-28.725 -20.325 -3.075
-27.975 -18.525 2.025
-30.525 -15.975 0.975
-30.525 -15.975 1.275
-30.525 -15.975 1.125
-30.525 -15.975 1.425
-30.525 -15.975 2.175
-29.325 -20.775 1.275
-28.275 -17.325 0.525
-28.275 -17.325 1.275
-28.275 -17.325 1.125
-28.275 -19.725 1.875
-28.275 -19.725 2.025
-28.275 -19.725 1.125
-33.075 -18.525 1.275
-27.975 -18.675 0.975
-27.975 -18.675 3.375
-28.875 -16.575 1.725
-30.375 -15.975 1.275
-30.375 -15.975 1.425
-30.375 -15.975 1.875
-30.675 -15.975 1.425
-30.675 -15.975 1.275
-30.675 -15.975 1.125
-28.575 -20.175 1.725
-28.575 -20.175 2.025
-28.575 -20.175 1.275
-30.375 -21.075 2.175
-30.375 -21.075 2.025
-30.675 -21.075 2.325
-30.675 -21.075 2.175
-30.675 -21.075 0.975
-30.675 -21.075 0.075
-28.875 -20.475 1.425
-28.875 -20.475 1.275
-28.875 -20.475 1.575
-28.875 -20.475 1.725
-29.625 -16.125 0.825
-29.625 -20.925 1.275
-30.225 -15.975 1.425
-30.225 -15.975 0.975
-30.225 -15.975 1.575
-30.225 -15.975 1.125
-30.825 -15.975 1.425
-30.825 -15.975 1.875
-30.225 -21.075 1.275
-30.225 -21.075 -2.625
-30.225 -21.075 1.575
-30.825 -21.075 2.175
-30.825 -21.075 4.125
-33.075 -18.225 4.425
-28.425 -20.025 0.825
-28.425 -20.025 0.975
-28.425 -20.025 2.325
-29.025 -20.625 1.575
-29.025 -20.625 1.125
-29.025 -20.625 0.975
-27.975 -18.975 0.675
-30.075 -15.975 2.925
-30.075 -15.975 1.125
-30.075 -15.975 1.425
-30.075 -15.975 0.975
-30.975 -15.975 2.025
-30.075 -21.075 4.125
-30.075 -21.075 1.275
-30.975 -21.075 3.825
-29.475 -16.125 0.825
-29.475 -16.125 1.875
-29.925 -15.975 1.875
-28.125 -19.575 -2.775
-31.125 -15.975 2.325
-31.125 -15.975 1.875
-31.575 -20.925 -0.825
-29.175 -16.275 -1.275
-28.275 -17.175 0.075
-28.275 -17.175 1.425
-28.275 -17.175 1.125
-28.275 -17.175 0.675
-29.175 -20.775 0.825
-29.175 -20.775 0.225
-28.275 -19.875 0.975
-28.575 -16.725 -0.375
-28.575 -20.325 0.225
-28.575 -20.325 1.875
-28.725 -20.475 1.125
-32.325 -16.575 3.375
-31.275 -15.975 2.175
-31.275 -15.975 1.875
-31.275 -15.975 2.025
-29.775 -15.975 2.025
-29.775 -21.075 0.525
-31.275 -21.075 2.025
-28.425 -20.175 2.325
-28.425 -20.175 0.375
-28.425 -20.175 0.975
-32.175 -20.625 1.275
-32.175 -20.625 1.425
-28.875 -20.625 1.125
-28.875 -20.625 1.725
-28.875 -20.625 1.275
-29.325 -16.125 1.275
-28.125 -19.725 2.325
-28.125 -19.725 1.875
-28.125 -19.725 1.725
-29.325 -20.925 0.225
-30.525 -15.825 1.125
-30.525 -15.825 1.275
-30.525 -15.825 1.425
-30.525 -15.825 0.675
-27.825 -18.525 1.275
-33.225 -18.525 1.575
-30.525 -21.225 2.025
-30.525 -21.225 2.175
-27.975 -17.625 -5.475
-27.975 -19.425 0.975
-27.975 -19.425 -0.225
-29.625 -15.975 -1.575
-30.375 -15.825 1.875
-30.375 -15.825 1.275
-30.675 -15.825 1.425
-30.675 -15.825 0.825
-30.675 -15.825 2.175
-29.025 -16.275 2.325
-28.275 -17.025 0.825
-28.275 -20.025 0.375
-28.275 -20.025 0.975
-29.025 -20.775 0.375
-29.025 -20.775 2.325
-29.025 -20.775 0.525
-29.025 -20.775 0.975
-29.625 -21.075 0.225
-29.625 -21.075 0.525
-31.425 -21.075 2.925
-31.425 -21.075 -1.875
-31.425 -21.075 0.525
-30.375 -21.225 2.025
-30.375 -21.225 1.575
-30.675 -21.225 2.325
-30.675 -21.225 -0.825
-30.675 -21.225 2.475
-30.225 -15.825 1.125
-27.825 -18.225 -3.075
-27.825 -18.825 0.975
-30.825 -15.825 2.175
-30.225 -21.225 1.575
-30.225 -21.225 0.675
-30.225 -21.225 0.225
-30.225 -21.225 1.275
-30.225 -21.225 -2.175
-30.825 -21.225 2.175
-30.075 -15.825 1.875
-30.075 -15.825 1.275
-30.075 -15.825 -0.075
-30.075 -15.825 1.725
-27.825 -18.075 0.225
-27.825 -18.075 1.875
-30.975 -15.825 -2.325
-30.975 -15.825 2.025
-30.975 -15.825 1.875
-30.075 -21.225 0.675
-30.975 -21.225 3.825
-30.975 -21.225 1.125
-29.175 -16.125 0.675
-28.125 -19.875 1.875
-28.125 -19.875 2.325
-28.125 -19.875 1.275
-29.175 -20.925 0.525
-29.175 -20.925 0.825
-29.175 -20.925 -0.075
-27.975 -17.475 0.075
-27.975 -17.475 0.525
-29.475 -15.975 1.275
-28.575 -16.575 1.875
-31.575 -21.075 3.825
-28.425 -16.725 1.125
-28.425 -20.325 2.325
-29.925 -15.825 2.025
-29.925 -15.825 1.425
-29.925 -15.825 2.325
-28.725 -20.625 1.125
-28.725 -20.625 0.975
-27.825 -19.125 1.425
-29.925 -21.225 -1.725
-28.275 -16.875 1.425
-28.275 -16.875 0.825
-28.875 -20.775 1.425
-28.875 -20.775 1.125
-28.875 -20.775 1.575
-28.875 -20.775 0.825
-28.875 -16.275 2.175
-32.175 -20.775 1.275
-31.275 -15.825 2.175
-29.775 -15.825 1.575
-29.775 -15.825 2.025
-29.775 -15.825 2.925
-31.275 -21.225 2.175
-31.275 -21.225 0.975
-31.275 -21.225 2.025
-29.775 -21.225 0.075
-29.775 -21.225 1.275
-27.975 -17.325 0.525
-29.325 -15.975 0.675
-29.325 -21.075 0.975
-28.125 -20.025 1.575
-28.125 -17.025 0.375
-29.025 -20.925 3.675
-29.025 -20.925 0.675
-29.625 -15.825 0.075
-29.625 -15.825 0.975
-29.625 -15.825 0.375
-31.425 -15.825 2.175
-27.825 -19.425 2.625
-29.625 -21.225 0.975
-29.625 -21.225 1.275
-30.525 -15.675 -0.375
-30.525 -15.675 0.375
-30.525 -15.675 1.125
-30.525 -21.375 3.225
-30.675 -15.675 1.425
-33.375 -18.375 1.425
-30.375 -21.375 -2.025
-30.675 -21.375 2.475
-30.675 -21.375 2.625
-30.675 -21.375 2.325
-30.225 -15.675 1.575
-30.225 -15.675 -0.825
-28.425 -16.575 1.275
-28.575 -20.625 0.375
-28.575 -20.625 -1.275
-30.225 -21.375 0.375
-30.225 -21.375 0.525
-30.825 -21.375 2.775
-28.275 -16.725 0.825
-28.275 -16.725 1.275
-32.775 -20.325 2.025
-28.275 -20.325 1.575
-30.075 -15.675 0.825
-30.075 -15.675 1.875
-30.075 -15.675 1.425
-30.075 -15.675 0.975
-27.975 -19.875 -3.975
-27.975 -19.875 1.875
-29.175 -15.975 0.675
-30.975 -15.675 2.175
-29.175 -21.075 2.175
-30.075 -21.375 0.525
-30.975 -21.375 2.325
-30.975 -21.375 1.725
-30.975 -21.375 1.425
-29.475 -15.825 1.275
-29.475 -21.225 0.825
-29.475 -21.225 -0.675
-29.925 -15.675 0.825
-29.925 -15.675 3.075
-31.125 -15.675 1.275
-31.125 -15.675 2.175
-31.125 -15.675 1.875
-31.125 -15.675 2.025
-28.125 -16.875 0.375
-27.675 -19.125 2.325
-28.125 -20.175 0.225
-29.925 -21.375 0.975
-31.125 -21.375 3.075
-31.125 -21.375 0.825
-31.125 -21.375 0.975
-29.775 -15.675 1.575
-29.775 -15.675 2.175
-31.275 -15.675 -1.575
-31.275 -15.675 2.475
-31.275 -15.675 1.875
-31.275 -21.375 0.525
-31.275 -21.375 2.025
-31.275 -21.375 1.725
-29.775 -21.375 -2.175
-29.775 -21.375 2.325
-29.325 -15.825 0.675
-27.825 -19.725 3.075
-27.825 -19.725 1.425
-27.825 -19.725 1.725
-27.975 -20.025 1.425
-27.975 -17.025 0.675
-29.025 -15.975 1.725
-29.025 -21.075 0.525
-28.425 -16.425 0.975
-28.425 -20.625 0.975
-28.275 -16.575 0.075
-28.275 -16.575 1.275
-28.275 -16.575 0.825
-28.575 -20.775 4.725
-32.475 -20.775 2.325
-32.475 -16.275 1.575
-29.625 -15.675 1.875
-29.625 -15.675 1.425
-31.425 -15.675 1.425
-29.625 -21.375 -0.075
-29.625 -21.375 1.425
-29.625 -21.375 0.825
-28.125 -16.725 0.525
-28.125 -16.725 0.825
-28.125 -16.725 2.625
-30.525 -15.525 0.375
-30.525 -15.525 1.425
-30.525 -21.525 -1.275
-32.325 -16.125 1.725
-30.375 -15.525 1.275
-30.375 -15.525 -2.175
-30.375 -15.525 1.425
-30.675 -15.525 0.075
-30.675 -15.525 1.875
-30.375 -21.525 1.875
-30.375 -21.525 1.125
-33.525 -18.675 -2.775
-33.525 -18.675 -2.925
-30.675 -21.525 0.375
-30.675 -21.525 1.725
-30.225 -15.525 1.275
-30.225 -15.525 2.025
-30.825 -15.525 2.025
-33.525 -18.225 0.075
-30.225 -21.525 0.975
-30.225 -21.525 3.225
-30.825 -21.525 -0.675
-30.825 -21.525 2.025
-30.825 -21.525 1.875
-30.825 -21.525 0.975
-27.825 -17.175 0.075
-27.825 -17.175 0.375
-27.825 -19.875 1.425
-29.175 -21.225 2.475
-29.175 -21.225 1.875
-30.075 -15.525 1.575
-30.075 -15.525 0.225
-30.075 -15.525 1.425
-30.075 -15.525 2.625
-30.075 -21.525 0.675
-30.075 -21.525 0.525
-30.075 -21.525 1.125
-30.975 -21.525 1.125
-30.975 -21.525 2.025
-30.975 -21.525 1.725
-27.975 -16.875 0.975
-27.675 -17.475 0.225
-29.475 -15.675 2.025
-29.475 -15.675 0.825
-29.475 -15.675 0.525
-29.475 -15.675 0.375
-31.575 -15.675 1.425
-28.875 -21.075 1.875
-29.475 -21.375 0.975
-29.475 -21.375 2.625
-29.475 -21.375 1.725
-29.475 -21.375 0.825
-31.575 -21.375 0.825
-29.925 -15.525 1.575
-29.925 -15.525 0.675
-31.125 -15.525 2.025
-29.925 -21.525 2.025
-31.125 -21.525 0.225
-31.125 -21.525 0.375
-31.125 -21.525 1.125
-31.125 -21.525 0.825
-31.125 -21.525 0.975
-28.275 -16.425 1.875
-28.275 -16.425 1.275
-28.275 -16.425 0.075
-28.275 -16.425 1.425
-28.425 -20.775 0.675
-28.425 -16.275 0.975
-28.425 -16.275 0.825
-28.425 -16.275 1.575
-28.275 -20.625 0.375
-27.825 -17.025 0.975
-29.025 -15.825 -4.125
-29.025 -21.225 1.725
-32.025 -21.225 2.025
-29.325 -15.675 0.825
-29.775 -15.525 1.125
-31.275 -15.525 1.725
-28.125 -16.575 0.375
-28.125 -16.575 0.975
-28.125 -16.575 0.825
-31.275 -21.525 0.825
-31.275 -21.525 -1.875
-31.275 -21.525 0.675
-31.275 -21.525 0.975
-29.775 -21.525 1.575
-29.325 -21.375 1.125
-29.325 -21.375 0.975
-29.325 -21.375 0.825
-29.325 -21.375 0.675
-29.325 -21.375 0.225
-29.325 -21.375 2.925
-31.725 -21.375 0.075
-31.725 -21.375 -0.675
-27.975 -16.725 0.975
-27.975 -16.725 -0.375
-29.625 -15.525 2.025
-31.425 -15.525 1.725
-29.625 -21.525 1.725
-31.425 -21.525 0.675
-30.525 -15.375 1.125
-30.525 -15.375 1.425
-30.525 -15.375 1.275
-30.525 -15.375 1.575
-30.525 -21.675 2.475
-30.525 -21.675 2.175
-30.525 -21.675 1.725
-29.175 -15.675 0.375
-29.175 -15.675 -0.075
-30.375 -15.375 1.275
-30.375 -15.375 2.475
-30.375 -15.375 0.225
-30.375 -15.375 1.575
-30.675 -15.375 1.275
-29.175 -21.375 2.175
-29.175 -21.375 1.275
-30.375 -21.675 0.375
-30.375 -21.675 2.325
-30.375 -21.675 2.175
-30.375 -21.675 0.675
-30.675 -21.675 0.225
-30.675 -21.675 -0.225
-30.225 -15.375 1.275
-30.825 -15.375 1.725
-30.825 -15.375 1.875
-27.375 -18.825 2.475
-28.875 -15.825 1.875
-28.875 -21.225 1.725
-28.875 -21.225 1.575
-30.225 -21.675 1.125
-30.825 -21.675 2.175
-30.825 -21.675 -0.075
-30.825 -21.675 -4.725
-29.475 -15.525 0.375
-29.475 -15.525 2.025
-29.475 -21.525 -0.825
-29.475 -21.525 0.825
-29.475 -21.525 1.125
-33.525 -19.575 0.825
-31.575 -21.525 1.425
-31.575 -21.525 0.675
-30.075 -15.375 0.075
-30.075 -15.375 1.275
-27.375 -18.975 2.325
-28.275 -20.775 0.825
-28.275 -20.775 1.725
-28.275 -20.775 1.575
-28.275 -16.275 -0.375
-32.775 -20.775 2.175
-30.075 -21.675 0.975
-30.075 -21.675 0.675
-28.425 -16.125 0.825
-28.425 -16.125 0.975
-28.125 -16.425 0.675
-28.425 -20.925 3.525
-28.425 -20.925 1.575
-29.925 -15.375 1.725
-31.125 -15.375 1.875
-31.125 -15.375 2.625
-31.125 -15.375 1.725
-29.925 -21.675 0.525
-31.125 -21.675 0.975
-27.975 -16.575 0.225
-27.975 -16.575 0.375
-28.575 -21.075 2.325
-29.025 -15.675 0.975
-27.675 -17.025 0.675
-29.025 -21.375 1.575
-29.025 -21.375 1.725
-29.325 -21.525 0.975
-29.325 -21.525 1.425
-29.325 -21.525 0.825
-29.325 -21.525 -0.975
-27.525 -19.725 1.425
-31.725 -21.525 1.575
-31.725 -21.525 0.825
-29.775 -15.375 1.125
-29.775 -15.375 1.725
-29.775 -15.375 -1.575
-31.275 -15.375 2.025
-31.275 -21.675 1.125
-31.275 -21.675 1.425
-31.275 -21.675 0.975
-27.825 -16.725 2.475
-27.825 -16.725 0.225
-28.725 -15.825 -1.875
-32.325 -15.825 0.975
-32.325 -21.225 0.975
-29.625 -15.375 3.075
-29.625 -21.675 1.875
-31.425 -21.675 1.125
-31.425 -21.675 1.275
-31.425 -21.675 0.825
-29.175 -15.525 0.675
-29.175 -21.525 2.175
-28.275 -16.125 0.675
-28.275 -16.125 1.125
-28.275 -16.125 1.275
-27.525 -17.175 0.225
-29.175 -21.525 1.875
-28.125 -20.775 0.975
-28.275 -20.925 1.725
-28.875 -15.675 1.875
-27.675 -16.875 0.825
-32.175 -21.375 1.575
-32.175 -21.375 1.125
-30.525 -15.225 2.025
-30.525 -15.225 1.125
-30.525 -15.225 1.575
-30.525 -15.225 0.675
-28.425 -15.975 0.675
-27.975 -20.625 -3.375
-30.375 -15.225 -2.025
-30.375 -15.225 1.275
-30.375 -15.225 2.475
-30.675 -15.225 1.575
-30.675 -15.225 1.125
-30.675 -15.225 0.375
-30.675 -15.225 0.975
-30.375 -21.825 -0.675
-30.375 -21.825 2.025
-30.675 -21.825 -0.075
-30.675 -21.825 0.075
-30.225 -15.225 1.275
-30.225 -15.225 2.175
-30.225 -15.225 1.125
-30.825 -15.225 1.725
-30.225 -21.825 1.275
-30.225 -21.825 0.975
-30.225 -21.825 0.675
-30.825 -21.825 0.225
-29.475 -15.375 0.825
-29.475 -15.375 2.775
-31.575 -15.375 1.425
-29.475 -21.675 0.675
-29.475 -21.675 1.575
-29.475 -21.675 0.375
-31.575 -21.675 1.275
-30.075 -15.225 0.075
-30.075 -15.225 -0.075
-30.975 -15.225 1.725
-30.075 -21.825 -4.275
-30.075 -21.825 0.525
-30.075 -21.825 0.225
-30.075 -21.825 2.175
-28.575 -21.225 0.675
-32.025 -15.525 1.725
-29.925 -15.225 2.625
-29.925 -15.225 1.275
-31.125 -15.225 2.475
-31.125 -15.225 1.575
-27.525 -17.025 0.825
-29.025 -21.525 2.175
-29.025 -21.525 1.575
-29.025 -21.525 1.275
-29.025 -21.525 1.725
-29.925 -21.825 0.975
-29.925 -21.825 2.025
-27.675 -16.725 0.075
-28.725 -15.675 1.125
-28.725 -15.675 0.975
-27.375 -17.325 -0.075
-29.325 -15.375 1.275
-29.325 -15.375 0.825
-29.325 -15.375 1.725
-27.675 -20.325 1.275
-31.725 -15.375 0.825
-28.725 -21.375 -0.525
-28.725 -21.375 2.025
-28.725 -21.375 0.975
-33.675 -19.725 0.825
-29.325 -21.675 0.825
-29.325 -21.675 1.275
-29.325 -21.675 0.975
-31.725 -21.675 0.825
-31.725 -21.675 0.975
-32.325 -21.375 1.725
-31.275 -21.825 1.575
-29.775 -21.825 1.125
-28.125 -16.125 0.075
-28.125 -16.125 0.225
-33.075 -20.775 3.075
-27.225 -19.425 2.475
-28.425 -15.825 3.525
-29.625 -21.825 0.975
-29.625 -21.825 -1.275
-31.425 -21.825 1.425
-28.875 -21.525 1.575
-28.875 -21.525 2.175
-29.175 -15.375 -0.075
-29.175 -15.375 1.875
-29.175 -15.375 1.425
-29.175 -21.675 1.725
-31.875 -21.675 0.975
-30.525 -15.075 1.125
-30.525 -15.075 2.475
-27.075 -18.525 -4.575
-30.525 -21.975 1.125
-30.525 -21.975 2.325
-30.525 -21.975 -0.225
-28.575 -15.675 1.425
-30.375 -15.075 1.125
-30.375 -15.075 1.275
-27.075 -18.375 -1.725
-30.675 -15.075 1.575
-27.675 -20.475 1.425
-28.575 -21.375 2.925
-30.375 -21.975 0.075
-30.375 -21.975 2.325
-30.375 -21.975 2.175
-30.375 -21.975 1.725
-30.375 -21.975 1.275
-32.475 -21.375 1.725
-30.675 -21.975 -0.075
-30.675 -21.975 0.075
-27.225 -17.475 -0.825
-29.475 -15.225 0.525
-29.475 -15.225 0.825
-29.475 -15.225 2.025
-29.475 -15.225 1.725
-30.225 -15.075 1.875
-30.225 -15.075 1.425
-30.225 -15.075 1.275
-30.825 -15.075 0.825
-30.825 -15.075 1.425
-29.475 -21.825 0.975
-29.475 -21.825 1.125
-29.475 -21.825 0.675
-29.475 -21.825 -0.375
-29.475 -21.825 -0.675
-31.575 -21.825 0.975
-31.575 -21.825 2.325
-30.225 -21.975 1.875
-30.225 -21.975 1.125
-30.225 -21.975 2.325
-30.225 -21.975 0.225
-30.825 -21.975 -0.525
-30.075 -15.075 0.075
-27.075 -18.075 5.925
-30.975 -15.075 1.725
-30.075 -21.975 0.525
-30.975 -21.975 1.275
-29.025 -15.375 -0.075
-29.025 -21.675 1.275
-29.025 -21.675 2.175
-29.025 -21.675 1.425
-28.725 -15.525 2.175
-32.325 -21.525 1.575
-32.325 -21.525 1.875
-32.325 -21.525 1.425
-27.975 -16.125 0.375
-28.125 -15.975 0.975
-29.925 -15.075 1.875
-29.925 -15.075 1.275
-31.125 -15.075 1.725
-31.125 -15.075 1.875
-27.975 -20.925 0.975
-28.125 -21.075 0.825
-29.925 -21.975 0.525
-31.125 -21.975 -0.075
-31.125 -21.975 -1.125
-31.125 -21.975 -0.375
-31.125 -21.975 2.775
-31.125 -21.975 2.325
-31.125 -21.975 0.975
-31.125 -21.975 -0.225
-33.075 -20.925 -1.725
-29.325 -15.225 1.875
-29.325 -15.225 1.725
-29.325 -15.225 0.825
-29.325 -15.225 1.575
-29.325 -15.225 2.025
-29.325 -21.825 -0.675
-29.325 -21.825 0.825
-29.325 -21.825 0.975
-32.775 -15.825 -0.375
-28.275 -15.825 1.275
-29.775 -15.075 1.875
-29.775 -15.075 2.025
-31.275 -15.075 1.575
-31.275 -15.075 1.425
-31.275 -21.975 0.675
-31.275 -21.975 1.725
-31.275 -21.975 1.575
-31.275 -21.975 -0.225
-28.425 -15.675 0.825
-27.675 -20.625 1.575
-27.375 -16.875 0.975
-27.375 -16.875 1.725
-28.875 -15.375 1.575
-28.875 -21.675 0.075
-28.875 -21.675 1.725
-27.225 -17.175 0.825
-29.175 -15.225 2.325
-29.625 -15.075 0.525
-29.625 -15.075 -3.225
-29.625 -15.075 0.075
-29.175 -21.825 1.425
-31.875 -21.825 0.975
-31.425 -21.975 0.975
-31.425 -21.975 2.775
-31.425 -21.975 1.125
-31.425 -21.975 1.425
-28.575 -15.525 0.975
-28.575 -15.525 0.675
-27.525 -16.575 1.275
-33.525 -16.575 1.575
-30.525 -14.925 2.475
-30.525 -22.125 -1.875
-30.525 -22.125 1.725
-30.525 -22.125 -0.075
-30.375 -14.925 2.475
-30.375 -14.925 1.275
-30.375 -14.925 1.425
-30.375 -14.925 1.125
-30.375 -22.125 0.675
-30.375 -22.125 0.075
-30.375 -22.125 -0.075
-30.675 -22.125 -0.075
-30.675 -22.125 0.075
-30.675 -22.125 1.425
-27.975 -15.975 1.725
-27.975 -15.975 1.125
-27.975 -15.975 0.225
-29.475 -15.075 2.025
-27.975 -21.075 0.675
-29.475 -21.975 -0.075
-29.475 -21.975 0.225
-31.575 -21.975 4.425
-31.575 -21.975 1.425
-31.575 -21.975 0.975
-31.575 -21.975 2.325
-33.075 -21.075 3.975
-30.225 -14.925 0.075
-30.225 -14.925 1.425
-30.825 -14.925 0.675
-26.925 -18.825 2.925
-28.125 -15.825 0.375
-30.225 -22.125 -0.225
-30.225 -22.125 0.825
-30.225 -22.125 2.325
-30.225 -22.125 2.175
-28.125 -21.225 2.175
-27.225 -17.025 1.575
-29.025 -15.225 1.575
-29.025 -15.225 1.725
-29.025 -15.225 0.825
-29.025 -21.825 0.675
-32.025 -21.825 1.125
-28.725 -15.375 0.825
-30.975 -14.925 2.025
-30.975 -14.925 2.175
-30.975 -14.925 1.875
-27.375 -20.325 -1.725
-30.075 -22.125 1.575
-30.975 -22.125 0.225
-30.975 -22.125 2.325
-30.975 -22.125 1.725
-30.975 -22.125 3.225
-32.325 -21.675 1.875
-32.325 -21.675 2.025
-28.275 -15.675 0.975
-28.275 -15.675 1.125
-28.275 -15.675 1.425
-28.275 -15.675 1.275
-29.925 -14.925 -0.075
-29.925 -14.925 0.825
-31.125 -14.925 1.425
-31.125 -14.925 2.325
-26.925 -19.125 -2.925
-29.925 -22.125 -1.275
-29.925 -22.125 -0.075
-31.125 -22.125 0.075
-29.325 -15.075 1.875
-29.325 -15.075 1.275
-31.725 -21.975 1.725
-31.725 -21.975 0.075
-28.425 -15.525 -0.225
-28.425 -15.525 1.275
-28.425 -15.525 0.525
-28.425 -15.525 1.425
-27.525 -16.425 -3.525
-27.525 -16.425 1.275
-28.425 -21.525 1.425
-27.525 -20.625 1.575
-27.525 -20.625 3.375
-29.775 -14.925 -0.225
-31.275 -14.925 1.875
-31.275 -14.925 1.575
-31.275 -22.125 0.075
-31.275 -22.125 -0.225
-31.275 -22.125 0.975
-31.275 -22.125 1.425
-31.275 -22.125 2.475
-31.275 -22.125 1.125
-31.275 -22.125 3.525
-31.275 -22.125 0.525
-29.775 -22.125 1.875
-29.775 -22.125 0.075
-28.875 -15.225 2.175
-28.875 -15.225 -3.225
-28.875 -15.225 1.725
-27.225 -20.175 1.725
-28.875 -21.825 -0.525
-27.375 -16.575 1.725
-28.575 -15.375 0.675
-29.175 -15.075 1.425
-29.175 -15.075 -0.225
-29.175 -15.075 2.175
-29.175 -15.075 0.675
-27.075 -17.175 1.275
-28.575 -21.675 -0.225
-29.175 -21.975 0.525
-31.875 -21.975 2.775
-29.625 -22.125 -0.225
-31.425 -22.125 1.125
-31.425 -22.125 2.475
-31.425 -22.125 0.975
-27.975 -15.825 0.375
-27.825 -21.075 0.525
-28.125 -15.675 0.075
-28.125 -15.675 0.225
-27.675 -16.125 -0.525
-29.475 -14.925 -0.675
-29.475 -14.925 0.825
-31.575 -14.925 1.575
-28.275 -15.525 0.825
-28.275 -15.525 1.425
-28.275 -15.525 1.275
-28.275 -15.525 0.975
-28.275 -15.525 -0.375
-27.525 -20.775 1.875
-28.275 -21.525 0.675
-32.775 -21.525 1.575
-32.775 -21.525 0.675
-29.475 -22.125 0.075
-31.575 -22.125 2.175
-31.575 -22.125 1.575
-34.125 -19.575 -1.425
-30.375 -14.775 1.425
-30.375 -14.775 1.575
-30.375 -22.275 1.575
-30.375 -22.275 2.325
-30.375 -22.275 0.375
-26.775 -18.675 3.075
-30.675 -22.275 -0.375
-28.725 -15.225 1.875
-30.225 -14.775 1.575
-30.225 -14.775 1.425
-29.025 -15.075 1.725
-27.075 -17.025 2.625
-30.225 -22.275 0.675
-30.225 -22.275 1.275
-30.225 -22.275 2.025
-30.225 -22.275 2.175
-30.825 -22.275 -0.375
-30.825 -22.275 -0.225
-32.025 -21.975 2.325
-30.075 -14.775 -2.325
-30.975 -14.775 1.875
-30.075 -22.275 -0.525
-30.075 -22.275 2.475
-30.075 -22.275 1.275
-30.075 -22.275 -0.375
-30.075 -22.275 0.675
-30.975 -22.275 2.325
-30.975 -22.275 -0.225
-30.975 -22.275 2.175
-30.975 -22.275 1.575
-30.975 -22.275 1.125
-28.425 -15.375 0.675
-28.425 -15.375 0.825
-28.425 -15.375 0.975
-28.425 -15.375 0.525
-29.325 -14.925 1.275
-29.325 -14.925 0.825
-31.725 -22.125 1.575
-31.725 -22.125 2.625
-31.725 -22.125 2.775
-31.725 -22.125 2.475
-31.725 -22.125 1.725
-29.925 -14.775 3.525
-31.125 -14.775 2.025
-29.925 -22.275 0.225
-29.925 -22.275 -0.075
-29.775 -14.775 2.625
-29.775 -14.775 2.475
-31.275 -14.775 1.725
-31.275 -14.775 1.875
-28.875 -15.075 2.025
-28.875 -15.075 1.275
-27.975 -21.375 0.075
-31.275 -22.275 1.875
-29.775 -22.275 0.375
-29.775 -22.275 1.875
-32.175 -21.975 -0.075
-32.175 -21.975 1.125
-28.575 -15.225 1.575
-28.575 -21.825 1.575
-28.575 -21.825 0.225
-32.475 -15.225 3.225
-28.125 -15.525 1.275
-28.125 -15.525 0.975
-28.125 -15.525 0.075
-28.125 -21.525 -3.375
-28.125 -21.525 0.825
-29.175 -14.925 1.125
-29.175 -14.925 1.275
-29.175 -14.925 1.875
-29.175 -22.125 1.575
-29.175 -22.125 1.275
-29.625 -14.775 -0.075
-31.425 -22.275 2.025
-31.425 -22.275 0.525
-28.275 -15.375 0.825
-28.275 -15.375 0.675
-28.275 -21.675 1.575
-28.275 -21.675 1.425
-32.775 -21.675 1.275
-32.775 -21.675 -1.125
-32.775 -21.675 2.175
-27.075 -20.325 1.725
-29.475 -14.775 0.525
-29.475 -14.775 2.925
-29.475 -14.775 0.825
-26.775 -19.575 0.525
-31.575 -22.275 1.575
-29.025 -14.925 0.675
-29.025 -14.925 0.825
-29.025 -14.925 2.025
-32.025 -14.925 1.425
-32.025 -14.925 0.675
-30.525 -14.625 1.425
-30.525 -14.625 0.225
-32.025 -22.125 2.475
-29.025 -22.125 1.575
-30.525 -22.425 2.775
-30.525 -22.425 -0.075
-30.525 -22.425 1.725
-30.525 -22.425 2.025
-30.375 -14.625 1.125
-30.375 -14.625 0.675
-30.375 -14.625 1.275
-30.375 -14.625 1.425
-30.375 -14.625 -0.825
-30.375 -22.425 1.275
-30.375 -22.425 2.175
-30.675 -22.425 2.625
-28.425 -15.225 0.825
-28.425 -15.225 0.675
-28.425 -15.225 1.125
-28.425 -15.225 -0.525
-30.225 -14.625 0.975
-30.225 -14.625 1.425
-27.225 -20.625 1.425
-30.225 -14.625 1.725
-30.825 -14.625 2.175
-32.625 -21.825 1.575
-30.225 -22.425 1.275
-30.225 -22.425 0.225
-30.225 -22.425 1.125
-30.825 -22.425 -0.525
-30.825 -22.425 -0.225
-30.825 -22.425 -0.075
-30.075 -14.625 2.025
-30.075 -22.425 0.525
-30.075 -22.425 2.325
-30.075 -22.425 1.875
-30.975 -22.425 -0.375
-30.975 -22.425 -0.225
-29.325 -14.775 0.975
-29.325 -14.775 1.875
-29.325 -14.775 2.175
-29.325 -22.275 0.525
-27.525 -21.075 -2.325
-31.725 -22.275 2.625
-33.075 -21.525 0.975
-33.075 -21.525 1.125
-26.625 -17.925 3.375
-29.925 -14.625 1.875
-29.925 -14.625 -0.075
-34.425 -17.925 -2.625
-29.925 -14.625 2.475
-29.925 -22.425 0.525
-29.925 -22.425 1.125
-29.925 -22.425 -0.075
-29.925 -22.425 0.975
-28.875 -14.925 1.875
-28.125 -15.375 -0.675
-28.125 -15.375 0.375
-28.125 -15.375 1.275
-32.175 -22.125 2.925
-32.175 -22.125 1.425
-28.125 -21.675 3.075
-28.575 -15.075 2.925
-28.575 -15.075 1.275
-27.075 -20.475 3.525
-29.775 -14.625 2.325
-29.775 -14.625 2.775
-29.775 -14.625 3.075
-31.275 -14.625 1.725
-29.775 -14.625 1.125
-31.275 -22.425 2.175
-29.775 -22.425 0.825
-29.175 -14.775 0.825
-29.175 -14.775 1.275
-26.775 -17.175 2.025
-31.875 -22.275 2.175
-27.225 -16.275 -0.675
-28.275 -15.225 -0.825
-28.275 -15.225 1.425
-28.275 -15.225 0.075
-28.275 -15.225 0.975
-28.275 -21.825 1.125
-28.275 -21.825 1.875
-28.275 -21.825 0.375
-31.425 -22.425 1.275
-32.325 -14.925 3.375
-32.325 -22.125 2.475
-27.675 -21.375 2.025
-27.825 -15.525 -0.075
-27.825 -15.525 -0.375
-27.525 -15.825 1.125
-27.825 -21.525 1.275
-27.525 -15.825 0.375
-29.475 -14.625 2.175
-29.475 -14.625 1.275
-28.425 -15.075 0.975
-28.425 -15.075 1.275
-28.425 -15.075 1.125
-32.025 -22.275 2.775
-32.025 -22.275 2.625
-32.025 -22.275 1.275
-28.425 -21.975 1.425
-32.625 -21.975 2.475
-30.525 -14.475 0.975
-30.525 -14.475 1.575
-30.525 -22.575 -0.225
-27.975 -15.375 1.275
-30.675 -14.475 1.725
-30.375 -14.475 1.125
-30.375 -14.475 1.275
-27.975 -21.675 0.225
-30.375 -22.575 0.675
-30.225 -14.475 1.275
-30.225 -14.475 0.225
-30.225 -14.475 1.125
-30.825 -14.475 0.675
-30.225 -22.575 0.825
-30.225 -22.575 2.325
-30.825 -22.575 -0.375
-30.075 -14.475 -0.225
-30.075 -14.475 1.725
-30.975 -14.475 2.025
-30.975 -14.475 2.325
-30.075 -22.575 1.275
-30.075 -22.575 -1.125
-30.975 -22.575 -0.225
-30.975 -22.575 -0.075
-27.225 -16.125 0.525
-29.325 -14.625 -1.725
-29.325 -14.625 1.875
-32.925 -15.225 1.275
