# .PCD v0.7 - Point Cloud Data file format
VERSION 0.7
FIELDS x y z
SIZE 4 4 4
TYPE F F F
COUNT 1 1 1
WIDTH 2048
HEIGHT 1
VIEWPOINT 0 0 0 1 0 0 0
POINTS 2048
DATA ascii
-77.775 82.875 -0.675
-77.925 83.175 0.825
-77.775 83.325 1.575
-77.925 83.325 1.275
-77.925 82.725 -0.525
-77.925 82.725 -0.375
-77.475 82.875 1.275
-77.475 83.325 0.825
-77.475 83.325 0.975
-77.475 83.325 1.275
-77.475 82.725 -0.975
-78.225 83.025 -0.675
-77.325 83.025 0.225
-77.325 83.025 0.975
-77.325 83.025 1.125
-77.925 83.475 1.425
-77.625 83.475 0.675
-77.475 83.475 0.675
-77.325 83.325 0.825
-78.075 82.575 1.575
-77.175 83.025 0.825
-77.775 82.425 -0.675
-77.175 83.025 0.975
-77.925 83.625 1.425
-77.175 83.175 1.125
-77.175 83.175 1.275
-77.625 82.425 -0.375
-77.325 83.475 1.275
-77.325 83.475 1.125
-77.325 82.575 3.375
-78.375 82.725 0.525
-78.375 83.475 1.275
-78.375 83.475 -0.375
-78.225 83.625 0.975
-78.225 83.625 1.275
-78.225 82.425 -0.975
-77.775 82.275 -0.525
-77.775 83.775 1.275
-77.175 82.575 0.525
-77.175 82.575 0.825
-78.525 83.175 -0.825
-77.925 82.275 -0.525
-77.925 82.275 2.025
-77.925 82.275 1.425
-77.925 82.275 -0.825
-77.925 83.775 0.975
-77.625 82.275 0.975
-77.625 83.775 -2.325
-78.525 82.875 -0.975
-77.025 82.875 0.375
-77.625 83.775 1.275
-78.075 83.775 0.975
-77.025 83.325 0.375
-77.025 83.325 -0.075
-78.075 83.775 1.275
-78.075 83.775 1.125
-77.025 82.725 0.675
-77.025 82.725 0.375
-77.175 82.425 0.975
-78.225 83.775 1.275
-78.225 83.775 -0.075
-78.525 83.475 -0.825
-78.525 82.575 -0.675
-77.025 82.575 0.675
-77.325 83.775 -0.225
-78.525 82.575 0.375
-77.325 83.775 1.125
-77.775 83.925 0.675
-77.925 83.925 1.275
-77.925 83.925 0.825
-77.925 83.925 1.425
-76.875 83.175 0.075
-77.625 82.125 -0.375
-76.875 82.875 1.575
-78.075 83.925 1.425
-78.075 82.125 0.525
-76.875 82.725 0.825
-76.875 82.725 0.975
-78.375 82.275 -0.825
-78.525 82.425 0.975
-77.175 82.275 0.825
-77.025 82.425 0.975
-78.225 83.925 1.725
-78.675 82.575 0.525
-78.225 82.125 0.525
-77.325 82.125 -0.075
-76.875 82.575 0.525
-76.875 82.575 0.675
-78.825 83.025 0.525
-77.775 81.975 1.725
-78.825 82.875 0.525
-78.825 82.875 -0.975
-77.025 82.275 0.825
-77.025 82.275 -0.075
-76.725 83.175 0.075
-78.375 83.925 1.275
-78.675 82.425 0.525
-78.675 82.425 0.825
-78.675 82.425 -0.975
-78.375 82.125 0.525
-76.875 82.425 0.975
-77.175 82.125 0.225
-76.875 82.425 0.675
-78.075 84.075 0.975
-77.475 84.075 0.825
-78.825 82.725 0.825
-77.475 84.075 0.525
-78.225 84.075 1.125
-78.825 82.575 0.525
-77.325 84.075 0.675
-78.825 82.575 0.225
-78.225 81.975 -0.375
-76.725 82.575 0.825
-78.525 82.125 0.675
-77.025 82.125 0.525
-77.025 82.125 0.225
-76.875 82.275 0.675
-77.025 82.125 0.975
-77.775 84.225 0.675
-78.975 83.025 0.825
-77.925 84.225 -0.675
-78.825 83.625 -0.825
-78.825 82.425 -0.975
-78.825 82.425 0.525
-78.375 81.975 -0.975
-76.725 82.425 0.975
-78.975 83.325 0.525
-78.975 82.725 0.525
-76.575 83.325 0.225
-78.075 81.825 -0.675
-77.475 81.825 0.075
-76.875 82.125 0.825
-76.875 82.125 0.975
-76.875 82.125 0.525
-78.975 83.475 1.725
-77.325 84.225 -0.225
-76.575 83.475 0.225
-77.025 81.975 1.425
-76.725 82.275 0.825
-76.725 82.275 1.275
-78.525 81.975 0.225
-78.525 81.975 0.525
-77.025 81.975 1.125
-78.375 81.825 0.975
-79.125 83.025 0.525
-77.775 84.375 0.825
-79.125 83.175 0.525
-77.625 84.375 0.825
-79.125 82.875 0.675
-77.925 81.675 -0.525
-78.825 83.925 1.575
-78.075 84.375 0.825
-77.475 84.375 0.675
-79.125 82.725 0.225
-76.425 83.325 0.675
-77.475 81.675 -0.375
-76.725 82.125 0.975
-76.875 81.975 0.525
-76.725 82.125 0.525
-79.125 83.475 -0.975
-77.325 84.375 -0.375
-77.325 84.375 -0.075
-79.125 83.625 2.325
-76.725 84.075 3.525
-76.725 81.975 0.675
-76.725 81.975 0.975
-76.725 81.975 0.525
-79.275 83.025 0.675
-77.775 84.525 0.525
-79.275 83.025 0.225
-79.275 83.025 0.525
-76.575 82.125 0.675
-76.575 82.125 0.225
-76.575 82.125 0.975
-76.875 81.825 0.975
-77.925 81.525 -1.425
-79.275 83.175 -0.975
-77.925 84.525 0.525
-79.275 83.175 0.225
-77.625 81.525 2.175
-78.075 84.525 1.275
-78.075 84.525 0.975
-78.075 81.525 0.375
-79.275 83.325 0.225
-77.475 81.525 0.225
-78.525 84.375 1.275
-77.025 81.675 -0.225
-78.525 81.675 -0.675
-79.275 83.475 0.225
-78.225 81.525 -0.825
-77.325 81.525 -0.825
-79.275 82.575 -0.525
-78.825 84.225 1.575
-76.725 81.825 0.975
-76.575 81.975 0.525
-76.575 81.975 1.425
-76.575 81.975 0.675
-76.725 81.825 0.525
-79.275 83.625 2.325
-77.175 84.525 -0.675
-77.175 81.525 -0.225
-77.175 81.525 2.025
-78.675 84.375 1.575
-77.775 84.675 1.125
-77.925 84.675 0.525
-77.625 81.375 -0.675
-79.425 82.725 -0.225
-79.275 83.775 1.875
-78.525 84.525 0.975
-78.075 81.375 -0.825
-76.575 84.225 -2.625
-76.575 81.825 1.125
-76.575 81.825 0.675
-76.575 81.825 0.825
-78.225 81.375 0.675
-78.825 81.675 0.525
-77.325 81.375 -0.075
-78.675 84.525 1.725
-78.375 84.675 0.975
-77.175 84.675 0.075
-79.425 82.425 -0.675
-76.125 82.425 -0.825
-77.775 84.825 0.525
-77.775 81.225 0.525
-77.925 84.825 0.375
-76.575 81.675 0.225
-76.575 81.675 0.675
-76.575 81.675 0.975
-76.575 81.675 0.525
-76.425 81.825 0.225
-77.925 81.225 0.525
-78.525 84.675 0.225
-78.075 81.225 2.325
-78.075 81.225 0.525
-78.825 84.525 1.125
-76.275 81.975 0.975
-78.225 84.825 0.825
-79.575 83.475 0.825
-78.225 81.225 0.525
-78.675 84.675 0.975
-79.575 83.625 0.975
-77.175 84.825 3.075
-78.375 81.225 0.525
-78.375 81.225 0.225
-75.975 82.425 -0.375
-76.425 81.675 0.675
-76.425 81.675 0.375
-76.275 81.825 0.525
-76.275 81.825 0.225
-76.575 81.525 0.975
-77.775 81.075 0.375
-75.975 83.775 3.375
-77.025 81.225 -0.675
-78.525 81.225 -0.225
-77.925 84.975 0.225
-77.625 84.975 0.525
-76.725 81.375 0.225
-79.725 83.325 0.375
-79.725 83.325 0.075
-78.075 81.075 -1.125
-78.075 81.075 -0.525
-78.075 81.075 0.975
-78.075 81.075 -0.675
-79.725 83.475 0.375
-78.225 84.975 0.675
-78.225 81.075 0.825
-79.575 83.925 -2.025
-78.675 84.825 1.425
-79.125 81.525 0.675
-76.425 81.525 0.075
-76.275 81.675 0.525
-78.975 84.675 1.425
-78.975 84.675 0.675
-79.725 83.625 -1.275
-79.725 83.625 0.375
-79.725 83.625 -1.575
-78.825 84.825 0.525
-78.825 84.825 1.425
-77.025 84.975 2.925
-79.725 83.775 0.375
-77.025 81.075 1.725
-77.025 81.075 -0.675
-77.775 80.925 2.175
-79.875 82.875 -0.975
-79.875 82.875 -4.575
-77.925 80.925 -0.225
-77.925 80.925 0.375
-77.625 80.925 -1.125
-78.075 85.125 0.525
-79.875 82.725 0.375
-76.275 81.525 0.225
-79.275 81.525 0.375
-76.275 81.525 0.375
-76.275 81.525 0.525
-76.275 81.525 0.825
-79.125 84.675 1.275
-79.125 84.675 1.575
-76.425 81.375 0.525
-76.425 81.375 0.825
-76.425 81.375 0.675
-76.125 81.675 1.125
-79.725 83.925 0.375
-78.675 84.975 0.675
-79.725 83.925 -0.825
-78.675 84.975 1.425
-78.675 84.975 0.825
-79.875 83.475 0.525
-76.875 81.075 -0.075
-78.225 80.925 -0.825
-77.325 80.925 0.375
-79.575 84.225 -0.675
-78.975 81.225 -0.075
-78.375 85.125 0.225
-77.175 80.925 -1.425
-79.425 81.525 0.075
-78.525 85.125 0.975
-79.875 83.775 -1.725
-76.275 81.375 0.525
-76.275 81.375 0.675
-76.125 81.525 0.825
-76.125 81.525 0.375
-78.525 80.925 -0.075
-79.125 81.225 -1.275
-80.025 83.175 0.825
-80.025 83.175 -1.725
-80.025 82.875 0.075
-77.625 85.275 -0.075
-80.025 82.875 0.375
-78.075 85.275 0.225
-79.875 83.925 -1.275
-78.675 85.125 0.225
-76.875 80.925 -0.225
-78.975 84.975 -0.675
-78.975 84.975 0.225
-78.975 84.975 -0.075
-79.725 81.825 0.375
-78.225 85.275 0.675
-78.375 85.275 0.075
-78.375 85.275 1.725
-78.375 85.275 0.375
-80.025 82.425 0.375
-79.425 84.675 1.875
-79.425 81.375 0.375
-76.125 81.375 0.525
-76.125 81.375 0.375
-76.275 81.225 1.725
-76.275 81.225 3.075
-76.275 81.225 1.425
-79.725 81.675 -1.575
-79.725 81.675 0.075
-79.125 81.075 -0.375
-79.125 81.075 -0.225
-80.025 82.275 0.525
-80.025 83.775 -0.825
-80.025 82.275 0.075
-77.025 80.775 2.175
-76.425 81.075 0.525
-76.425 81.075 0.975
-80.175 83.025 0.375
-80.175 83.175 0.975
-80.175 82.875 0.525
-77.925 80.625 0.525
-77.625 80.625 -0.525
-77.625 80.625 1.725
-79.875 84.225 -0.675
-78.975 85.125 1.275
-78.075 85.425 0.375
-80.175 83.325 -1.425
-79.875 81.825 0.375
-78.975 80.925 -0.975
-78.075 80.625 0.075
-77.475 80.625 -0.675
-78.675 85.275 -0.075
-78.675 80.775 -0.975
-78.675 85.275 1.125
-80.175 83.475 0.825
-80.175 83.475 -0.825
-80.175 82.575 0.825
-79.575 81.375 0.825
-79.425 81.225 0.075
-79.425 81.225 0.525
-75.375 82.575 0.075
-77.325 80.625 -2.625
-76.125 81.225 0.375
-76.125 81.225 0.225
-79.275 84.975 0.225
-76.275 81.075 0.225
-76.275 81.075 1.275
-76.275 81.075 0.675
-80.175 83.625 -1.125
-78.375 85.425 0.525
-80.175 82.425 0.375
-77.175 85.425 2.475
-78.375 80.625 -0.825
-78.825 80.775 -1.275
-80.025 81.975 0.825
-79.875 81.675 0.525
-79.125 80.925 -0.975
-79.125 80.925 -1.125
-79.125 80.925 -0.825
-78.525 85.425 0.675
-80.175 82.275 -1.425
-77.025 80.625 -0.675
-79.575 84.825 -0.825
-79.575 81.225 -1.425
-79.575 81.225 0.375
-75.975 81.225 0.375
-75.975 81.225 1.125
-77.775 80.475 0.375
-79.725 81.375 0.825
-80.325 83.175 0.375
-76.125 81.075 1.125
-76.125 81.075 0.825
-76.125 81.075 0.975
-77.925 80.475 0.375
-77.625 80.475 0.375
-77.625 80.475 -0.825
-77.625 80.475 -0.975
-78.675 85.425 0.975
-78.075 80.475 -2.325
-78.075 80.475 0.525
-77.475 80.475 0.375
-76.275 80.925 2.925
-76.275 80.925 0.675
-79.275 80.925 0.825
-79.275 80.925 -0.525
-75.675 81.525 2.775
-78.825 85.425 0.975
-80.325 82.425 -0.675
-80.325 82.425 0.375
-78.825 80.625 -0.525
-78.375 80.475 1.125
-78.375 80.475 -0.225
-77.175 80.475 -1.425
-79.125 80.775 0.075
-80.025 84.375 -0.525
-79.125 80.775 0.375
-80.025 81.675 0.375
-79.725 81.225 0.375
-79.725 81.225 -0.525
-79.575 81.075 -0.525
-75.975 81.075 2.775
-75.825 81.225 1.725
-75.225 83.775 -4.125
-78.525 80.475 -0.975
-75.675 81.375 2.925
-76.125 80.925 1.425
-76.125 80.925 0.525
-76.125 80.925 0.825
-76.125 80.925 0.975
-78.975 80.625 -0.375
-77.775 80.325 0.975
-80.475 83.175 0.375
-77.925 85.725 1.575
-79.275 80.775 -1.125
-79.275 80.775 0.825
-79.275 85.275 0.525
-79.275 85.275 1.425
-76.275 80.775 0.825
-80.025 81.525 -1.125
-79.275 80.775 0.375
-77.925 80.325 0.825
-77.625 80.325 -0.375
-77.625 80.325 0.375
-77.625 80.325 -0.675
-80.475 83.325 0.375
-78.075 80.325 1.725
-78.225 85.725 -0.075
-80.175 84.375 -0.225
-79.125 85.425 0.375
-80.175 81.675 0.375
-79.125 80.625 0.525
-76.425 80.625 2.775
-76.425 80.625 -0.825
-76.425 80.625 -1.125
-79.725 81.075 -0.825
-78.825 85.575 0.975
-80.325 84.075 1.125
-80.325 84.075 -0.075
-80.325 81.975 0.225
-75.825 81.075 -0.375
-78.825 80.475 0.375
-78.825 80.475 1.425
-78.825 80.475 0.075
-78.825 80.475 -0.975
-78.375 85.725 -0.075
-80.475 82.425 0.375
-79.575 80.925 0.825
-79.575 80.925 0.675
-79.575 80.925 -0.975
-75.675 81.225 1.875
-75.975 80.925 0.525
-79.425 80.775 -0.375
-79.425 80.775 0.825
-76.125 80.775 0.675
-78.525 85.725 -0.075
-78.525 80.325 -0.675
-80.325 84.225 -0.525
-80.325 84.225 -0.825
-80.325 81.825 1.575
-80.325 81.825 5.775
-78.975 80.475 -1.125
-78.975 80.475 0.375
-79.275 85.425 0.525
-79.275 85.425 1.425
-79.275 80.625 -0.975
-79.275 80.625 0.375
-79.275 80.625 0.825
-78.675 85.725 0.375
-80.475 83.925 -0.525
-78.675 80.325 -0.525
-80.625 83.175 0.225
-80.625 82.875 -4.575
-77.625 80.175 0.825
-79.875 81.075 0.375
-79.725 80.925 -0.675
-75.825 80.925 1.575
-75.825 80.925 1.275
-77.475 80.175 1.725
-79.575 80.775 -0.375
-79.575 80.775 -0.525
-75.975 80.775 0.675
-75.975 80.775 1.425
-75.975 80.775 1.275
-75.975 80.775 0.375
-75.975 80.775 0.525
-79.125 85.575 0.375
-80.325 81.675 0.525
-78.225 80.175 -0.525
-78.225 80.175 -1.125
-79.125 80.475 0.825
-77.325 80.175 -0.075
-78.825 85.725 -0.225
-78.825 85.725 0.975
-78.825 80.325 -0.375
-78.825 80.325 0.525
-78.825 80.325 -0.525
-79.425 80.625 -0.225
-79.425 80.625 0.375
-80.625 83.775 0.375
-80.625 82.275 -1.125
-78.525 80.175 2.025
-78.975 85.725 -0.075
-78.975 85.725 0.975
-80.475 84.225 0.225
-80.475 81.825 1.875
-78.975 80.325 0.075
-78.975 80.325 -1.125
-78.975 80.325 -0.675
-76.575 80.325 2.025
-76.275 80.475 -0.825
-79.875 80.925 -0.075
-79.725 80.775 -0.525
-80.025 81.075 0.825
-80.025 81.075 0.675
-75.825 80.775 1.575
-78.675 80.175 -0.525
-78.675 80.175 -4.125
-80.175 81.225 0.675
-79.575 80.625 -0.375
-79.575 80.625 0.375
-75.975 80.625 0.675
-75.975 80.625 1.725
-75.975 80.625 0.375
-75.975 80.625 0.225
-75.975 80.625 0.825
-75.975 80.625 0.975
-77.925 80.025 -0.975
-80.775 83.175 -0.375
-78.075 86.025 -2.025
-80.775 82.725 -0.675
-79.125 80.325 0.375
-78.225 86.025 -0.225
-77.325 80.025 -0.375
-78.825 85.875 0.825
-80.625 84.075 -0.375
-78.825 85.875 -0.375
-80.625 81.975 2.025
-78.825 80.175 0.825
-76.125 80.475 1.575
-74.775 82.425 -0.375
-79.875 80.775 -0.675
-80.475 84.525 1.425
-79.275 80.325 0.375
-79.275 80.325 -0.675
-78.975 85.875 2.175
-80.175 81.075 0.675
-80.175 81.075 0.825
-79.725 80.625 0.525
-79.725 80.625 -0.825
-79.725 80.625 0.375
-79.725 80.625 -0.375
-78.525 80.025 0.825
-78.975 80.175 -0.675
-75.825 80.625 0.225
-75.825 80.625 0.825
-80.325 81.225 0.675
-80.325 81.225 0.525
-79.575 80.475 -0.375
-75.975 80.475 -0.075
-75.975 80.475 1.425
-78.675 86.025 -0.375
-78.675 80.025 0.975
-80.775 83.925 0.375
-77.775 79.875 1.425
-77.925 79.875 -0.375
-79.125 80.175 -0.675
-77.625 79.875 0.525
-76.425 80.175 2.025
-80.925 83.325 -0.075
-80.475 81.375 0.675
-79.425 80.325 0.375
-78.075 79.875 -1.125
-78.825 80.025 -0.525
-78.825 86.025 0.675
-76.725 80.025 -1.125
-80.775 81.975 0.675
-80.025 80.775 -0.675
-80.025 80.775 -0.225
-80.025 80.775 0.675
-80.175 80.925 0.975
-79.875 80.625 0.525
-78.375 79.875 0.075
-78.375 79.875 0.375
-77.175 79.875 -0.675
-80.325 81.075 2.025
-80.325 81.075 0.825
-80.325 81.075 0.975
-80.325 81.075 0.675
-79.725 80.475 0.825
-79.725 80.475 -0.825
-75.825 80.475 1.125
-75.825 80.475 1.575
-75.825 80.475 0.525
-79.275 80.175 -0.375
-79.275 80.175 3.375
-79.275 80.175 -0.225
-78.975 80.025 -0.525
-78.975 80.025 -0.375
-76.575 80.025 0.525
-78.525 79.875 -0.675
-78.525 79.875 -0.825
-78.525 79.875 -0.525
-78.525 79.875 0.375
-77.025 79.875 -0.375
-77.025 79.875 -0.225
-79.575 85.725 2.325
-80.475 81.225 6.075
-80.475 81.225 1.125
-80.475 81.225 0.825
-80.475 81.225 0.525
-80.475 81.225 0.675
-79.575 80.325 -0.075
-79.575 80.325 -0.375
-75.975 80.325 0.975
-78.675 79.875 0.375
-80.175 80.775 0.825
-79.125 80.025 -0.375
-79.125 80.025 -0.525
-76.425 80.025 0.375
-76.425 80.025 2.025
-80.625 81.375 0.825
-80.625 81.375 0.525
-80.625 81.375 0.975
-77.775 79.725 0.075
-77.775 79.725 0.375
-80.325 80.925 1.125
-80.325 80.925 0.375
-77.625 79.725 0.375
-77.625 79.725 -0.225
-75.675 80.475 -0.225
-75.675 80.475 0.825
-81.075 82.725 1.575
-78.075 79.725 -2.025
-78.075 79.725 1.125
-78.075 79.725 -0.225
-77.475 79.725 0.375
-78.825 86.175 0.675
-78.825 79.875 0.375
-78.825 79.875 -0.375
-80.475 81.075 1.125
-80.475 81.075 0.675
-80.475 81.075 0.975
-80.475 81.075 0.825
-81.075 82.575 -0.225
-75.825 80.325 1.275
-75.825 80.325 2.175
-75.825 80.325 0.225
-78.225 79.725 -0.675
-78.225 79.725 0.825
-77.325 79.725 -0.075
-77.325 79.725 0.375
-79.275 80.025 -0.225
-76.275 80.025 0.225
-78.375 79.725 -0.825
-78.375 79.725 0.975
-78.375 79.725 -0.525
-78.375 79.725 0.525
-77.175 79.725 0.375
-77.175 79.725 -0.525
-77.175 79.725 -0.075
-80.925 84.225 -0.525
-78.975 79.875 0.375
-80.625 81.225 0.525
-80.625 81.225 -0.825
-80.625 81.225 1.875
-80.625 81.225 0.975
-80.625 81.225 0.825
-79.575 80.175 -1.275
-79.575 80.175 -0.225
-75.975 80.175 2.175
-81.075 83.775 -0.075
-78.525 79.725 0.975
-78.525 79.725 -0.975
-78.525 79.725 0.525
-80.325 80.775 0.675
-75.525 80.475 -0.225
-75.525 80.475 -0.375
-75.525 80.475 0.825
-80.475 85.125 -0.375
-79.875 80.325 -0.075
-75.675 80.325 0.375
-75.675 80.325 0.675
-75.675 80.325 -0.525
-76.875 79.725 -0.075
-76.875 79.725 0.375
-79.425 80.025 -0.375
-79.425 80.025 -0.075
-80.775 81.375 0.525
-80.775 81.375 0.675
-79.125 79.875 0.975
-76.425 79.875 -0.375
-76.425 79.875 0.375
-81.225 83.025 1.275
-77.775 79.575 -0.675
-80.625 81.075 0.525
-80.625 81.075 1.125
-79.725 80.175 -0.675
-75.825 80.175 0.525
-78.075 86.475 0.675
-81.225 83.325 -0.825
-78.825 86.325 0.675
-78.075 79.575 0.375
-77.475 79.575 0.825
-78.225 79.575 0.375
-78.225 79.575 -0.825
-78.225 79.575 -0.975
-77.325 79.575 -0.075
-77.325 79.575 -0.375
-79.275 79.875 -1.125
-79.275 79.875 -0.675
-79.575 80.025 0.375
-80.775 81.225 0.525
-80.775 81.225 0.375
-80.775 81.225 0.975
-78.375 79.575 0.525
-77.175 79.575 1.575
-81.075 81.825 -1.425
-76.575 79.725 1.125
-76.575 79.725 -0.375
-76.575 79.725 -0.525
-80.475 80.775 1.275
-80.475 80.775 0.675
-80.475 85.275 -0.375
-80.025 80.325 0.225
-75.525 80.325 1.275
-78.525 79.575 -0.525
-80.625 85.125 -0.075
-80.625 80.925 1.275
-80.625 80.925 2.325
-80.625 80.925 0.675
-79.875 80.175 0.225
-75.675 80.175 0.525
-80.925 81.375 -0.075
-80.925 81.375 0.525
-79.425 79.875 0.225
-81.225 82.125 0.675
-81.075 81.675 0.375
-78.675 79.575 -0.675
-76.875 79.575 -0.675
-80.775 81.075 1.275
-75.825 80.025 1.875
-80.775 81.075 0.075
-80.775 81.075 1.125
-75.825 80.025 0.075
-77.775 79.425 -0.075
-77.625 79.425 -0.375
-81.225 81.975 -0.975
-78.825 79.575 -0.075
-78.825 79.575 -0.375
-78.825 79.575 -0.675
-76.725 79.575 2.175
-80.175 85.725 -1.575
-80.475 80.625 0.975
-78.075 79.425 0.525
-78.075 79.425 0.075
-77.475 79.425 -0.675
-81.075 84.525 0.225
-81.075 81.525 0.225
-76.275 79.725 1.125
-80.925 81.225 0.375
-80.925 81.225 0.675
-80.925 81.225 0.225
-79.575 79.875 -0.975
-79.575 79.875 0.825
-77.325 79.425 0.825
-77.325 79.425 -0.525
-77.325 79.425 -0.675
-75.975 79.875 0.525
-80.625 80.775 1.875
-80.625 80.775 1.425
-80.625 80.775 0.675
-75.525 85.875 5.025
-75.525 80.175 2.025
-78.375 79.425 0.375
-78.375 79.425 -0.525
-77.175 79.425 -0.525
-77.175 79.425 -0.825
-77.175 79.425 -0.675
-78.975 86.475 1.425
-81.225 81.825 0.975
-81.225 81.825 0.525
-81.225 81.825 0.825
-76.575 79.575 0.675
-80.775 85.125 0.375
-80.775 80.925 0.675
-80.775 80.925 1.275
-75.675 80.025 0.975
-78.525 79.425 2.475
-78.525 79.425 0.375
-81.075 81.375 0.375
-81.075 81.375 0.975
-79.425 79.725 0.375
-76.125 79.725 1.575
-76.125 79.725 2.025
-81.225 84.375 -0.525
-81.225 81.675 0.525
-81.225 81.675 0.375
-81.225 81.675 0.975
-80.925 81.075 1.575
-80.925 81.075 0.825
-79.125 79.575 -0.675
-75.825 79.875 -0.075
-81.375 82.125 0.825
-78.675 79.425 0.375
-78.675 79.425 2.025
-78.675 79.425 -0.375
-78.675 79.425 3.075
-80.475 85.575 0.525
-80.475 80.475 0.225
-80.325 80.325 1.275
-80.625 85.425 0.225
-80.175 85.875 1.875
-80.175 85.875 -5.625
-80.625 80.625 0.675
-80.625 80.625 1.725
-75.375 80.175 0.675
-75.375 80.175 0.375
-78.825 86.625 1.575
-81.375 84.075 -0.075
-81.375 81.975 -0.975
-81.375 81.975 0.675
-81.375 81.975 0.825
-77.775 79.275 -0.225
-77.775 79.275 -0.825
-80.775 80.775 0.675
-80.025 86.025 0.525
-80.025 80.025 -0.225
-75.525 80.025 0.525
-78.825 79.425 0.975
-76.725 79.425 0.075
-81.075 81.225 0.375
-79.575 79.725 -0.675
-75.975 79.725 0.075
-75.975 79.725 0.825
-75.975 79.725 1.425
-81.225 81.525 0.075
-81.225 81.525 0.225
-81.225 81.525 0.975
-78.075 79.275 -0.525
-78.225 79.275 -0.375
-78.225 79.275 2.475
-77.325 79.275 -1.425
-77.325 79.275 -0.525
-77.325 79.275 0.075
-77.325 79.275 2.025
-79.875 86.175 0.525
-80.925 80.925 0.675
-80.925 80.925 0.075
-80.925 80.925 -0.375
-79.875 79.875 -0.075
-79.875 79.875 -0.375
-79.875 79.875 0.225
-75.675 79.875 2.025
-75.675 79.875 0.825
-75.675 79.875 -0.075
-81.375 84.225 -0.075
-81.375 81.825 0.975
-81.375 81.825 0.675
-78.975 79.425 -0.225
-78.975 79.425 0.825
-77.175 79.275 -0.675
-77.175 79.275 -1.125
-77.175 79.275 0.375
-80.475 80.325 1.125
-81.225 81.375 0.975
-81.225 81.375 0.375
-81.225 81.375 0.225
-80.625 85.575 0.075
-78.525 79.275 -0.225
-80.625 80.475 0.825
-80.325 80.175 -2.925
-76.125 79.575 1.575
-81.075 81.075 2.625
-81.075 81.075 -0.225
-79.725 79.725 0.375
-79.725 79.725 0.225
-75.825 79.725 -1.125
-74.475 81.075 3.075
-80.175 80.025 -3.375
-80.775 80.625 1.425
-75.375 80.025 0.075
-80.775 80.625 0.675
-81.375 84.375 -0.525
-81.375 81.675 0.225
-76.425 79.425 0.075
-76.425 79.425 -0.375
-76.425 79.425 -0.525
-78.675 79.275 -0.675
-81.525 82.125 0.675
-80.925 80.775 1.275
-80.925 85.275 0.075
-80.025 79.875 -2.475
-75.525 79.875 0.225
-75.525 79.875 0.075
-75.975 79.575 0.975
-78.825 79.275 0.975
-78.825 79.275 -1.725
-81.525 81.975 -0.225
-76.725 86.775 -3.975
-81.525 81.975 -0.075
-81.525 81.975 0.825
-81.525 81.975 0.525
-81.525 81.975 0.675
-81.525 81.975 -0.375
-81.375 81.525 -0.075
-77.775 79.125 -0.225
-77.775 79.125 -1.575
-77.775 79.125 1.425
-77.775 79.125 -1.425
-76.275 79.425 -0.825
-77.925 79.125 0.825
-77.925 79.125 0.975
-79.875 86.325 2.475
-81.075 80.925 0.075
-78.075 79.125 -1.275
-78.225 79.125 -0.525
-77.325 79.125 -0.375
-77.325 79.125 -0.525
-77.325 79.125 0.375
-77.325 79.125 -0.675
-77.325 79.125 0.675
-78.975 79.275 -0.675
-80.325 80.025 -0.525
-80.775 85.575 0.675
-81.525 81.825 0.225
-81.525 81.825 -0.075
-80.775 80.475 0.675
-75.225 80.025 0.525
-77.175 79.125 0.375
-77.175 79.125 2.325
-77.175 79.125 -1.125
-81.375 84.675 -0.375
-80.925 80.625 0.825
-80.925 80.625 0.525
-81.375 81.375 -0.225
-81.375 81.375 0.825
-75.375 79.875 0.225
-75.375 79.875 2.025
-81.225 81.075 0.525
-81.675 82.275 0.975
-81.675 82.275 1.125
-81.675 82.275 0.825
-81.675 83.775 -3.675
-77.025 79.125 0.225
-77.025 79.125 0.675
-81.525 81.675 0.525
-76.425 79.275 2.175
-80.025 86.325 0.675
-76.875 79.125 0.225
-81.375 81.225 0.225
-75.975 79.425 2.475
-80.625 80.175 0.075
-80.625 80.175 1.125
-80.775 80.325 1.725
-80.775 80.325 1.575
-81.675 81.975 -0.225
-81.675 81.975 0.525
-76.725 79.125 1.425
-76.725 79.125 0.225
-81.825 83.025 0.825
-77.775 78.975 0.525
-77.775 78.975 0.075
-77.775 78.975 -0.825
-80.925 85.575 0.225
-75.225 86.175 3.075
-80.925 80.475 1.725
-77.925 78.975 0.375
-77.625 78.975 -0.225
-75.225 79.875 0.075
-75.225 79.875 -0.225
-78.075 78.975 0.375
-78.225 78.975 0.375
-77.325 78.975 -0.375
-77.325 78.975 -0.675
-78.975 86.925 1.275
-78.975 86.925 -4.875
-81.075 80.625 0.375
-78.975 79.125 2.025
-78.975 79.125 3.225
-76.575 79.125 -0.375
-81.375 84.975 -0.825
-81.375 81.075 0.825
-75.825 79.425 1.125
-78.375 78.975 2.625
-77.175 78.975 -1.125
-79.425 79.275 -0.075
-81.225 85.275 -0.825
-81.225 80.775 0.525
-81.225 80.775 0.075
-81.825 82.275 0.825
-81.825 82.275 1.575
-81.825 83.775 -3.825
-77.025 78.975 -0.825
-77.025 78.975 0.825
-77.025 78.975 -0.525
-78.525 78.975 -1.125
-78.525 78.975 -0.825
-81.675 81.675 0.225
-81.675 81.675 0.825
-81.675 81.675 0.375
-76.425 79.125 -0.375
-80.775 80.175 0.825
-80.925 80.325 0.675
-80.925 80.325 1.275
-81.825 82.125 1.125
-81.825 82.125 0.975
-81.825 82.125 1.425
-79.575 79.275 -0.375
-75.975 79.275 1.875
-81.525 81.225 -0.225
-75.675 86.625 -3.375
-81.375 80.925 0.375
-81.375 80.925 0.675
-81.375 80.925 0.525
-79.875 79.425 2.475
-81.075 80.475 0.075
-75.225 79.725 0.675
-81.675 81.525 1.425
-81.675 81.525 0.975
-81.675 81.525 0.675
-76.275 79.125 1.275
-78.825 87.075 1.425
-78.825 87.075 1.725
-78.825 78.975 -0.975
-76.725 78.975 -0.825
-77.775 78.825 0.525
-80.175 86.475 0.675
-81.975 83.175 0.825
-77.925 78.825 -0.825
-77.625 78.825 0.975
-77.625 78.825 -1.125
-75.375 79.575 0.675
-78.075 78.825 1.125
-78.975 87.075 2.325
-78.225 78.825 0.075
-77.325 78.825 -0.075
-75.825 79.275 1.725
-81.525 81.075 0.825
-81.675 81.375 1.125
-81.675 81.375 0.525
-78.375 78.825 0.975
-81.375 80.775 3.075
-75.525 79.425 2.175
-75.525 79.425 1.275
-80.925 80.175 0.825
-74.925 79.875 0.525
-74.925 79.875 1.575
-74.925 79.875 -0.075
-81.075 80.325 -0.225
-75.075 79.725 0.075
-81.975 82.275 0.825
-81.975 82.275 0.975
-78.525 78.825 0.975
-76.425 78.975 0.075
-76.425 78.975 1.875
-81.225 85.575 -0.225
-81.225 80.475 -0.075
-80.325 79.575 -0.525
-81.975 82.125 0.975
-81.675 81.225 0.225
-78.675 78.825 -0.225
-76.875 78.825 0.675
-81.525 80.925 1.275
-81.825 81.525 0.975
-81.825 81.525 0.525
-79.275 78.975 2.475
-81.375 80.625 1.725
-80.175 79.425 -0.075
-82.125 83.025 0.225
-74.775 79.875 0.675
-80.775 79.875 2.325
-77.775 78.675 -0.375
-77.775 78.675 -0.675
-77.775 78.675 -1.425
-82.125 83.175 0.525
-77.625 78.675 -1.425
-77.625 78.675 0.825
-81.675 81.075 0.975
-81.675 81.075 0.375
-81.675 81.075 0.825
-82.125 83.325 0.525
-82.125 83.325 -3.075
-75.825 79.125 1.575
-78.075 78.675 0.075
-78.075 78.675 -0.075
-78.075 78.675 -0.525
-77.475 78.675 0.525
-74.925 79.725 1.125
-74.925 79.725 1.875
-74.925 79.725 -0.075
-81.975 81.825 0.825
-76.575 78.825 0.975
-76.575 78.825 -0.825
-81.825 81.375 0.525
-81.825 81.375 0.675
-78.225 78.675 2.175
-79.425 78.975 0.975
-77.325 78.675 -0.225
-77.325 78.675 -0.975
-81.225 85.725 -0.225
-81.225 80.325 1.575
-75.075 79.575 0.975
-82.125 83.625 0.975
-82.125 82.425 1.425
-77.175 78.675 -0.075
-77.175 78.675 -0.525
-79.125 87.225 2.325
-81.975 84.375 4.875
-81.975 81.675 0.675
-81.975 81.675 0.975
-79.125 78.825 1.725
-75.225 79.425 0.075
-82.125 82.275 0.825
-82.125 82.275 0.525
-82.125 82.275 -2.775
-82.125 83.775 0.525
-82.125 83.775 0.975
-82.125 83.775 0.075
-78.525 78.675 2.025
-81.675 80.925 0.525
-81.825 81.225 0.975
-82.125 82.125 0.675
-74.625 79.875 0.675
-81.975 81.525 0.225
-79.275 78.825 0.375
-74.775 79.725 0.525
-74.925 79.575 0.675
-74.925 79.575 -0.075
-81.825 81.075 0.525
-75.825 78.975 -0.375
-75.825 78.975 0.525
-82.275 83.025 1.125
-82.275 83.025 0.525
-80.475 79.425 -0.525
-80.475 79.425 2.925
-77.775 78.525 0.525
-77.775 78.525 -0.825
-75.075 79.425 0.375
-81.675 80.775 0.525
-77.925 78.525 0.525
-77.925 78.525 -0.375
-77.925 78.525 -1.275
-77.625 78.525 0.525
-77.625 78.525 -0.225
-80.025 79.125 -3.375
-80.025 79.125 -3.075
-82.275 83.325 0.075
-78.075 78.525 -0.675
-77.475 78.525 -0.525
-77.475 78.525 0.525
-77.475 78.525 -1.425
-77.475 78.525 0.225
-77.475 78.525 -1.275
-78.975 87.375 0.975
-81.975 81.375 0.675
-81.975 81.375 0.225
-82.125 84.225 0.825
-79.425 78.825 -0.975
-82.275 83.475 0.225
-82.275 83.475 0.075
-82.275 83.475 0.525
-82.275 82.575 1.425
-75.225 79.275 0.375
-81.525 80.475 0.525
-82.275 83.625 0.075
-82.275 83.625 1.125
-82.275 83.625 0.375
-82.275 82.425 0.675
-82.125 81.675 1.125
-82.125 81.675 0.825
-82.275 82.275 0.375
-82.275 82.275 0.675
-81.075 79.875 0.525
-79.875 78.975 2.025
-74.625 79.725 1.275
-74.625 79.725 0.525
-75.675 78.975 2.025
-75.675 78.975 2.175
-81.975 81.225 0.525
-80.775 79.575 -2.325
-81.675 80.625 0.375
-78.675 78.525 -0.375
-78.675 78.525 -0.525
-80.625 79.425 -2.175
-80.625 79.425 -2.325
-74.925 79.425 1.575
-82.125 81.525 0.975
-79.275 87.375 2.325
-81.525 80.325 2.475
-76.725 78.525 -0.525
-82.275 81.975 1.125
-81.975 81.075 0.375
-75.825 78.825 1.875
-75.825 78.825 1.425
-81.825 80.775 0.975
-75.525 78.975 -0.075
-80.025 78.975 2.025
-82.425 83.025 0.375
-82.425 83.025 1.125
-77.775 78.375 -0.975
-82.425 83.175 -0.075
-82.425 83.175 0.375
-82.425 82.875 1.125
-77.625 78.375 -0.375
-77.625 78.375 -0.525
-76.125 78.675 1.725
-82.275 84.225 4.575
-78.975 87.525 1.125
-76.575 78.525 0.525
-76.575 78.525 0.075
-82.425 83.325 0.225
-80.325 86.925 -3.375
-82.425 82.725 1.125
-82.425 82.725 0.675
-82.425 82.725 0.825
-75.225 79.125 1.425
-74.475 79.725 0.975
-82.425 82.575 0.525
-82.425 82.575 0.225
-81.225 79.875 -0.225
-80.925 79.575 2.775
-78.225 78.375 3.375
-77.325 78.375 -0.525
-81.375 80.025 1.275
-74.175 80.025 4.425
-74.775 79.425 1.875
-82.425 83.625 0.225
-82.425 82.425 0.525
-78.375 78.375 2.625
-77.175 78.375 0.525
-82.275 84.375 0.675
-79.125 78.525 2.025
-76.425 78.525 0.375
-76.425 78.525 -0.675
-82.275 81.675 0.975
-81.825 80.625 0.225
-80.175 78.975 1.275
-80.175 78.975 1.425
-79.575 78.675 -3.825
-75.975 78.675 -0.525
-75.375 78.975 1.725
-75.375 78.975 0.375
-75.375 78.975 -0.075
-75.375 78.975 1.575
-80.625 79.275 -2.475
-74.925 79.275 -0.225
-77.025 78.375 -0.375
-77.025 78.375 -1.275
-78.525 78.375 -0.075
-78.675 78.375 -0.375
-80.475 79.125 -2.775
-76.275 78.525 -0.375
-75.075 79.125 0.525
-75.075 79.125 0.825
-81.975 80.775 0.675
-80.025 78.825 1.425
-79.725 78.675 1.425
-78.825 78.375 1.575
-81.075 86.475 -5.025
-81.375 79.875 0.375
-74.625 79.425 0.525
-75.225 78.975 0.975
-79.425 87.525 2.325
-82.275 81.375 0.975
-82.575 83.025 0.525
-77.775 78.225 -0.525
-77.775 78.225 -0.375
-82.575 83.175 0.975
-82.575 82.875 0.675
-74.775 79.275 1.425
-74.775 79.275 1.275
-80.775 79.275 1.575
-76.575 78.375 0.225
-76.575 78.375 0.525
-76.575 78.375 1.425
-76.575 78.375 1.275
-76.575 78.375 -0.525
-77.925 78.225 -0.225
-82.575 83.325 0.375
-82.575 82.725 0.825
-82.575 82.725 -2.175
-77.475 78.225 -0.825
-77.475 78.225 1.425
-82.575 83.475 0.825
-82.575 82.575 0.225
-81.675 80.175 0.225
-82.125 80.925 0.525
-80.625 79.125 -1.875
-74.925 79.125 0.675
-74.925 79.125 1.125
-75.675 78.675 1.275
-82.575 83.625 0.525
-78.375 78.225 -0.225
-77.175 78.225 4.275
-77.175 78.225 -0.675
-82.425 84.375 0.375
-82.425 81.675 0.825
-82.425 81.675 0.675
-76.425 78.375 0.825
-79.575 78.525 0.825
-79.575 78.525 0.675
-79.575 78.525 -2.325
-79.575 78.525 -2.475
-82.575 83.775 0.975
-77.025 78.225 1.125
-77.025 78.225 0.075
-75.075 78.975 0.675
-75.075 78.975 0.975
-74.175 86.325 2.475
-81.075 79.425 2.775
-78.675 78.225 2.025
-76.875 78.225 -0.225
-76.875 78.225 0.975
-76.875 78.225 -1.875
-74.475 79.425 1.425
-79.275 87.675 2.175
-76.275 78.375 0.375
-76.275 78.375 2.325
-82.125 80.775 -0.075
-74.625 79.275 1.275
-74.625 79.275 0.675
-80.025 78.675 1.275
-79.725 78.525 0.825
-79.725 78.525 0.675
-80.325 78.825 1.125
-75.225 78.825 -0.375
-75.225 78.825 0.825
-75.225 78.825 2.475
-78.825 78.225 -0.525
-78.825 78.225 2.025
-78.825 78.225 2.325
-76.725 78.225 0.525
-74.775 79.125 0.825
-76.125 78.375 0.375
-76.125 78.375 -0.375
-82.575 84.225 1.125
-78.975 78.225 1.575
-76.575 78.225 -0.525
-76.575 78.225 2.775
-77.775 78.075 0.975
-82.725 82.875 0.825
-77.925 78.075 0.975
-81.825 80.175 0.375
-77.625 78.075 -0.525
-72.825 82.875 2.775
-80.625 78.975 0.825
-74.925 78.975 0.825
-82.725 83.325 0.525
-82.725 83.325 0.375
-82.725 82.725 0.675
-82.725 82.725 0.975
-82.725 82.725 0.525
-78.075 78.075 -1.275
-78.075 78.075 0.825
-77.475 78.075 0.975
-77.475 78.075 -0.525
-79.875 78.525 0.675
-82.125 80.625 0.075
-82.725 83.475 0.825
-78.225 78.075 0.075
-77.325 78.075 2.325
-77.325 78.075 -1.275
-82.725 83.625 1.125
-79.125 87.825 2.625
-79.125 87.825 2.325
-82.575 84.375 0.375
-77.175 78.075 0.075
-77.175 78.075 -0.825
-79.125 78.225 2.025
-75.975 78.375 -0.975
-75.975 78.375 0.375
-80.475 87.225 3.825
-80.475 78.825 0.825
-80.475 78.825 0.375
-81.075 79.275 1.425
-74.475 79.275 0.975
-81.525 79.725 0.975
-78.525 78.075 2.175
-77.025 78.075 0.825
-77.025 78.075 0.525
-73.875 86.175 2.925
-80.925 79.125 0.975
-79.275 78.225 1.275
-76.275 78.225 0.225
-76.275 78.225 -0.675
-76.275 78.225 0.975
-82.725 83.925 1.275
-75.525 78.525 -0.525
-80.025 78.525 0.675
-82.275 80.775 0.525
-78.675 78.075 2.025
-78.675 78.075 1.575
-76.875 78.075 2.775
-76.875 78.075 0.525
-81.825 80.025 2.025
-74.775 78.975 0.525
-79.725 78.375 0.525
-75.825 78.375 -0.675
-82.725 84.075 1.275
-82.725 81.975 2.325
-78.825 78.075 -0.675
-78.825 78.075 1.725
-78.825 78.075 -1.125
-78.825 78.075 2.175
-76.725 78.075 0.675
-76.725 78.075 0.225
-81.975 80.175 0.825
-80.625 78.825 1.275
-76.125 87.825 -2.475
-74.925 78.825 0.975
-74.925 78.825 -0.975
-79.425 78.225 0.975
-72.975 84.675 -0.375
-76.125 78.225 0.975
-76.125 78.225 0.675
-81.375 79.425 1.125
-82.725 84.225 0.675
-81.225 79.275 1.275
-80.175 78.525 0.525
-80.175 78.525 0.675
-82.275 80.625 0.225
-75.375 78.525 -0.675
-82.875 83.175 0.375
-82.875 83.175 1.275
-82.425 80.925 0.675
-79.875 78.375 -2.625
-79.875 78.375 0.825
-79.875 78.375 0.675
-74.475 86.925 1.275
-74.475 79.125 1.575
-82.875 83.475 1.425
-82.875 83.475 0.975
-80.475 78.675 -1.275
-77.325 77.925 -1.125
-75.075 78.675 0.975
-75.075 78.675 1.725
-82.575 84.825 0.525
-79.575 78.225 0.975
-82.725 84.375 0.825
-82.725 84.375 1.125
-82.725 81.675 0.375
-80.925 87.075 -4.425
-79.125 78.075 1.425
-80.925 78.975 1.125
-80.925 78.975 0.825
-74.625 78.975 1.125
-74.625 78.975 0.825
-77.175 77.925 0.525
-77.025 77.925 -0.225
-80.775 78.825 0.825
-80.775 78.825 1.275
-80.775 78.825 1.125
-80.025 78.375 0.975
-80.025 78.375 1.275
-80.025 78.375 1.425
-80.025 78.375 0.525
-80.025 78.375 0.375
-82.725 81.525 2.775
-80.325 78.525 -2.475
-80.325 78.525 0.225
-76.275 78.075 0.525
-76.275 78.075 0.225
-79.275 78.075 1.275
-82.275 80.475 0.075
-76.875 77.925 1.275
-79.725 87.825 2.175
-81.375 79.275 0.675
-81.525 79.425 0.525
-80.625 78.675 -2.775
-80.625 78.675 -2.625
-80.625 78.675 0.225
-82.875 84.075 1.275
-82.875 81.975 2.175
-81.225 79.125 -0.375
-81.225 79.125 0.975
-74.325 79.125 0.075
-78.825 77.925 1.275
-76.725 77.925 -0.375
-82.725 81.375 3.225
-79.425 78.075 0.975
-79.425 78.075 1.125
-76.125 78.075 0.525
-81.075 78.975 1.125
-74.475 78.975 0.525
-75.375 78.375 2.175
-75.375 78.375 2.025
-82.875 84.225 1.275
-78.975 77.925 1.275
-78.975 77.925 1.425
-78.975 77.925 0.975
-80.475 78.525 0.825
-82.275 80.325 1.575
-82.275 80.325 0.825
-82.275 80.325 0.075
-74.625 87.225 1.125
-80.925 78.825 0.675
-80.925 78.825 -2.175
-80.925 78.825 0.975
-74.625 78.825 0.975
-74.625 78.825 0.225
-83.025 83.325 1.275
-78.075 77.775 1.875
-83.025 82.725 0.825
-79.575 78.075 1.425
-79.575 78.075 1.125
-75.975 78.075 0.525
-75.975 78.075 -0.825
-75.975 78.075 -0.975
-75.975 78.075 0.375
-83.025 83.475 1.125
-78.225 77.775 1.275
-77.325 77.775 0.225
-77.325 77.775 3.375
-82.875 84.375 1.275
-79.125 77.925 1.425
-79.125 77.925 0.975
-76.425 77.925 -0.525
-76.425 77.925 -0.975
-82.125 80.025 0.375
-78.375 77.775 1.275
-78.375 77.775 1.575
-77.175 77.775 -0.375
-74.775 78.675 1.275
-74.775 78.675 2.175
-74.775 78.675 1.125
-80.775 78.675 1.275
-80.025 78.225 1.425
-82.425 80.475 1.725
-77.025 77.775 -0.825
-81.525 79.275 0.675
-80.325 78.375 0.675
-81.675 79.425 0.825
-81.675 79.425 0.525
-81.375 79.125 0.225
-81.375 79.125 0.675
-81.375 79.125 1.425
-81.375 79.125 -0.075
-82.875 84.525 0.825
-82.875 84.525 1.425
-79.275 77.925 0.675
-79.275 77.925 1.275
-79.275 77.925 1.425
-79.725 78.075 -0.225
-79.725 78.075 0.975
-79.725 78.075 0.675
-81.825 79.575 0.675
-75.825 78.075 0.375
-75.825 78.075 1.725
-80.625 78.525 0.975
-80.625 78.525 -3.075
-78.675 77.775 1.275
-76.875 77.775 -0.375
-74.925 78.525 1.425
-74.925 78.525 1.575
-82.275 80.175 0.225
-81.975 79.725 0.975
-81.075 78.825 0.975
-81.075 78.825 0.525
-78.825 77.775 1.725
-83.025 84.075 0.975
-83.025 84.075 1.725
-76.725 77.775 -0.975
-76.725 77.775 1.425
-76.725 77.775 -0.675
-76.725 77.775 1.575
-79.425 77.925 0.675
-79.425 77.925 -2.925
-76.125 77.925 -0.825
-76.125 77.925 -0.675
-82.575 85.425 0.975
-82.575 85.425 -1.875
-82.575 80.625 1.425
-75.375 87.825 2.325
-80.175 78.225 0.825
-75.375 78.225 2.325
-75.375 78.225 -0.675
-82.125 79.875 0.675
-82.125 79.875 0.075
-80.925 78.675 1.125
-80.925 78.675 1.575
-80.925 78.675 1.425
-74.625 78.675 0.675
-74.625 78.675 0.075
-82.425 80.325 0.975
-82.425 80.325 1.875
-79.875 78.075 0.525
-75.675 78.075 -0.675
-75.675 78.075 0.375
-75.075 78.375 2.025
-78.975 77.775 1.725
-78.975 77.775 1.125
-76.575 77.775 -1.125
-76.575 77.775 -0.225
-83.025 81.825 -1.275
-83.025 81.825 2.325
-76.575 88.275 2.475
-83.175 83.025 0.825
-83.175 82.875 1.575
-77.925 77.625 2.475
-77.625 77.625 -1.125
-79.575 88.125 1.425
-82.875 84.825 2.775
-82.875 84.825 2.175
-74.775 78.525 1.425
-74.775 78.525 1.275
-80.775 78.525 0.225
-80.775 78.525 -0.075
-82.275 86.025 1.275
-78.075 77.625 2.325
-77.475 77.625 -0.075
-77.475 77.625 0.075
-75.975 77.925 0.975
-75.975 77.925 -1.725
-75.975 77.925 0.825
-81.675 79.275 3.075
-81.675 79.275 0.975
-74.025 79.125 0.675
-81.525 79.125 1.125
-81.525 79.125 0.525
-83.175 82.575 0.375
-78.225 77.625 1.425
-78.225 77.625 1.575
-78.225 77.625 1.125
-78.225 77.625 0.975
-78.225 77.625 0.525
-81.375 78.975 0.375
-77.325 77.625 -0.825
-77.325 77.625 0.375
-73.725 79.425 0.075
-79.125 77.775 0.675
-76.425 77.775 -0.225
-83.175 83.625 1.875
-77.175 77.625 -0.975
-81.975 86.475 -0.225
-81.225 78.825 -3.525
-74.325 78.825 0.825
-75.225 78.225 2.025
-75.525 78.075 -0.675
-80.025 78.075 0.825
-80.025 78.075 0.675
-83.175 83.775 1.125
-83.175 82.275 1.275
-78.525 77.625 1.125
-78.525 77.625 0.525
-78.525 77.625 1.275
-72.375 82.275 0.675
-82.425 80.175 0.675
-74.925 78.375 -0.225
-79.275 77.775 1.275
-79.275 77.775 0.825
-82.125 79.725 0.825
-75.825 77.925 0.075
-83.175 83.925 1.425
-83.175 82.125 0.375
-78.675 77.625 1.275
-78.675 77.625 1.575
-78.675 77.625 0.675
-78.675 77.625 0.375
-78.675 77.625 1.125
-76.875 77.625 -0.825
-82.275 79.875 0.975
-82.275 79.875 1.575
-82.275 79.875 1.125
-82.725 80.625 1.575
-75.375 87.975 1.275
-78.825 77.625 0.975
-78.825 77.625 0.825
-78.825 77.625 -0.675
-75.375 78.075 0.825
-75.375 78.075 0.225
-76.725 77.625 -0.675
-79.425 88.275 1.725
-79.425 77.775 0.525
-76.125 77.775 -0.975
-76.125 77.775 -0.675
-83.025 81.375 2.925
-82.575 80.325 1.425
-75.075 78.225 -0.075
-75.075 78.225 3.225
-75.075 78.225 -0.825
-81.675 79.125 1.725
-81.675 79.125 0.525
-81.675 79.125 1.275
-81.675 79.125 1.875
-73.875 79.125 0.075
-73.875 79.125 0.525
-81.825 79.275 2.175
-81.825 79.275 1.875
-81.825 79.275 1.425
-81.825 79.275 1.125
-81.525 78.975 2.325
-74.025 78.975 0.075
-83.175 84.225 2.925
-81.375 78.825 1.275
-78.975 77.625 0.675
-78.975 77.625 0.975
-78.975 77.625 2.775
-76.575 77.625 -0.975
-74.175 78.825 0.975
-74.175 78.825 0.825
-82.425 80.025 1.125
-82.425 80.025 1.575
-74.775 78.375 1.875
-74.775 78.375 0.825
-83.025 84.825 2.475
-75.975 77.775 0.225
-82.125 79.575 0.375
-83.325 82.875 1.725
-74.325 78.675 -0.375
-74.325 78.675 0.675
-77.925 77.475 1.725
-77.625 77.475 -0.675
-77.625 77.475 2.025
-83.325 83.325 0.675
-77.475 77.475 -0.225
-76.425 77.625 1.725
-76.425 77.625 -0.225
-76.425 77.625 1.125
-80.325 87.975 2.625
-82.725 85.575 0.975
-82.725 80.475 1.275
-75.225 78.075 -0.525
-78.225 77.475 0.975
-77.325 77.475 0.075
-77.325 77.475 0.525
-82.875 80.775 1.125
-80.025 77.925 0.675
-81.075 87.525 -0.975
-74.475 78.525 1.575
-74.475 78.525 1.425
-83.325 83.625 1.575
-83.325 83.625 1.875
-78.375 77.475 0.375
-78.375 77.475 2.175
-78.375 77.475 0.525
-78.375 77.475 0.825
-78.375 77.475 1.125
-78.375 77.475 -0.225
-78.375 77.475 0.975
-77.175 77.475 0.675
-79.725 88.275 1.725
-83.025 84.975 2.025
-83.325 83.775 1.875
-75.825 77.775 0.825
-75.825 77.775 -0.675
-75.825 77.775 -1.575
-77.025 77.475 -0.675
-77.025 77.475 -1.125
-78.525 77.475 1.575
-78.525 77.475 0.675
-78.525 77.475 1.425
-76.275 77.625 0.975
-79.275 77.625 0.075
-82.425 79.875 0.975
-81.825 79.125 0.525
-81.675 78.975 2.325
-78.675 77.475 2.175
-78.675 77.475 0.075
-78.675 77.475 1.875
-78.675 77.475 1.425
-76.875 77.475 -0.825
-73.575 79.275 0.075
-81.525 78.825 1.425
-74.025 78.825 0.375
-75.375 77.925 0.975
-75.375 77.925 -0.675
-75.375 77.925 0.825
-82.725 80.325 1.425
-82.125 86.625 -0.225
-83.175 81.375 2.775
-83.175 81.375 5.475
-79.425 77.625 1.875
-79.425 77.625 0.075
-76.125 77.625 -0.525
-76.125 77.625 0.525
-76.125 77.625 1.875
-76.125 77.625 2.025
-74.175 78.675 0.075
-83.325 84.075 1.425
-78.825 88.575 0.975
-78.825 77.475 2.625
-76.725 77.475 -0.675
-79.875 77.775 0.375
-75.675 77.775 -0.525
-75.675 77.775 -0.375
-82.575 80.025 1.125
-74.775 78.225 -0.375
-74.775 78.225 -0.525
-74.775 78.225 2.025
-81.225 78.525 -2.625
-81.225 87.525 -3.825
-74.325 78.525 1.125
-74.325 78.525 0.525
-82.275 79.575 1.275
-83.325 84.225 1.275
-83.325 84.225 0.975
-76.575 77.475 3.075
-79.575 88.425 1.875
-77.775 77.325 0.375
-77.775 77.325 1.125
-82.425 79.725 1.425
-82.875 80.475 1.125
-75.225 88.125 -1.125
-77.625 77.325 1.575
-77.625 77.325 0.825
-74.475 78.375 2.325
-75.225 77.925 0.375
-78.075 77.325 0.825
-77.475 77.325 0.525
-75.525 77.775 -0.975
-83.025 80.775 1.275
-76.425 77.475 -0.525
-78.225 77.325 0.075
-78.225 77.325 1.575
-78.225 77.325 0.975
-73.725 78.975 0.225
-83.475 82.425 1.425
-78.375 77.325 0.975
-78.375 77.325 0.375
-78.375 77.325 1.425
-78.375 77.325 1.725
-78.375 77.325 -0.075
-78.375 77.325 0.825
-77.175 77.325 -2.475
-82.575 79.875 1.725
-80.925 78.225 -2.925
-75.825 77.625 -0.525
-75.825 77.625 1.425
-74.625 78.225 -0.525
-82.125 79.275 1.275
-74.025 78.675 0.975
-81.525 78.675 1.275
-77.025 77.325 -0.525
-78.525 77.325 1.425
-76.275 77.475 0.525
-76.275 77.475 -0.375
-79.275 77.475 0.225
-79.275 77.475 -0.225
-74.175 78.525 1.725
-83.475 83.925 0.375
-83.475 83.925 0.975
-82.875 80.325 0.975
-82.875 80.325 1.275
-78.675 77.325 1.125
-78.675 77.325 1.275
-78.675 77.325 1.425
-76.875 77.325 -0.525
-76.875 77.325 -1.575
-80.175 77.775 0.525
-83.025 80.625 -2.625
-83.025 80.625 1.575
-83.025 80.625 1.725
-82.725 80.025 1.725
-82.425 79.575 0.975
-82.425 79.575 1.425
-74.325 78.375 -0.075
-74.325 78.375 1.575
-79.425 77.475 0.525
-76.125 77.475 0.225
-76.125 77.475 0.675
-83.175 80.925 1.875
-79.875 77.625 0.525
-75.675 77.625 -0.675
-83.475 84.075 1.275
-78.825 77.325 1.275
-76.725 77.325 -0.375
-76.725 77.325 -0.525
-76.725 77.325 -0.975
-83.475 84.225 1.425
-78.975 77.325 1.425
-76.575 77.325 -0.675
-74.475 78.225 2.175
-81.825 78.825 2.925
-75.975 77.475 2.625
-75.975 77.475 -0.375
-75.975 77.475 0.675
-83.025 80.475 1.425
-75.225 77.775 -1.125
-83.025 80.475 1.275
-81.675 78.675 2.775
-73.425 79.125 -0.075
-74.925 77.925 -0.225
-83.175 85.275 2.625
-83.175 80.775 1.425
-75.525 77.625 -0.675
-75.525 77.625 -0.825
-77.775 77.175 0.675
-77.775 77.175 0.975
-77.775 77.175 1.125
-83.625 83.175 0.825
-77.925 77.175 0.225
-77.925 77.175 1.125
-74.025 78.525 1.125
-74.025 78.525 0.975
-73.275 79.275 -1.275
-79.125 77.325 -0.375
-76.425 77.325 0.525
-76.425 77.325 -1.275
-76.425 77.325 -1.125
-78.075 77.175 1.275
-78.075 77.175 0.825
-78.075 77.175 0.675
-78.075 77.175 1.125
-80.925 87.975 2.625
-83.625 83.475 0.375
-74.625 78.075 -0.375
-74.625 78.075 1.875
-74.625 78.075 2.175
-78.225 77.175 0.675
-77.325 77.175 -0.075
-83.625 83.625 1.425
-83.625 82.425 1.275
-82.425 79.425 1.425
-74.175 78.375 2.175
-74.175 78.375 1.725
-77.175 77.175 -0.075
-77.175 77.175 -0.225
-77.175 77.175 -0.525
-77.175 77.175 1.725
-79.725 77.475 0.825
-83.625 82.275 1.575
-83.625 83.775 0.675
-83.625 83.775 1.575
-77.025 77.175 -0.375
-78.525 77.175 1.425
-75.075 77.775 0.975
-75.075 77.775 2.175
-75.075 77.775 -0.525
-83.025 80.325 1.125
-83.025 80.325 1.425
-75.075 88.275 -0.225
-75.375 77.625 1.125
-82.575 79.575 0.375
-82.875 80.025 1.875
-82.875 80.025 1.725
-74.775 77.925 -0.225
-78.675 77.175 1.275
-83.325 80.925 1.425
-83.325 80.925 2.325
-83.325 80.925 2.775
-83.325 80.925 1.575
-76.125 77.325 -0.225
-76.125 77.325 1.125
-76.125 77.325 -0.525
-75.675 77.475 1.275
-75.675 77.475 0.225
-73.575 78.825 1.275
-83.625 84.075 0.975
-81.825 78.675 2.625
-78.825 77.175 1.425
-78.825 77.175 1.725
-78.825 77.175 1.125
-78.825 77.175 0.825
-76.725 77.175 -0.825
-76.725 77.175 -0.375
-73.425 78.975 2.025
-74.475 78.075 -0.225
-74.475 78.075 -0.525
-73.875 78.525 1.275
-83.175 80.475 2.025
-80.325 77.625 0.375
-76.575 77.175 0.675
-75.225 77.625 1.575
-74.925 77.775 0.375
-83.025 80.175 1.275
-74.025 78.375 0.975
-74.025 78.375 1.425
-83.475 84.825 4.275
-83.475 81.225 1.575
-75.975 77.325 -0.675
-83.325 80.775 2.025
-75.525 77.475 2.175
-75.525 77.475 0.675
-75.525 77.475 -1.125
-75.525 77.475 -0.525
-77.775 77.025 1.125
-77.775 77.025 0.225
-77.775 77.025 -0.225
-77.775 77.025 0.525
-77.775 77.025 0.825
-77.775 77.025 0.975
-74.175 78.225 0.675
-83.775 82.875 1.875
-77.625 77.025 0.825
-77.925 77.025 2.625
-77.925 77.025 1.275
-83.625 84.375 2.175
-83.625 84.375 2.025
-79.125 88.875 0.525
-79.125 77.175 0.375
-76.425 77.175 -0.975
-76.425 77.175 -1.125
-76.425 77.175 -0.525
-78.075 77.025 0.825
-78.075 77.025 2.625
-78.075 77.025 1.275
-77.475 77.025 0.675
-77.475 77.025 0.375
-83.475 81.075 1.425
-79.725 77.325 1.575
-75.825 77.325 -0.375
-78.375 77.025 1.575
-78.375 89.025 -0.075
-83.775 82.425 1.725
-77.175 77.025 -0.375
-77.175 77.025 -0.225
-82.725 79.575 0.675
