# .PCD v0.7 - Point Cloud Data file format
VERSION 0.7
FIELDS x y z
SIZE 4 4 4
TYPE F F F
COUNT 1 1 1
WIDTH 2048
HEIGHT 1
VIEWPOINT 0 0 0 1 0 0 0
POINTS 2048
DATA ascii
3.225 48.075 1.725
3.225 48.075 0.975
3.075 48.225 2.025
3.375 48.225 1.725
3.375 48.075 1.425
3.375 48.375 1.125
3.075 48.375 1.725
3.225 47.925 2.175
3.075 48.525 2.325
3.375 48.525 1.125
3.525 48.075 0.975
3.525 48.075 0.675
3.525 48.375 0.675
3.525 48.075 1.725
2.925 48.075 -0.075
3.375 47.925 1.275
2.925 48.525 1.425
2.925 48.525 0.675
3.525 47.925 2.025
3.225 48.675 0.525
3.675 48.225 2.025
3.675 48.225 1.125
3.675 48.225 0.375
3.675 48.225 0.225
3.675 48.225 0.675
2.775 48.225 -0.225
3.225 47.775 2.025
3.225 47.775 -0.525
3.375 48.675 1.275
3.075 48.675 0.975
3.375 48.675 -2.025
3.375 48.675 0.825
3.375 48.675 0.525
3.675 48.375 0.675
3.675 48.075 0.825
3.675 48.375 0.525
2.775 48.075 -0.075
2.775 48.075 0.375
2.775 48.075 0.525
3.375 47.775 1.275
2.925 48.675 1.125
2.775 48.525 -0.075
2.775 48.525 -0.375
2.775 48.525 0.375
3.675 47.925 -0.075
3.675 47.925 -0.975
2.775 47.925 0.075
2.925 47.775 2.325
3.825 48.225 0.525
3.825 48.225 0.375
3.825 48.225 -0.225
3.225 48.825 1.125
3.225 48.825 0.525
2.625 48.375 0.075
3.825 48.375 0.825
3.825 48.375 2.025
2.625 48.375 3.675
3.825 48.075 2.175
3.825 48.075 -0.075
2.625 48.075 -0.075
2.625 48.375 0.375
3.075 47.625 0.975
3.375 47.625 0.375
3.675 48.675 0.975
3.675 48.675 0.525
3.675 48.675 1.275
3.675 48.675 1.575
2.775 48.675 -0.075
3.675 47.775 2.475
2.775 47.775 0.525
2.625 48.525 -0.075
2.625 48.525 0.525
3.825 48.525 0.675
3.525 48.825 0.975
3.525 48.825 1.125
3.525 48.825 0.225
2.925 47.625 -0.225
2.925 48.825 1.125
3.825 47.925 0.375
3.825 47.925 0.675
2.625 47.925 2.025
2.625 48.675 0.075
3.825 48.675 0.375
3.825 48.675 1.275
3.975 48.225 0.825
3.975 48.225 0.525
3.225 48.975 -1.875
2.475 48.225 -0.075
3.675 48.825 0.825
3.675 48.825 1.575
3.675 47.625 0.825
3.675 48.825 1.425
3.675 47.625 1.275
3.675 48.825 0.675
3.675 47.625 0.375
3.825 47.775 2.025
3.825 47.775 0.675
3.975 48.375 -0.525
3.975 48.075 -0.225
3.975 48.375 0.825
3.975 48.375 0.525
2.475 48.075 2.475
3.975 48.075 0.525
3.975 48.075 0.675
3.975 48.075 0.225
3.975 48.375 0.375
3.975 48.375 0.225
3.975 48.375 0.075
3.075 48.975 1.875
3.375 47.475 1.125
3.075 47.475 -0.075
3.975 48.525 -0.075
3.975 48.525 0.075
3.975 48.525 0.375
3.525 47.475 1.575
2.925 47.475 4.425
2.925 47.475 0.525
2.925 47.475 -0.075
2.925 47.475 0.375
3.975 47.925 1.125
3.975 47.925 0.525
2.475 47.925 -0.075
3.825 48.825 -0.075
3.825 48.825 1.275
3.825 47.625 0.975
3.825 47.625 0.675
2.625 47.625 -0.975
2.625 48.825 0.075
3.825 48.825 0.375
2.625 47.625 -0.075
2.625 48.825 0.525
2.625 48.825 -0.075
3.825 48.825 2.025
2.625 48.825 0.375
2.625 48.825 -0.375
3.975 48.675 -0.075
3.975 48.675 -0.225
3.975 48.675 1.575
3.975 48.675 0.525
2.475 48.675 -0.075
3.675 48.975 0.225
3.675 48.975 0.525
3.675 48.975 0.825
3.675 48.975 1.275
2.775 47.475 -0.075
2.775 47.475 2.925
2.775 48.975 -0.225
3.975 47.775 0.525
3.975 47.775 0.375
3.225 47.325 3.525
3.225 49.125 1.125
3.225 47.325 1.125
2.325 48.225 2.475
4.125 48.225 0.075
3.075 47.325 -0.375
3.375 49.125 1.125
4.125 48.075 0.825
4.125 48.075 -2.925
4.125 48.375 0.525
4.125 48.075 1.575
3.525 49.125 1.275
3.525 49.125 2.925
3.525 49.125 0.675
2.925 47.325 0.075
4.125 48.525 0.525
4.125 48.525 0.075
2.325 48.525 2.025
4.125 47.925 0.525
4.125 47.925 -0.225
4.125 47.925 0.375
3.825 48.975 0.675
3.825 48.975 2.025
3.825 47.475 0.675
2.625 48.975 -0.075
3.975 48.825 1.125
3.975 48.825 1.575
3.975 47.625 0.375
3.975 48.825 0.525
3.975 47.625 0.525
2.475 48.825 -0.075
3.975 48.825 1.725
2.475 47.625 -0.075
4.125 48.675 0.975
2.325 48.675 -0.075
4.125 48.675 0.675
3.675 49.125 -0.375
3.675 49.125 0.975
2.775 47.325 -0.075
2.775 47.325 -0.675
4.125 47.775 0.975
4.125 47.775 0.375
4.125 47.775 0.225
3.225 49.275 0.825
3.225 49.275 1.125
4.275 48.225 0.375
3.375 49.275 0.375
3.975 47.475 1.125
3.975 47.475 0.825
3.975 47.475 0.975
4.275 48.375 0.225
3.975 48.975 1.275
3.975 47.475 0.375
3.975 48.975 0.975
2.475 48.975 0.525
4.275 48.375 1.275
2.175 48.375 2.625
2.475 48.975 -0.075
4.275 48.375 0.675
4.275 48.375 0.525
4.275 48.075 0.225
3.075 47.175 -0.075
3.825 49.125 -1.275
2.625 49.125 -0.375
2.625 47.325 -0.075
3.825 47.325 -0.225
4.125 47.625 0.675
4.125 47.625 0.975
4.125 48.825 1.125
2.925 49.275 1.275
2.925 49.275 -0.975
4.275 47.925 0.675
4.275 47.925 0.525
2.925 47.175 0.375
2.925 47.175 0.525
2.925 47.175 -0.075
3.675 49.275 -0.075
3.675 49.275 0.975
2.775 49.275 1.725
4.275 47.775 0.975
4.275 47.775 0.825
4.275 47.775 1.425
2.775 47.175 -0.075
2.475 49.125 0.375
4.125 48.975 1.875
4.125 48.975 1.125
2.325 48.975 -0.075
4.125 47.475 1.125
3.225 49.425 -0.975
3.225 49.425 0.075
3.225 49.425 -0.825
3.225 49.425 1.125
4.425 48.225 -0.525
4.425 48.225 0.975
3.375 49.425 1.125
3.075 49.425 2.025
3.375 49.425 0.075
3.375 49.425 1.275
2.625 49.275 -1.275
3.825 49.275 0.075
4.425 48.375 0.975
4.425 48.375 1.425
4.425 48.075 -0.975
4.425 48.375 0.075
4.425 48.075 1.425
4.275 47.625 0.225
3.375 47.025 -1.275
3.375 47.025 -1.425
3.825 47.175 2.625
3.525 49.425 1.125
3.525 49.425 0.075
4.425 48.525 -0.375
4.425 47.925 0.675
2.925 47.025 0.075
2.925 47.025 -0.075
2.925 47.025 -0.975
4.125 47.325 1.425
4.125 49.125 0.675
4.125 49.125 0.825
2.325 49.125 0.675
2.325 49.125 -0.075
3.675 49.425 0.075
3.675 49.425 0.825
2.775 49.425 0.975
2.775 49.425 0.675
4.425 48.675 0.675
2.775 47.025 1.575
2.775 47.025 1.425
3.975 49.275 0.075
4.275 48.975 1.575
4.275 48.975 0.675
3.975 47.175 1.125
3.825 49.425 0.825
2.625 49.425 -1.125
4.425 47.625 0.825
4.425 47.625 2.625
2.625 47.025 1.875
2.625 47.025 1.575
4.575 48.225 -0.675
1.875 48.225 2.925
3.225 49.575 -0.225
3.225 49.575 -2.625
3.375 46.875 4.425
3.075 46.875 -1.275
3.375 49.575 0.975
4.125 49.275 0.525
2.325 49.275 0.525
2.175 49.125 -0.075
4.275 49.125 0.675
4.575 47.925 0.825
4.575 47.925 -0.225
4.575 47.925 -0.975
3.525 49.575 1.275
3.525 49.575 0.525
3.525 49.575 -0.075
3.525 49.575 0.675
2.925 49.575 -1.125
2.925 46.875 3.675
3.975 49.425 1.575
4.425 48.975 0.525
4.425 48.975 0.825
2.025 48.975 -1.425
1.875 47.775 0.375
3.675 49.575 1.125
2.775 49.575 -1.125
4.575 48.825 0.975
2.625 46.875 -0.075
3.825 49.575 0.675
2.175 49.275 0.675
4.125 49.425 0.525
4.125 49.425 0.825
4.425 47.325 0.075
4.425 47.325 0.975
4.425 49.125 0.225
4.425 49.125 0.675
4.425 47.325 -2.325
2.025 49.125 -1.425
2.025 49.125 -0.075
2.025 49.125 -0.225
3.225 49.725 1.575
4.125 47.025 -0.525
1.725 48.075 0.225
3.375 49.725 0.825
3.375 49.725 0.975
3.075 49.725 -0.825
3.075 46.725 -0.225
3.075 46.725 0.375
3.075 46.725 -0.075
3.075 46.725 -1.425
3.525 49.725 1.425
3.525 49.725 0.675
3.525 49.725 0.975
3.525 49.725 0.375
3.525 46.725 -0.975
2.925 46.725 0.525
2.925 46.725 -0.075
4.725 47.925 -0.075
4.575 47.475 0.375
3.975 49.575 0.975
1.725 48.675 2.025
3.675 49.725 1.575
3.675 49.725 -0.225
3.675 49.725 1.125
2.775 46.725 -0.075
4.725 47.775 0.825
4.275 49.425 0.975
4.425 49.275 0.525
2.025 49.275 -1.575
4.725 47.625 -0.075
3.825 49.725 0.975
2.625 49.725 1.275
4.725 48.825 1.425
1.725 47.625 0.225
1.875 49.125 -0.225
4.125 49.575 0.825
3.225 46.575 1.725
3.225 49.875 1.275
4.875 48.225 1.125
3.075 46.575 -0.075
3.075 46.575 0.075
3.375 46.575 2.025
4.875 48.075 0.225
1.575 48.075 0.375
1.575 48.075 -0.075
1.575 48.075 0.225
1.575 48.375 2.175
3.525 49.875 0.225
3.525 49.875 0.975
3.525 49.875 1.575
2.925 46.575 0.375
1.575 48.525 2.175
4.725 47.475 1.125
4.725 47.475 0.075
4.725 47.475 0.675
4.725 48.975 0.675
3.975 49.725 0.825
3.975 49.725 2.025
3.975 49.725 0.675
2.475 46.725 2.625
2.475 49.725 -0.075
4.875 47.925 0.675
4.875 47.925 0.975
1.575 47.925 0.075
2.025 49.425 -3.975
3.675 49.875 1.575
2.775 46.575 -4.575
2.775 49.875 -0.375
4.875 47.775 0.825
4.875 47.775 0.525
1.575 47.775 0.225
4.275 49.575 0.225
4.275 46.875 0.075
4.275 46.875 -0.225
4.725 47.325 0.525
4.725 49.125 0.975
2.325 49.725 0.075
3.825 49.875 1.725
3.825 49.875 0.825
3.825 49.875 0.675
3.225 50.025 1.275
1.425 48.225 -0.075
3.225 46.425 1.725
3.375 50.025 -0.225
3.075 50.025 1.275
3.375 50.025 1.575
3.375 50.025 -1.575
3.375 50.025 1.125
3.375 50.025 0.075
3.375 50.025 -1.425
1.875 49.425 -1.125
1.875 49.425 -1.575
1.425 48.075 0.225
1.425 48.375 2.925
4.425 46.875 0.225
4.425 46.875 3.075
4.425 46.875 -3.225
2.025 49.575 -1.575
2.025 46.875 -3.525
2.025 49.575 -1.125
4.575 47.025 0.225
4.575 47.025 0.525
3.075 46.425 0.375
3.375 46.425 4.725
2.475 49.875 -0.375
4.875 47.475 -0.225
4.875 47.475 0.825
1.575 47.475 1.575
3.525 50.025 0.825
1.425 48.525 0.075
1.425 47.925 0.225
1.425 47.925 0.675
2.925 46.425 -0.075
4.725 47.175 0.525
2.775 50.025 1.575
1.425 48.675 1.725
1.425 47.775 0.225
1.425 47.775 0.675
2.775 46.425 -0.075
2.775 46.425 -5.025
2.325 46.575 2.775
4.125 49.875 2.325
2.325 49.875 0.375
2.325 49.875 -0.075
4.125 49.875 0.225
4.125 49.875 0.825
2.325 49.875 0.525
4.875 47.325 0.075
1.575 47.325 -0.075
1.575 47.325 0.375
1.575 49.125 -1.425
3.825 50.025 0.975
3.825 50.025 1.125
1.425 48.825 -1.275
1.425 47.625 0.375
1.425 47.625 0.975
1.425 47.625 0.675
2.625 46.425 -0.075
4.725 47.025 0.675
4.725 47.025 1.275
3.975 50.025 0.525
2.475 50.025 -0.825
2.475 50.025 -0.675
3.975 50.025 0.825
1.425 48.975 -1.125
1.425 47.475 0.075
3.225 46.275 0.075
3.225 46.275 -0.225
3.375 50.175 0.825
3.075 50.175 1.125
2.175 49.875 -0.075
4.275 49.875 0.225
1.275 48.075 0.225
1.275 48.375 0.075
1.275 48.075 0.375
4.875 47.175 0.225
1.575 47.175 -0.075
1.575 47.175 -0.225
3.075 46.275 0.675
3.075 46.275 -0.075
3.375 46.275 -0.975
3.525 50.175 -0.375
3.525 50.175 -0.075
3.525 50.175 1.275
2.925 50.175 1.125
2.925 50.175 0.975
5.175 48.525 0.225
1.275 47.925 0.975
1.275 47.925 0.675
1.275 47.925 0.225
3.525 46.275 0.075
2.925 46.275 -0.075
2.775 50.175 1.725
1.275 47.775 0.375
1.275 47.775 0.075
1.275 47.775 0.675
2.325 50.025 2.625
1.425 47.325 0.225
1.425 47.325 0.075
4.575 46.725 -0.225
4.725 46.875 1.425
4.725 46.875 0.675
2.625 50.175 1.575
3.825 50.175 -0.975
2.625 50.175 -0.975
3.825 50.175 0.525
3.825 50.175 0.225
3.825 50.175 0.375
3.825 50.175 0.675
2.025 49.875 -0.075
1.275 47.625 0.825
1.275 47.625 0.225
4.875 47.025 0.225
4.875 47.025 0.825
1.575 47.025 -0.075
1.575 47.025 -0.225
1.425 47.175 0.075
1.425 47.175 -0.225
3.975 50.175 0.375
3.975 50.175 0.525
2.475 50.175 1.575
1.275 47.475 -0.375
1.275 47.475 0.075
2.475 46.275 -1.275
1.125 48.225 0.525
1.125 48.225 0.375
1.125 48.225 0.075
3.225 50.325 0.825
1.125 48.375 -1.125
1.125 48.075 1.125
1.125 48.075 0.525
1.125 48.075 0.675
3.075 46.125 0.075
4.725 46.725 -0.375
1.725 49.725 1.725
1.725 46.725 -3.075
1.125 47.925 1.725
1.125 47.925 -2.925
1.125 47.925 0.975
1.125 47.925 0.225
1.125 47.925 -0.525
1.125 47.925 0.675
2.925 46.125 -0.075
2.925 50.325 1.125
3.525 50.325 2.475
1.575 49.575 -1.575
1.575 49.575 1.575
4.125 50.175 0.675
5.175 47.325 1.275
1.275 47.325 -0.075
1.275 47.325 -0.825
1.275 47.325 0.375
1.275 47.325 0.525
1.275 47.325 -0.225
1.275 49.125 1.725
1.125 47.775 -0.225
1.125 47.775 -0.375
1.125 47.775 0.975
1.125 47.775 1.125
3.675 50.325 -0.225
2.775 46.125 -0.075
2.775 50.325 0.675
2.025 50.025 2.325
1.425 49.425 -1.575
1.425 47.025 -3.075
1.425 47.025 -0.225
2.025 46.425 0.225
1.125 47.625 0.225
1.125 47.625 -0.225
3.825 50.325 0.675
2.625 50.325 0.975
2.625 50.325 0.525
2.175 50.175 0.075
2.175 50.175 0.375
1.275 47.175 0.075
1.275 47.175 1.125
1.275 47.175 -0.075
1.275 47.175 -2.925
4.275 46.275 3.675
4.725 46.575 1.275
1.125 47.475 0.525
1.125 47.475 0.825
1.125 47.475 0.975
1.575 46.725 0.675
1.125 47.475 0.225
3.975 50.325 0.975
2.475 50.325 0.375
1.875 50.025 -0.075
0.975 48.225 0.225
3.225 50.475 0.975
3.225 45.975 -1.125
3.225 45.975 0.525
3.225 45.975 -0.225
3.225 50.475 1.125
3.225 45.975 0.075
1.425 46.875 -0.075
1.425 46.875 -0.225
0.975 48.075 0.525
3.075 50.475 0.825
3.075 50.475 5.475
3.075 50.475 0.675
0.975 48.375 0.225
0.975 48.075 0.975
3.075 45.975 -0.675
3.075 45.975 0.075
3.075 45.975 0.525
2.925 45.975 -0.075
2.925 50.475 0.675
2.925 50.475 0.975
0.975 47.925 0.975
1.125 47.325 -0.075
1.125 47.325 -2.775
1.125 47.325 0.525
1.125 47.325 0.675
1.125 47.325 0.375
2.325 46.125 -0.075
2.325 50.325 -0.075
1.275 47.025 0.225
1.275 47.025 -0.075
1.275 47.025 0.075
1.275 47.025 -0.225
0.975 48.675 -1.275
3.675 50.475 0.675
0.975 47.775 0.525
0.975 47.775 0.975
0.975 47.775 1.275
0.975 47.775 0.075
0.975 47.775 1.125
3.825 50.475 0.825
3.825 45.975 1.425
0.975 47.625 1.125
0.975 47.625 0.375
0.975 47.625 1.575
0.975 47.625 -0.075
4.875 46.575 1.425
1.425 46.725 0.825
1.425 46.725 0.525
4.725 46.425 -4.575
4.275 46.125 -2.925
2.175 50.325 -0.075
2.175 50.325 -0.675
2.175 50.325 3.525
2.175 50.325 -2.175
1.125 47.175 0.675
1.125 47.175 0.225
1.125 47.175 0.375
5.325 47.175 2.025
0.975 47.475 0.525
2.475 50.475 0.975
0.975 47.475 0.675
0.975 48.975 -0.225
1.275 46.875 -0.075
1.875 46.275 -0.075
3.225 50.625 0.675
3.225 50.625 0.075
3.225 50.625 -0.825
3.225 45.825 -1.125
3.225 45.825 -3.975
3.225 45.825 0.075
5.625 48.225 1.875
5.625 48.225 2.925
0.825 48.225 0.375
3.075 50.625 -0.075
3.075 50.625 0.675
3.075 45.825 0.075
3.075 50.625 0.225
0.825 48.075 0.075
1.125 49.425 3.225
3.525 50.625 -0.825
3.525 50.625 0.675
2.925 50.625 0.675
3.525 50.625 2.175
3.525 50.625 0.975
2.925 50.625 0.075
2.925 45.825 0.075
0.825 47.925 0.075
0.825 47.925 0.825
0.825 47.925 0.525
2.025 46.125 0.075
2.025 50.325 1.425
1.125 47.025 -0.225
1.125 47.025 0.375
1.125 47.025 -0.375
0.975 47.325 -0.075
0.975 47.325 0.675
2.325 50.475 -0.375
3.675 50.625 0.675
2.775 50.625 1.125
5.025 46.575 0.225
0.825 47.775 -0.075
0.825 47.775 1.125
1.575 46.425 -0.075
1.275 46.725 0.375
4.725 46.275 0.525
1.725 46.275 0.075
2.625 50.625 1.425
2.625 50.625 1.275
2.625 50.625 1.875
3.825 50.625 0.375
0.825 47.625 1.275
4.275 45.975 1.275
2.175 50.475 0.375
2.175 50.475 0.525
4.275 45.975 0.375
0.975 47.175 -0.075
0.975 47.175 0.975
0.975 47.175 -0.675
0.975 47.175 0.825
1.125 46.875 -0.525
1.125 46.875 0.375
4.575 46.125 0.525
1.875 46.125 0.075
2.475 50.625 0.525
2.475 50.625 1.275
2.475 45.825 -1.275
3.975 45.825 1.575
0.825 47.475 1.125
0.825 47.475 2.775
0.825 47.475 0.525
1.425 46.425 -3.375
3.225 50.775 2.325
0.675 48.225 1.575
2.025 45.975 -0.075
2.025 45.975 0.075
2.025 50.475 -0.075
0.975 47.025 0.825
3.225 45.675 0.075
3.225 45.675 -0.225
3.225 45.675 0.525
4.875 50.175 2.925
3.375 50.775 1.125
3.375 50.775 0.825
3.375 50.775 0.525
3.075 50.775 0.075
3.075 50.775 0.375
0.675 48.075 0.225
1.575 46.275 0.075
3.075 45.675 0.075
4.125 45.825 1.275
2.325 45.825 -0.975
2.325 45.825 -1.125
3.525 50.775 1.575
3.525 50.775 0.675
2.925 50.775 0.225
2.925 50.775 0.525
1.125 46.725 0.375
1.725 46.125 0.225
1.725 46.125 -0.225
1.725 46.125 -0.075
3.675 50.775 0.375
2.775 50.775 0.975
2.775 50.775 -1.125
2.775 50.775 0.525
2.775 50.775 0.675
3.825 50.775 0.525
2.625 50.775 0.675
3.825 50.775 0.375
3.825 50.775 1.425
2.175 50.625 1.575
2.175 50.625 -0.075
4.275 45.825 1.275
0.825 49.275 0.075
0.675 47.625 1.725
0.675 47.625 1.275
0.675 47.625 2.025
3.825 45.675 2.325
1.875 45.975 -0.075
1.875 45.975 0.225
1.875 50.475 -0.075
0.975 46.875 0.525
1.425 46.275 -0.525
5.175 46.425 0.675
1.275 46.425 -0.075
0.675 48.975 1.575
1.125 49.875 -5.175
1.575 46.125 0.225
1.575 46.125 0.375
4.425 45.825 0.825
2.025 45.825 0.525
3.225 45.525 1.575
3.225 45.525 0.675
3.075 50.925 0.375
3.375 50.925 0.975
3.075 50.925 -0.975
3.075 50.925 0.525
1.725 45.975 0.675
1.725 45.975 0.825
1.725 45.975 0.225
1.725 45.975 0.525
0.975 46.725 0.825
0.975 46.725 1.125
0.975 49.725 0.525
0.975 46.725 0.675
0.975 46.725 3.375
3.075 45.525 0.075
2.925 50.925 -1.125
2.925 50.925 0.075
2.925 50.925 0.825
2.925 50.925 -1.275
2.925 50.925 0.525
3.525 50.925 0.375
3.525 50.925 -1.275
3.525 50.925 0.975
0.525 47.925 0.225
3.675 50.925 -0.075
0.525 48.675 -0.225
0.525 47.775 1.275
4.575 45.825 0.825
1.875 45.825 0.525
5.625 49.575 -3.075
0.825 46.875 1.875
2.175 50.775 -0.075
0.675 49.275 -0.075
0.675 47.175 1.725
2.625 50.925 0.825
5.925 47.625 -3.675
0.525 47.625 1.125
1.425 46.125 -0.525
1.425 46.125 -3.375
1.425 50.325 2.025
0.975 49.875 -3.075
1.575 45.975 0.675
1.575 45.975 0.075
1.575 45.975 0.225
2.475 50.925 0.075
0.525 47.475 1.275
2.025 50.775 -0.075
5.775 49.425 -2.925
4.425 45.675 1.125
4.725 45.825 2.475
1.725 45.825 -0.075
1.725 45.825 0.675
5.625 49.725 -3.225
2.325 50.925 1.125
4.125 45.525 1.875
3.225 51.075 -0.225
3.375 51.075 0.075
3.375 51.075 -0.075
3.375 51.075 0.675
3.075 51.075 0.375
3.075 51.075 -0.225
1.125 50.175 -3.525
0.375 48.525 -0.225
0.375 48.525 1.875
3.525 51.075 -0.225
3.525 51.075 0.225
1.125 46.275 0.375
1.125 46.275 -0.375
0.975 50.025 -2.925
0.975 50.025 0.675
1.425 45.975 0.975
1.425 45.975 0.825
1.425 45.975 0.075
0.375 48.675 0.225
0.375 47.775 2.475
3.675 51.075 0.225
2.775 51.075 0.075
2.775 45.375 -1.275
4.575 45.675 1.125
4.575 45.675 0.375
1.875 45.675 0.075
1.875 45.675 0.675
2.175 50.925 -0.375
4.275 45.525 1.575
1.575 45.825 -0.075
1.575 45.825 0.375
0.825 46.575 -3.375
0.375 48.825 0.075
2.625 51.075 1.125
3.975 45.375 1.275
3.975 45.375 1.575
2.475 45.375 0.375
2.025 50.925 0.375
2.025 50.925 0.525
2.025 50.925 -0.075
4.425 45.525 0.525
0.675 49.725 -3.975
1.725 45.675 0.075
1.725 45.675 -0.075
1.125 46.125 0.225
1.275 45.975 -0.375
2.325 51.075 1.275
1.425 45.825 1.275
3.225 45.225 -1.575
3.225 45.225 -0.225
0.225 48.225 2.175
0.225 48.225 1.425
0.225 48.075 1.725
0.225 48.075 0.075
3.075 45.225 1.575
3.075 45.225 0.525
3.375 51.225 -0.075
3.075 51.225 -0.225
3.525 51.225 0.225
2.925 51.225 0.225
2.925 45.225 0.825
2.925 45.225 -0.075
3.525 51.225 -0.225
1.875 50.925 -0.075
4.575 45.525 0.825
4.575 45.525 0.225
4.575 45.525 1.275
2.775 45.225 2.325
2.775 51.225 0.675
2.775 45.225 0.075
0.225 47.775 1.275
4.275 45.375 1.125
4.275 45.375 1.575
2.175 45.375 -0.075
1.575 45.675 0.225
2.625 51.225 0.975
2.625 51.225 -1.125
0.225 48.825 -0.075
0.225 48.825 0.075
0.225 47.625 2.625
0.225 47.625 1.125
1.125 45.975 0.825
1.725 50.925 -0.075
5.925 49.725 -3.225
1.725 45.525 0.075
1.725 45.525 -0.675
1.725 45.525 -0.225
2.475 45.225 2.175
0.225 47.475 0.675
3.975 45.225 1.575
4.425 45.375 -5.775
4.425 45.375 0.975
2.025 45.375 -0.075
2.025 45.375 0.075
1.425 45.675 0.675
3.225 45.075 0.075
3.225 45.075 0.525
0.075 48.225 1.425
3.075 45.075 0.525
3.075 45.075 0.075
3.375 51.375 -0.075
3.075 51.375 0.525
3.075 51.375 -0.975
0.075 48.375 0.675
0.075 48.075 2.625
4.575 45.375 0.075
4.575 45.375 0.675
4.575 45.375 1.125
1.875 45.375 0.375
1.875 45.375 0.075
1.875 45.375 -0.075
1.575 50.925 -1.125
3.525 45.075 0.825
2.925 51.375 0.225
2.925 51.375 0.675
3.525 51.375 -0.375
3.525 51.375 0.075
3.525 51.375 -0.225
0.525 46.575 -2.775
0.075 48.525 1.575
0.075 47.925 1.125
1.575 45.525 0.975
0.225 49.275 -0.225
2.175 45.225 -0.525
2.175 45.225 0.075
3.675 45.075 2.325
2.775 51.375 0.825
2.775 51.375 0.225
2.775 45.075 0.075
0.075 48.675 0.075
0.075 47.775 2.175
0.075 47.775 -0.225
0.075 47.775 2.025
1.125 45.825 0.975
2.625 51.375 0.525
3.825 51.375 -4.875
3.825 51.375 0.975
2.625 45.075 -0.075
1.725 45.375 0.375
1.725 45.375 0.225
1.725 45.375 -0.075
2.025 45.225 0.225
2.025 45.225 0.075
2.025 45.225 -1.275
2.475 45.075 0.075
0.075 48.975 -0.075
0.075 47.475 1.275
0.075 47.475 0.675
1.425 45.525 0.225
1.425 45.525 0.675
2.325 51.375 0.225
2.325 45.075 -0.075
2.325 45.075 0.075
0.075 49.125 -0.075
1.875 51.225 2.925
1.875 45.225 -0.075
1.875 45.225 0.225
1.875 45.225 0.075
6.225 46.875 0.525
0.225 49.575 -0.075
0.225 49.575 -0.225
0.375 46.575 0.675
1.575 45.375 -0.075
1.575 45.375 0.075
1.575 45.375 0.675
1.575 45.375 0.825
1.575 45.375 -0.375
3.225 51.525 0.525
-0.075 48.225 1.275
3.225 44.925 0.675
3.225 44.925 -0.225
3.075 51.525 1.275
-0.075 48.075 0.975
-0.075 48.375 0.675
-0.075 48.075 0.525
3.075 44.925 0.075
3.075 44.925 0.825
2.925 51.525 0.225
2.925 51.525 0.525
2.925 51.525 0.675
2.925 51.525 0.975
2.925 44.925 -0.075
2.175 51.375 0.075
2.175 45.075 -0.075
2.175 45.075 0.075
2.175 45.075 0.225
0.075 47.175 0.825
0.075 47.175 1.725
2.775 51.525 0.375
3.675 51.525 0.225
-0.075 48.675 0.075
1.275 45.525 0.375
2.625 51.525 0.975
2.625 51.525 0.375
3.825 51.525 0.525
1.725 45.225 0.225
0.225 49.725 1.575
-0.075 48.825 -0.375
-0.075 48.825 -0.075
-0.075 47.625 1.725
-0.075 47.625 3.075
-0.075 47.625 1.125
3.825 44.925 -0.975
3.825 44.925 2.025
3.825 44.925 2.325
0.075 49.425 1.875
0.075 49.425 0.375
2.025 45.075 -0.075
2.025 45.075 0.225
2.025 45.075 -0.225
2.025 45.075 0.375
1.425 45.375 0.375
2.475 51.525 0.375
2.475 51.525 1.275
2.475 51.525 0.525
-0.075 48.975 1.875
-0.075 48.975 1.575
-0.075 48.975 -0.225
-0.075 48.975 0.975
-0.075 48.975 -0.675
-0.075 47.475 1.725
-0.075 47.475 0.525
0.825 45.825 -5.475
0.675 50.475 -4.275
2.325 51.525 -0.825
-0.075 49.125 -0.075
-0.075 49.125 0.225
-0.075 49.125 0.675
-0.075 49.125 -0.525
0.525 46.125 0.375
0.525 50.325 -3.825
2.325 44.925 -2.025
0.225 46.575 0.525
1.575 51.225 -1.275
1.575 45.225 0.225
1.575 45.225 0.975
1.575 45.225 0.075
1.875 51.375 -1.875
1.875 51.375 -1.725
1.875 45.075 1.575
1.875 45.075 -0.225
1.875 45.075 0.075
6.375 46.875 0.675
0.075 49.575 -0.075
0.075 49.575 0.075
3.225 51.675 1.125
3.225 51.675 0.225
3.225 44.775 0.075
3.225 44.775 0.525
3.075 51.675 0.975
3.075 51.675 0.525
3.075 51.675 -0.525
3.075 51.675 1.125
3.075 51.675 1.425
3.075 51.675 0.075
3.075 51.675 1.275
3.075 51.675 0.375
3.075 51.675 0.675
-0.225 48.375 1.125
3.375 44.775 0.075
3.075 44.775 0.075
2.925 51.675 0.075
2.925 51.675 0.675
2.925 51.675 0.975
2.925 51.675 1.275
-0.075 49.275 -0.225
-0.075 49.275 0.375
-0.075 49.275 -0.375
-0.225 48.525 2.625
-0.225 48.525 0.075
-0.075 47.175 0.675
4.275 44.925 1.725
2.175 44.925 0.225
2.175 44.925 0.075
2.775 51.675 0.975
2.775 51.675 0.225
-0.225 47.775 1.875
1.725 45.075 0.225
1.725 45.075 1.575
1.725 45.075 0.075
0.075 49.725 -0.225
1.425 45.225 -0.075
1.425 45.225 0.525
2.625 51.675 0.525
2.625 51.675 0.675
2.625 51.675 0.375
3.825 51.675 0.825
-0.225 47.625 0.225
-0.225 48.825 -0.075
-0.225 48.825 -0.525
-0.225 48.825 0.075
3.825 44.775 -1.125
-0.075 49.425 -0.075
-0.075 49.425 0.375
2.025 44.925 0.075
2.025 44.925 -0.225
0.525 50.475 -0.375
-0.225 48.975 -0.375
1.575 51.375 -1.125
1.575 45.075 -0.075
6.375 46.575 0.825
0.075 46.575 -0.375
0.075 46.575 0.675
2.325 51.675 1.575
1.875 51.525 0.075
-0.225 49.125 -0.375
-0.225 49.125 -0.225
-0.225 49.125 -0.075
-0.225 47.325 0.075
-0.225 47.325 0.375
-0.075 49.575 -0.225
-0.075 49.575 0.225
-0.075 49.575 -0.075
-0.075 46.875 5.625
1.875 44.925 -0.075
1.875 44.925 0.075
0.225 50.175 -0.375
1.275 45.225 0.525
-0.375 48.225 -2.925
3.225 51.825 0.525
3.225 51.825 -0.075
3.225 51.825 0.825
3.225 44.625 0.075
3.225 51.825 0.675
3.225 51.825 1.125
3.225 51.825 0.975
-0.375 48.375 2.325
3.075 51.825 1.125
3.075 51.825 0.675
3.075 51.825 0.975
3.375 51.825 0.375
3.375 51.825 0.225
3.375 51.825 2.775
2.175 51.675 2.025
2.175 51.675 0.975
4.275 51.675 -0.225
0.675 50.775 1.575
-0.225 49.275 -0.225
-0.225 49.275 0.825
-0.225 49.275 -0.075
-0.225 49.275 -0.375
-0.225 47.175 0.825
2.175 44.775 0.375
0.525 50.625 -0.525
2.925 51.825 1.275
2.925 51.825 0.975
3.525 51.825 1.275
3.525 51.825 -1.575
0.825 45.525 0.975
-0.075 49.725 -0.225
-0.075 46.725 0.375
4.725 44.925 1.725
1.725 44.925 0.075
1.725 44.925 0.225
1.425 45.075 1.125
1.425 45.075 0.225
-0.375 48.675 -0.825
2.775 51.825 0.675
0.075 46.425 0.675
0.075 46.425 0.375
0.375 50.475 -0.675
0.975 51.075 1.125
0.975 51.075 1.575
-0.375 48.825 -0.075
-0.375 48.825 0.075
6.825 47.625 1.425
-0.375 47.625 1.575
-0.375 47.625 2.025
-0.375 47.625 1.275
2.625 51.825 0.375
2.625 44.625 -3.075
-0.225 49.425 -0.225
-0.225 49.425 0.975
-0.225 47.025 0.375
-0.225 47.025 1.275
-0.225 47.025 0.975
-0.225 47.025 0.525
4.425 44.775 1.725
2.025 44.775 0.225
0.225 50.325 -0.525
-0.375 48.975 -0.825
3.975 44.625 -1.425
-0.075 49.875 -0.675
-0.075 49.875 -0.075
-0.075 49.875 0.075
-0.075 46.575 0.825
-0.075 46.575 -0.075
-0.075 46.575 -0.225
1.575 44.925 0.075
1.875 51.675 -0.375
1.875 51.675 0.375
1.875 51.675 -0.075
1.875 51.675 0.525
0.075 50.175 1.125
1.275 45.075 -0.075
-0.225 49.575 -0.225
-0.225 49.575 0.075
1.875 44.775 -0.525
1.875 44.775 -0.075
-0.375 49.125 0.075
-0.375 47.325 3.075
2.325 51.825 1.125
2.325 51.825 -0.975
2.325 51.825 -0.825
0.525 50.775 0.825
0.375 45.825 0.225
0.825 45.375 1.275
-0.375 49.275 -0.075
-0.375 49.275 -0.225
-0.375 49.275 0.225
-0.375 49.275 0.525
0.225 50.475 -3.225
3.225 51.975 0.675
3.225 51.975 0.825
3.225 51.975 0.225
-0.525 48.225 -0.525
0.975 45.225 -0.225
0.975 45.225 1.725
0.225 50.475 -0.075
-0.525 48.075 0.975
-0.525 48.375 0.675
3.075 51.975 0.975
3.375 51.975 0.975
3.375 51.975 1.575
3.375 51.975 0.225
3.375 51.975 0.525
3.075 51.975 0.825
3.075 51.975 0.675
-0.075 50.025 -0.075
1.425 44.925 0.975
1.425 44.925 0.075
1.425 44.925 0.675
1.425 44.925 0.525
1.725 51.675 -0.075
3.525 51.975 0.225
2.925 51.975 1.125
3.525 44.475 0.075
2.925 44.475 -0.075
-0.225 49.725 -0.225
-0.225 49.725 -0.075
-0.225 49.725 0.075
-0.225 46.725 0.225
-0.525 47.925 0.825
4.725 44.775 1.425
1.725 44.775 -0.075
1.725 44.775 0.075
2.775 51.975 0.675
1.125 45.075 0.825
0.075 50.325 -0.525
-0.375 49.425 0.225
-0.375 49.425 0.075
-0.375 49.425 -0.675
-0.375 49.425 0.375
-0.375 49.425 -0.075
-0.375 47.025 0.525
2.025 51.825 -0.675
2.025 51.825 1.275
2.025 51.825 2.025
2.025 51.825 -1.125
2.625 51.975 0.375
-0.525 48.825 -0.225
0.525 50.925 -0.075
0.525 50.925 2.625
0.525 50.925 -3.375
0.375 50.775 -0.225
-0.225 49.875 0.675
2.475 51.975 2.175
-0.525 47.475 1.725
-0.525 47.475 2.475
1.575 44.775 -0.525
1.575 44.775 0.075
1.575 44.775 0.675
1.575 44.775 0.525
-0.075 50.175 -1.425
-0.075 50.175 1.275
-0.075 46.275 2.025
-0.075 46.275 0.525
1.275 44.925 0.675
1.275 44.925 0.825
0.825 45.225 -0.075
-0.375 49.575 0.075
-0.375 49.575 0.375
-0.375 46.875 -5.475
-0.375 46.875 0.525
-0.375 46.875 3.225
-0.525 49.125 -0.225
-0.525 49.125 0.225
2.325 44.475 2.925
0.975 45.075 0.825
0.075 50.475 0.075
0.075 50.475 0.225
-0.225 50.025 1.275
-0.225 50.025 -0.375
5.025 44.775 1.425
1.425 44.775 -0.075
1.425 44.775 0.825
-0.525 49.275 0.375
-0.525 49.275 1.275
-0.525 47.175 0.375
-0.525 47.175 2.025
3.225 52.125 0.675
3.225 44.325 0.075
3.225 44.325 0.525
-0.375 49.725 -0.075
-0.375 49.725 0.675
-0.375 49.725 -0.225
-0.375 49.725 0.525
-0.675 48.225 2.025
4.725 44.625 0.225
1.725 44.625 0.225
3.075 52.125 0.525
3.075 52.125 0.675
3.375 52.125 0.375
3.075 44.325 -0.075
3.375 44.325 -0.225
3.075 44.325 0.075
2.925 52.125 0.225
3.525 52.125 0.225
-0.075 46.125 0.375
-0.075 50.325 -0.375
1.125 44.925 0.225
1.125 44.925 0.825
2.775 52.125 0.375
2.775 52.125 1.725
3.675 52.125 0.225
0.525 51.075 1.875
0.375 45.525 2.625
-0.525 49.425 -0.975
-0.525 49.425 0.225
0.675 51.225 1.425
3.825 52.125 0.525
2.625 52.125 0.825
0.825 45.075 1.725
0.825 45.075 1.425
0.825 51.375 0.825
0.075 50.625 0.225
-0.375 49.875 -1.125
-0.375 49.875 -1.275
-0.375 46.575 1.725
1.575 51.825 -0.075
1.575 51.825 1.725
1.575 44.625 0.225
-0.225 46.275 -0.825
1.275 44.775 0.975
3.975 44.325 1.725
-0.675 48.975 -0.525
4.575 51.975 -0.375
4.575 44.475 1.425
-0.525 49.575 0.375
-0.525 49.575 -0.975
-0.525 49.575 0.675
-0.525 49.575 -0.075
-0.525 46.875 1.275
-0.525 46.875 1.725
-0.075 45.975 1.875
-0.075 45.975 2.175
0.975 44.925 1.725
0.975 44.925 1.275
0.975 44.925 1.425
1.425 44.625 0.225
1.425 51.825 -0.075
0.375 51.075 1.275
0.375 51.075 1.725
0.375 51.075 -0.375
1.125 51.675 2.775
2.175 52.125 0.975
-0.525 49.725 -0.075
1.725 44.475 0.675
-0.525 49.725 0.525
-0.525 49.725 -0.225
-0.525 49.725 0.225
1.725 44.475 0.225
1.725 44.475 0.375
1.725 51.975 1.125
1.125 44.775 0.075
1.125 44.775 0.375
-0.825 48.225 1.875
-0.825 48.225 1.125
3.225 44.175 2.775
3.225 44.175 0.075
-0.825 48.375 3.375
-0.825 48.375 2.475
0.075 45.675 0.675
3.375 44.175 0.075
2.925 52.275 1.575
2.925 52.275 2.025
2.925 52.275 1.125
-0.825 48.525 1.125
2.925 44.175 2.475
2.775 52.275 1.725
-0.825 48.675 1.275
2.775 44.175 0.975
2.025 44.325 0.525
4.425 44.325 2.625
-0.675 49.425 1.275
-0.675 49.425 0.825
-0.675 49.425 -0.075
-0.675 49.425 0.075
-0.675 49.425 0.525
-0.075 50.625 1.725
-0.075 45.825 2.475
-0.675 47.025 1.725
-0.675 47.025 2.475
0.825 44.925 1.875
2.625 52.275 1.125
-0.375 50.175 -0.225
-0.375 50.175 -0.525
1.275 44.625 1.275
5.175 44.625 0.975
6.975 46.575 -1.725
-0.525 49.875 0.975
1.575 44.475 -1.125
1.575 44.475 1.125
1.575 44.475 0.675
1.575 44.475 -1.275
1.575 44.475 0.525
1.575 44.475 0.075
1.575 44.475 0.825
1.575 44.475 0.375
3.975 52.275 -0.225
2.475 52.275 2.025
1.875 52.125 -1.875
1.875 44.325 0.675
1.875 44.325 0.825
1.875 44.325 0.525
4.575 52.125 0.075
4.575 44.325 0.375
-0.675 49.575 -0.075
-0.675 46.875 1.875
0.375 51.225 0.075
0.375 51.225 0.525
0.375 51.225 0.975
0.075 50.925 1.875
0.075 50.925 -3.225
2.325 52.275 0.975
0.525 51.375 0.225
-0.825 49.125 1.125
-0.525 50.025 -0.825
-0.525 50.025 1.125
1.425 44.475 1.425
1.425 44.475 -0.225
6.825 46.125 -0.675
-0.375 46.125 1.875
1.125 44.625 0.675
1.125 44.625 0.075
-0.075 50.775 0.825
-0.075 50.775 0.225
1.725 52.125 -4.125
1.725 44.325 -0.075
1.725 44.325 0.225
1.725 44.325 0.825
1.725 44.325 0.675
-0.675 49.725 0.525
-0.675 49.725 1.575
-0.675 49.725 0.375
-0.675 49.725 0.075
2.175 52.275 1.425
2.175 52.275 -0.375
4.275 44.175 1.575
3.075 52.425 0.525
3.375 52.425 0.675
-0.975 48.075 -0.825
5.625 44.775 -2.475
2.925 52.425 1.125
2.925 52.425 1.425
2.925 52.425 0.675
2.925 52.425 0.525
2.775 52.425 0.075
4.425 52.275 0.525
-0.825 49.425 0.375
-0.975 48.675 0.375
4.425 44.175 1.275
-0.525 50.175 0.075
1.275 44.475 0.375
-0.525 46.275 1.875
1.575 44.325 0.975
1.575 44.325 0.375
1.575 44.325 1.275
1.575 52.125 2.175
-0.675 49.875 0.375
-0.675 49.875 -0.225
-0.675 49.875 1.125
-0.675 49.875 0.675
-0.675 46.575 0.975
2.625 52.425 0.825
2.625 52.425 0.975
2.625 52.425 1.725
3.825 52.425 1.125
0.225 51.225 1.725
0.225 45.225 0.525
-0.975 47.625 0.375
-0.975 48.825 0.075
-0.375 50.475 0.075
0.975 44.625 0.075
0.375 51.375 0.225
0.375 51.375 1.275
0.075 51.075 1.725
0.075 51.075 1.425
0.075 45.375 0.675
-0.075 50.925 1.575
-0.075 50.925 2.475
-0.075 45.525 0.675
3.975 52.425 -0.075
2.475 52.425 1.875
3.975 44.025 2.025
-0.825 49.575 0.075
-0.825 49.575 0.675
1.875 44.175 0.075
1.875 44.175 0.825
1.875 44.175 0.375
1.875 44.175 0.525
-0.225 50.775 0.375
0.675 44.775 1.575
1.425 52.125 -0.525
1.425 44.325 0.825
1.425 44.325 1.125
1.425 44.325 -0.225
-0.675 50.025 0.225
-0.975 47.325 1.275
-0.975 49.125 0.375
4.125 44.025 1.575
4.125 44.025 1.275
1.125 51.975 -0.225
-0.525 50.325 0.675
-0.525 50.325 1.575
1.725 52.275 1.425
-0.825 49.725 0.075
-0.825 49.725 0.225
-0.825 49.725 0.375
4.725 44.175 1.425
1.725 44.175 -1.725
1.725 44.175 0.825
1.725 44.175 1.425
1.725 44.175 0.525
-0.375 50.625 2.325
-0.375 50.625 2.025
0.825 44.625 0.975
0.825 51.825 -1.575
2.175 44.025 -0.375
4.275 44.025 1.875
0.225 51.375 2.025
0.225 51.375 0.225
0.225 51.375 0.525
0.225 51.375 1.425
0.225 45.075 1.875
-1.125 48.225 1.425
0.075 51.225 1.575
0.075 51.225 1.725
0.075 45.225 1.875
3.225 52.575 0.525
3.375 52.575 0.675
3.075 52.575 0.525
3.075 52.575 0.375
3.075 52.575 0.075
3.075 52.575 -0.075
3.375 43.875 -0.375
0.375 51.525 1.125
0.375 51.525 0.375
0.375 51.525 0.225
-0.675 50.175 1.875
1.275 52.125 -0.525
-1.125 47.925 2.175
-1.125 47.925 1.275
-0.075 51.075 -2.775
-0.075 51.075 1.725
-0.075 45.375 0.225
2.925 52.575 0.075
-0.675 46.275 1.125
2.025 52.425 -4.125
2.025 52.425 1.725
2.025 52.425 2.025
2.025 44.025 2.925
2.025 44.025 0.075
2.025 44.025 0.975
1.575 52.275 1.125
-0.825 49.875 0.525
-0.525 50.475 1.575
-0.525 45.975 1.725
2.775 52.575 0.525
2.775 52.575 0.675
1.575 44.175 0.675
1.575 44.175 0.375
0.525 51.675 -2.175
0.525 44.775 0.375
0.525 44.775 0.525
2.625 52.575 1.275
2.625 52.575 0.825
-0.375 50.775 0.825
-0.375 50.775 0.675
-0.975 46.875 -0.975
-0.375 45.675 -0.375
1.875 44.025 0.525
1.875 44.025 0.825
1.875 44.025 0.375
4.575 44.025 0.975
-1.125 47.475 1.725
2.475 43.875 -0.975
1.125 52.125 2.025
1.125 44.325 -1.575
-0.675 50.325 0.075
-0.675 50.325 1.875
-0.675 50.325 0.375
-0.675 50.325 1.125
1.425 52.275 1.275
-0.825 46.425 0.825
1.425 44.175 0.675
1.425 44.175 0.525
1.425 44.175 0.825
1.425 44.175 0.375
1.425 44.175 1.575
5.025 44.175 1.125
2.325 52.575 1.125
2.325 43.875 1.125
2.325 43.875 0.675
4.125 43.875 1.275
-0.525 50.625 2.025
-0.525 50.625 0.825
0.825 44.475 -0.075
0.225 51.525 0.225
0.225 51.525 1.125
0.225 51.525 1.425
-0.975 49.725 0.075
-0.075 51.225 1.125
1.725 44.025 0.225
1.725 44.025 0.975
1.725 44.025 0.825
1.725 44.025 0.075
-1.125 47.175 1.575
-0.225 45.375 0.525
2.175 43.875 0.975
2.175 43.875 0.375
0.375 44.775 0.825
-0.825 50.175 -0.075
-0.825 50.175 1.425
-0.825 50.175 1.275
-0.825 46.275 0.825
-0.375 50.925 1.125
3.225 52.725 0.525
0.525 44.625 0.525
0.525 44.625 2.325
-0.375 45.525 0.375
-0.375 45.525 1.125
3.375 43.725 0.825
3.375 52.725 0.675
3.075 52.725 0.375
-0.675 45.975 1.875
1.575 52.425 -0.075
-1.125 47.025 -0.075
2.025 43.875 0.675
2.025 43.875 0.375
2.025 43.875 0.525
1.575 44.025 1.575
1.575 44.025 0.975
1.575 44.025 1.725
1.575 44.025 0.825
-1.275 48.675 -0.675
2.775 52.725 0.375
3.675 52.725 1.725
0.675 44.475 2.475
-0.525 45.675 0.225
2.625 52.725 1.275
-1.275 47.625 0.825
1.875 52.575 1.725
1.875 43.875 0.675
1.875 43.875 0.525
1.875 43.875 0.225
1.875 43.875 0.375
4.575 43.875 0.825
0.075 51.525 0.225
-0.075 51.375 -2.775
-0.075 51.375 1.275
-1.275 47.475 0.675
-1.275 47.475 0.525
1.125 44.175 1.575
1.425 52.425 2.175
-0.975 50.025 -0.075
-0.975 46.425 1.425
1.425 44.025 1.125
1.425 44.025 2.025
1.425 44.025 1.575
1.425 44.025 0.225
1.425 44.025 0.975
0.225 51.675 0.975
-0.225 45.225 1.725
-0.225 45.225 1.875
-0.225 45.225 -0.375
-0.225 51.225 -0.075
0.225 44.775 0.525
0.825 44.325 0.375
-0.675 50.625 1.575
2.325 52.725 1.125
2.325 52.725 0.825
-1.275 47.325 0.675
0.375 51.825 -1.275
0.375 51.825 1.125
-1.125 46.725 -0.075
-1.125 46.725 0.375
-1.125 49.725 0.375
1.725 43.875 0.675
1.725 43.875 1.125
4.725 52.575 3.225
1.725 52.575 -0.075
1.725 52.575 1.725
1.725 43.875 0.375
-0.525 50.925 1.575
-0.525 50.925 1.275
2.175 43.725 0.225
2.175 52.725 1.125
2.175 43.725 0.375
2.175 43.725 -1.275
0.525 51.975 1.725
1.275 52.425 -1.125
1.275 52.425 -0.375
-0.975 50.175 -0.075
5.175 44.025 2.175
1.275 44.025 1.125
1.275 44.025 0.525
3.225 43.575 0.525
3.225 43.575 0.675
3.225 43.575 -0.975
3.225 52.875 0.375
3.225 52.875 0.225
3.375 43.575 -0.225
3.075 43.575 -1.125
3.075 43.575 0.075
3.075 43.575 -1.275
-1.125 49.875 1.575
1.575 43.875 1.125
1.575 43.875 0.075
1.575 43.875 0.975
1.575 43.875 0.225
1.575 52.575 0.375
4.875 43.875 0.375
2.025 52.725 0.675
2.025 43.725 0.525
2.025 43.725 0.375
2.025 43.725 0.225
-1.275 47.025 5.025
-1.275 47.025 -0.075
2.925 43.575 0.075
2.925 52.875 0.375
0.675 44.325 0.075
-0.075 51.525 -0.075
-0.075 51.525 0.525
-0.075 44.925 -0.675
-0.075 44.925 1.575
-0.075 44.925 1.275
-0.075 44.925 1.875
2.775 52.875 0.825
2.775 52.875 -0.225
-0.225 45.075 1.875
0.075 44.775 1.575
-0.375 51.225 -3.675
-0.375 51.225 0.525
0.225 51.825 0.975
0.225 44.625 0.375
2.625 52.875 0.975
2.625 43.575 1.575
3.825 43.575 1.125
-1.425 47.625 1.875
-0.975 50.325 -0.375
-0.975 46.125 0.375
5.325 44.025 2.025
1.875 43.725 0.375
1.875 43.725 0.825
1.875 43.725 0.225
-1.275 49.575 -3.075
-0.825 50.625 0.375
-0.825 50.625 1.575
-0.825 50.625 2.025
-0.825 45.825 1.425
-1.125 46.425 -0.375
-1.125 46.425 -0.525
1.425 43.875 0.525
1.425 43.875 1.125
1.425 52.575 -0.225
5.025 43.875 0.375
0.825 44.175 0.675
0.825 44.175 0.075
0.375 44.475 0.525
-1.425 47.475 0.675
-0.525 51.075 1.875
-0.525 51.075 -0.225
-0.525 45.375 1.125
2.325 52.875 0.825
4.125 43.575 2.025
1.725 52.725 1.725
1.725 43.725 0.825
1.725 43.725 0.525
1.725 43.725 0.975
1.725 43.725 0.225
-1.275 46.725 1.875
-1.275 46.725 0.075
-0.675 45.525 2.025
-0.975 50.475 0.225
-0.975 50.475 1.725
-0.975 50.475 2.025
2.175 52.875 1.425
2.175 43.575 0.225
2.175 43.575 0.375
2.175 43.575 -0.075
4.275 52.875 -0.525
-1.425 47.175 1.425
1.275 52.575 -0.525
-0.075 51.675 1.275
-0.225 51.525 1.425
-0.375 51.375 1.725
0.075 44.625 1.425
0.075 44.625 1.725
-0.825 50.775 0.825
0.675 44.175 0.375
-1.275 46.575 0.825
-1.275 46.575 2.325
-1.275 49.875 1.425
1.575 52.725 -0.075
1.575 52.725 -1.725
1.575 52.725 -0.375
1.575 52.725 0.225
1.575 43.725 0.675
1.575 43.725 1.125
1.575 43.725 1.275
3.225 43.425 0.075
2.025 52.875 1.425
2.025 43.575 0.075
2.025 43.575 0.375
2.025 43.575 0.225
0.225 44.475 1.425
0.225 44.475 0.225
0.225 44.475 0.675
0.225 51.975 1.575
0.225 51.975 1.425
3.375 43.425 0.075
3.375 43.425 1.425
2.925 53.025 0.975
3.525 43.425 3.075
-1.575 47.775 -2.925
2.775 43.425 -1.275
0.375 44.325 0.675
-1.125 50.325 0.375
-0.675 51.075 1.425
-0.675 51.075 1.125
1.125 43.875 1.425
5.325 52.575 1.125
-0.975 50.625 3.675
-0.975 50.625 0.225
-0.975 50.625 1.875
-1.575 47.625 1.575
1.875 52.875 -1.425
1.875 43.575 -0.375
1.875 43.575 0.225
-1.425 46.875 0.075
-1.425 46.875 -0.075
-1.275 50.025 1.275
1.425 43.725 1.275
-1.275 46.425 0.975
-1.575 47.475 0.825
-1.575 47.475 1.275
-1.575 48.975 -0.375
-0.225 51.675 0.675
2.325 53.025 0.525
-0.375 51.525 1.425
-0.375 51.525 0.825
-1.575 47.325 1.275
-0.075 51.825 -0.075
-0.075 44.625 0.675
-0.375 44.925 2.025
4.125 43.425 0.525
1.725 52.875 1.425
1.725 52.875 1.125
1.725 43.575 0.375
1.725 43.575 0.675
1.725 43.575 0.225
-1.425 46.725 1.875
-0.525 51.375 0.675
-1.125 45.975 1.125
0.075 51.975 1.875
0.075 44.475 1.425
6.375 51.975 0.675
0.975 52.575 -2.625
-1.275 50.175 2.175
1.275 52.725 -0.225
5.775 52.425 -1.125
2.175 53.025 0.975
-0.975 50.775 1.125
-1.575 49.275 2.625
0.675 44.025 0.375
0.675 44.025 0.525
-0.675 51.225 1.125
1.575 43.575 0.675
1.575 43.575 0.975
-1.425 46.575 -0.375
4.425 53.025 0.225
4.425 53.025 1.725
2.025 53.025 0.975
2.025 53.025 1.725
2.025 53.025 0.825
-1.575 49.425 -0.225
-1.575 47.025 1.275
4.425 43.425 0.975
3.225 43.275 0.075
0.375 52.275 1.125
-0.825 51.075 1.125
3.075 43.275 0.075
0.375 44.175 0.225
2.925 53.175 0.825
3.525 43.275 1.425
2.925 43.275 0.075
1.125 52.725 -0.225
-1.275 50.325 0.975
-1.275 50.325 0.525
-1.125 50.625 2.175
5.625 52.575 1.125
2.775 53.175 0.675
3.675 43.275 3.075
-0.375 51.675 1.425
1.875 53.025 0.975
1.425 52.875 1.275
1.425 52.875 -1.725
1.425 52.875 -1.425
1.425 52.875 1.575
-0.225 44.625 1.425
6.825 44.775 0.375
3.825 43.275 2.775
3.825 43.275 -0.825
3.825 43.275 1.125
3.825 43.275 -0.975
4.575 43.425 1.125
1.875 43.425 0.675
-0.975 50.925 2.025
-0.975 50.925 0.825
0.525 44.025 0.225
-0.525 51.525 0.225
-0.075 51.975 0.075
-0.075 44.475 1.725
6.525 51.975 0.825
2.475 53.175 0.975
-1.725 47.475 1.425
0.075 44.325 1.725
4.725 53.025 0.825
1.725 53.025 1.125
-1.575 49.725 -0.525
1.725 43.425 0.825
2.325 53.175 0.825
-1.275 50.475 1.725
-1.275 50.475 2.025
0.225 52.275 0.825
-0.825 51.225 1.425
1.275 52.875 0.375
0.675 43.875 0.375
5.775 52.575 0.525
2.175 53.175 1.275
2.175 53.175 1.125
-1.725 47.175 2.175
1.575 53.025 1.125
-0.975 51.075 0.675
-0.975 51.075 0.075
1.575 43.425 1.275
1.575 43.425 0.825
-0.375 51.825 1.125
6.825 44.625 0.075
2.025 43.275 0.375
-0.525 51.675 1.275
-0.525 51.675 -0.225
-0.225 51.975 0.675
-0.225 51.975 0.225
-0.225 51.975 0.375
-0.225 51.975 1.275
-0.225 51.975 1.125
-1.275 50.625 1.875
-1.275 50.625 0.675
3.225 43.125 0.075
3.225 43.125 0.675
3.225 43.125 0.525
-1.425 50.325 1.125
-1.425 50.325 1.275
3.375 43.125 0.075
3.375 43.125 -0.225
-0.075 44.325 0.975
-0.075 52.125 0.225
-1.125 50.925 1.725
-1.125 45.525 0.525
0.525 43.875 0.675
5.925 52.575 -0.975
2.775 53.325 0.525
2.775 53.325 0.375
1.875 53.175 1.425
-0.825 51.375 0.975
-0.825 51.375 0.825
1.875 43.275 1.125
1.875 43.275 1.275
1.875 43.275 0.075
4.575 43.275 0.675
0.075 44.175 1.275
2.625 53.325 0.825
2.625 53.325 0.525
3.825 43.125 0.975
2.475 43.125 1.125
-0.975 51.225 0.675
-0.975 51.225 2.325
0.225 44.025 0.675
1.725 53.175 1.125
-1.275 50.775 1.875
0.675 52.725 1.725
-1.725 46.725 -0.525
5.775 52.725 0.375
