# .PCD v0.7 - Point Cloud Data file format
VERSION 0.7
FIELDS x y z
SIZE 4 4 4
TYPE F F F
COUNT 1 1 1
WIDTH 2048
HEIGHT 1
VIEWPOINT 0 0 0 1 0 0 0
POINTS 2048
DATA ascii
-16.275 65.175 1.425
-16.275 65.325 1.275
-16.275 65.325 1.425
-16.125 65.325 1.275
-16.425 65.325 1.275
-16.275 65.475 2.325
-16.575 65.175 0.975
-16.575 65.175 0.675
-16.125 65.475 1.575
-16.125 65.475 2.325
-16.575 65.025 0.525
-16.575 65.025 0.975
-16.575 65.025 3.075
-16.425 64.875 0.825
-16.425 65.475 1.425
-15.975 65.325 0.975
-16.575 65.325 1.425
-15.975 65.475 1.275
-16.575 64.875 0.675
-16.575 65.475 0.525
-16.725 65.175 0.825
-16.125 65.625 2.175
-16.425 64.725 0.975
-16.425 64.725 1.275
-16.725 65.325 1.125
-16.725 64.875 1.275
-16.725 65.475 0.975
-16.725 65.475 0.825
-16.725 65.475 -0.075
-16.725 65.475 0.675
-16.575 64.725 1.125
-16.875 65.175 0.825
-16.425 64.575 1.725
-16.875 65.025 0.675
-16.875 65.025 1.425
-16.875 65.325 0.975
-16.725 64.725 1.575
-16.725 64.725 0.975
-16.575 64.575 0.525
-16.875 65.475 1.725
-16.875 64.875 2.325
-16.875 64.875 1.125
-15.975 65.775 1.275
-16.575 65.775 0.975
-15.825 64.575 -2.175
-16.275 65.925 0.675
-16.275 64.425 1.725
-16.875 65.625 0.825
-16.875 64.725 2.025
-16.725 65.775 0.525
-17.025 65.475 1.575
-15.975 65.925 0.975
-15.975 65.925 2.325
-17.025 64.725 1.125
-17.025 64.725 1.575
-16.725 64.425 2.175
-16.725 64.425 2.475
-16.725 64.425 1.725
-16.275 64.275 3.375
-17.175 65.175 1.725
-17.175 64.875 1.125
-16.575 66.075 0.825
-17.025 64.575 2.925
-17.025 64.575 0.975
-16.875 64.425 2.325
-16.875 64.425 2.025
-17.025 65.775 0.375
-17.175 65.625 1.575
-17.175 64.725 1.125
-17.175 64.725 1.275
-17.175 64.725 1.575
-17.175 64.725 0.825
-17.325 65.175 1.425
-17.325 65.175 1.125
-17.325 65.175 0.975
-17.325 65.175 2.025
-17.325 65.175 1.875
-16.125 64.125 -0.525
-16.425 66.225 2.175
-16.425 64.125 1.725
-17.325 65.025 -0.075
-17.325 65.025 1.275
-17.325 65.025 1.425
-17.025 64.425 1.875
-17.025 65.925 1.725
-17.025 65.925 2.175
-17.325 65.325 -0.225
-17.325 65.325 1.425
-17.325 65.325 1.275
-16.875 64.275 0.225
-16.875 64.275 1.425
-16.875 64.275 1.575
-16.875 64.275 -0.825
-16.875 64.275 -0.375
-16.875 64.275 1.125
-17.175 64.575 0.975
-17.175 64.575 2.475
-17.175 65.775 2.475
-17.175 65.775 0.225
-16.575 66.225 1.425
-16.575 66.225 0.675
-16.575 64.125 1.275
-17.325 64.875 0.375
-17.325 64.875 2.475
-17.325 64.875 1.425
-17.325 64.875 1.275
-16.725 66.225 0.675
-16.725 64.125 1.875
-16.725 64.125 1.125
-17.325 64.725 1.425
-17.325 64.725 1.275
-17.025 64.275 1.275
-17.025 64.275 1.875
-17.025 64.275 0.975
-17.025 64.275 1.125
-17.025 64.275 1.425
-17.175 64.425 1.275
-17.175 65.925 2.025
-17.175 65.925 2.325
-17.175 65.925 1.875
-17.175 64.425 0.825
-17.175 64.425 -0.525
-17.175 64.425 0.975
-17.175 64.425 1.575
-17.175 65.925 1.125
-17.025 66.075 1.125
-17.475 65.175 1.875
-17.475 65.175 -0.525
-17.475 65.175 1.275
-17.475 65.175 2.325
-17.325 64.575 2.025
-17.325 64.575 2.325
-16.875 64.125 0.675
-16.875 66.225 1.575
-16.875 64.125 1.275
-16.875 64.125 0.975
-16.875 64.125 0.825
-16.875 66.225 1.875
-17.475 65.025 1.725
-17.475 65.325 1.575
-17.325 65.775 2.475
-17.325 65.775 1.275
-16.575 63.975 1.725
-16.575 63.975 0.075
-16.575 63.975 0.975
-17.475 64.875 1.575
-17.175 64.275 1.575
-16.725 63.975 1.125
-16.725 63.975 -0.825
-16.725 63.975 1.425
-16.725 66.375 1.275
-15.525 66.225 2.625
-17.025 64.125 0.675
-17.325 64.425 2.475
-16.875 63.975 1.125
-16.875 66.375 1.425
-17.475 65.775 0.825
-17.475 65.775 -1.725
-16.275 63.825 2.025
-17.625 65.175 2.625
-16.425 63.825 1.875
-17.625 65.025 1.425
-17.625 65.025 0.075
-17.625 65.325 2.475
-17.625 65.325 1.875
-16.425 66.525 2.175
-16.425 66.525 1.725
-16.575 63.825 0.225
-16.575 63.825 0.675
-17.325 64.275 2.325
-17.175 64.125 1.725
-17.175 64.125 1.425
-17.175 66.225 1.125
-17.625 65.475 2.025
-17.325 66.075 1.275
-17.025 63.975 0.975
-17.025 63.975 1.725
-17.025 63.975 1.275
-17.025 66.375 2.025
-17.475 65.925 -1.575
-17.475 64.425 2.175
-16.725 63.825 0.375
-16.725 63.825 0.975
-16.725 63.825 1.125
-17.625 65.625 1.875
-16.725 66.525 0.675
-16.875 63.825 0.975
-17.625 64.575 2.475
-17.625 65.775 2.025
-17.625 65.775 0.225
-16.875 66.525 0.675
-16.875 66.525 1.575
-17.325 64.125 -0.225
-17.325 64.125 1.875
-17.475 64.275 2.025
-17.475 64.275 2.325
-17.175 63.975 -0.525
-17.175 63.975 -0.225
-17.775 65.175 2.625
-17.475 66.075 2.175
-16.125 63.675 -0.225
-16.425 66.675 4.725
-17.775 65.325 -0.075
-17.775 65.325 -0.225
-17.775 65.325 2.175
-17.775 65.475 2.175
-17.775 64.875 2.475
-17.775 64.875 -0.225
-16.575 63.675 2.025
-16.575 66.675 3.525
-16.575 63.675 1.275
-16.575 63.675 0.825
-17.025 63.825 1.425
-17.025 63.825 0.975
-17.025 63.825 1.275
-17.625 65.925 1.575
-17.625 65.925 1.425
-16.725 63.675 -0.525
-17.775 65.625 2.175
-16.725 63.675 0.225
-16.725 63.675 0.825
-17.325 63.975 -0.375
-17.325 63.975 2.325
-17.475 64.125 2.175
-17.475 66.225 -1.275
-17.475 66.225 1.425
-16.875 63.675 0.825
-16.875 63.675 1.125
-16.875 63.675 0.975
-16.875 66.675 1.125
-17.775 65.775 2.325
-17.775 65.775 2.025
-17.625 66.075 1.725
-17.625 66.075 1.875
-17.625 66.075 -0.225
-17.625 66.075 -0.075
-16.125 63.525 0.075
-16.425 63.525 -0.375
-16.425 63.525 0.825
-17.925 65.325 2.625
-16.575 63.525 0.375
-16.575 63.525 0.975
-17.025 63.675 0.675
-17.025 63.675 0.525
-17.025 63.675 0.825
-17.775 65.925 2.475
-17.025 63.675 1.125
-17.025 63.675 1.275
-17.025 66.675 1.875
-17.925 64.875 0.075
-17.325 63.825 2.475
-17.625 66.225 1.575
-17.625 64.125 -0.675
-17.625 66.225 -0.225
-16.725 66.825 0.075
-17.175 66.675 1.875
-17.775 66.075 -0.075
-17.775 66.075 1.425
-17.775 66.075 1.875
-17.775 66.075 0.075
-16.875 63.525 0.975
-16.875 63.525 2.775
-17.925 64.575 2.775
-17.925 65.775 0.675
-17.925 65.775 0.825
-16.875 66.825 0.525
-16.275 63.375 0.525
-18.075 65.175 -0.675
-18.075 65.175 2.325
-17.625 63.975 1.725
-17.625 66.375 1.725
-17.025 63.525 1.275
-17.025 63.525 1.125
-17.025 63.525 0.825
-17.925 65.925 2.325
-17.925 65.925 2.025
-17.025 66.825 1.725
-17.025 66.825 0.825
-15.975 63.375 0.075
-16.575 63.375 0.675
-18.075 65.475 2.025
-18.075 65.475 0.075
-14.775 66.225 -0.225
-17.775 66.225 2.475
-17.775 66.225 -0.075
-17.325 63.675 2.325
-15.825 63.375 0.225
-16.725 63.375 0.975
-18.075 64.725 -0.375
-17.175 63.525 2.625
-17.175 63.525 2.475
-17.925 66.075 1.875
-17.925 66.075 -0.825
-17.925 66.075 2.025
-16.875 66.975 2.025
-16.875 63.375 2.025
-17.625 66.525 1.275
-17.775 66.375 1.125
-17.025 63.375 1.875
-17.025 66.975 1.425
-17.025 66.975 1.875
-17.025 63.375 1.275
-17.025 63.375 1.725
-17.025 66.975 2.175
-17.025 66.975 0.525
-18.075 64.425 2.475
-18.075 65.925 0.675
-18.225 65.175 1.725
-18.225 65.175 -2.475
-18.225 65.175 1.875
-18.225 65.175 2.025
-16.125 63.225 1.275
-16.425 63.225 1.875
-16.425 63.225 1.125
-17.925 66.225 1.575
-18.225 65.025 -0.675
-18.225 65.325 1.875
-17.325 66.825 0.225
-15.975 63.225 0.825
-16.575 63.225 1.425
-18.225 65.475 2.775
-18.225 65.475 1.875
-18.225 64.875 1.875
-15.825 63.225 0.375
-16.725 63.225 2.025
-16.725 63.225 0.825
-16.725 63.225 1.125
-14.325 64.725 -3.225
-18.225 65.625 1.125
-17.175 63.375 2.775
-17.175 63.375 2.025
-17.175 63.375 1.875
-17.175 63.375 2.475
-17.175 66.975 0.525
-18.075 66.075 0.675
-17.775 66.525 0.825
-17.775 66.525 1.575
-17.775 66.525 1.725
-16.875 63.225 1.575
-16.875 67.125 0.675
-15.525 63.225 0.675
-17.025 63.225 1.725
-17.025 63.225 -0.525
-18.225 64.425 -1.125
-17.025 67.125 0.825
-18.225 65.925 -0.525
-16.425 63.075 1.575
-18.375 65.325 1.725
-15.975 63.075 -0.225
-16.575 63.075 1.275
-16.575 63.075 1.425
-16.575 63.075 2.175
-16.575 63.075 1.125
-18.375 65.475 1.875
-18.375 64.875 0.675
-17.625 63.525 -0.375
-17.625 66.825 -0.225
-17.925 66.525 2.025
-16.725 63.075 1.725
-16.725 63.075 2.025
-16.725 63.075 1.125
-16.725 63.075 0.975
-16.725 63.075 1.275
-16.725 63.075 0.675
-17.175 63.225 0.975
-17.175 63.225 2.775
-18.375 64.725 -0.975
-18.375 65.625 1.575
-18.375 64.725 -1.125
-17.175 67.125 0.975
-17.175 67.125 1.875
-17.175 67.125 0.675
-17.175 67.125 2.175
-18.225 66.075 0.675
-18.075 66.375 2.025
-18.075 66.375 2.475
-16.875 63.075 -0.375
-16.875 63.075 1.125
-16.875 63.075 0.525
-16.875 63.075 1.575
-16.875 63.075 2.325
-16.875 63.075 1.275
-18.375 64.575 0.675
-16.875 67.275 0.975
-18.225 66.225 0.375
-18.225 66.225 0.825
-18.225 66.225 2.625
-18.375 65.925 -0.525
-18.375 64.425 0.675
-18.375 65.925 1.125
-18.375 65.925 1.725
-18.375 65.925 1.275
-17.925 66.675 -0.675
-17.025 67.275 1.575
-17.025 67.275 0.825
-18.075 66.525 1.725
-16.425 62.925 1.425
-18.525 65.325 1.425
-18.525 65.325 3.675
-18.525 64.875 0.675
-18.525 64.875 0.375
-18.525 65.475 -0.525
-16.575 62.925 1.275
-18.375 64.275 0.675
-18.375 66.075 -0.825
-18.375 66.075 0.675
-17.175 67.275 1.725
-17.475 63.225 -0.525
-16.725 62.925 1.275
-18.525 64.725 0.675
-18.525 64.575 0.675
-18.525 64.575 2.025
-16.875 62.925 1.725
-16.875 67.425 0.975
-16.875 67.425 0.825
-16.875 62.925 1.575
-18.525 65.775 -0.675
-17.925 66.825 2.175
-17.775 63.375 1.275
-17.775 66.975 -0.075
-17.325 63.075 2.625
-17.625 63.225 1.425
-18.525 64.425 2.175
-17.025 67.425 1.875
-18.525 65.925 1.875
-16.275 62.775 0.675
-16.275 62.775 0.375
-18.675 65.175 0.375
-16.425 62.775 0.675
-16.425 62.775 0.975
-16.425 62.775 0.075
-16.425 62.775 1.125
-18.675 65.025 -0.525
-18.675 65.325 -0.675
-15.975 62.775 -0.225
-16.575 62.775 0.525
-16.575 62.775 1.125
-18.375 63.975 -0.675
-18.525 64.275 -0.525
-17.175 67.425 1.425
-17.175 67.425 1.575
-17.175 67.425 0.675
-16.725 62.775 1.725
-16.725 62.775 1.125
-17.925 66.975 -0.075
-18.675 64.725 1.125
-17.775 67.125 -0.075
-16.875 62.775 0.675
-18.675 64.575 0.375
-18.675 64.575 1.125
-18.675 65.775 -0.825
-17.325 67.425 0.675
-17.325 67.425 2.325
-17.325 62.925 2.625
-18.675 64.425 1.275
-17.025 67.575 1.575
-17.025 67.575 0.975
-16.275 62.625 2.325
-16.275 62.625 0.975
-18.525 63.975 -0.825
-17.475 62.925 2.475
-18.525 66.375 3.075
-18.825 65.325 -0.375
-17.925 67.125 0.075
-17.925 67.125 -0.075
-18.675 66.075 1.425
-18.675 66.075 2.025
-17.175 67.575 1.425
-17.175 67.575 0.675
-16.575 62.625 0.975
-16.575 62.625 1.725
-16.575 62.625 -0.075
-16.575 62.625 1.575
-18.375 66.675 2.175
-16.725 62.625 1.725
-16.725 62.625 2.175
-16.875 62.625 -0.975
-16.875 62.625 0.525
-16.875 67.725 0.825
-18.675 66.225 1.575
-18.675 66.225 2.925
-18.675 64.125 -0.675
-18.675 66.225 1.725
-17.325 67.575 0.825
-18.525 63.825 0.525
-18.525 63.825 0.225
-18.525 66.525 2.475
-18.525 66.525 2.775
-18.075 63.225 -3.225
-18.225 63.375 0.375
-18.225 63.375 0.075
-17.025 67.725 0.975
-17.025 67.725 1.575
-18.825 64.425 -0.675
-18.375 63.525 0.975
-18.375 63.525 -0.525
-17.925 67.275 0.675
-17.925 67.275 2.775
-17.475 62.775 2.025
-17.475 62.775 1.425
-17.475 62.775 0.975
-18.675 63.975 0.975
-18.675 66.375 1.725
-16.275 62.475 0.825
-18.975 65.175 -0.675
-16.125 62.475 2.025
-16.425 62.475 0.975
-18.825 64.275 2.025
-18.825 64.275 -0.525
-17.175 62.625 2.325
-17.175 67.725 1.125
-17.175 67.725 1.425
-18.525 63.675 -0.375
-18.525 63.675 0.375
-18.975 65.025 1.125
-18.975 65.325 -0.825
-16.575 62.475 1.425
-16.575 62.475 0.375
-16.575 62.475 1.275
-16.575 62.475 0.975
-18.975 65.475 -0.825
-18.975 65.475 -0.225
-16.725 62.475 1.725
-16.725 62.475 0.975
-18.975 65.625 -0.375
-18.975 64.725 -0.525
-16.725 67.875 0.375
-18.675 63.825 0.975
-18.675 63.825 2.475
-18.675 63.825 0.525
-17.625 62.775 0.675
-17.325 67.725 0.375
-17.325 67.725 1.425
-18.225 63.225 0.375
-18.225 63.225 2.025
-18.825 64.125 0.975
-18.225 67.125 1.125
-18.375 63.375 0.825
-18.375 63.375 0.375
-18.975 64.575 2.175
-18.975 64.575 -0.525
-18.075 67.275 0.675
-18.525 63.525 0.375
-17.925 62.925 3.525
-17.925 62.925 0.075
-18.525 66.825 -3.375
-17.025 62.475 1.725
-17.025 67.875 1.125
-17.475 62.625 -0.375
-18.825 63.975 0.525
-18.825 63.975 2.925
-18.825 66.375 1.875
-18.675 63.675 0.525
-18.975 64.275 1.875
-17.175 67.875 1.425
-17.175 67.875 0.975
-16.275 62.325 0.975
-19.125 65.175 -0.825
-19.125 65.175 -1.125
-19.125 65.175 -0.975
-19.125 65.175 -0.525
-19.125 65.175 -0.075
-16.425 62.325 1.125
-16.425 62.325 0.975
-16.425 62.325 1.275
-19.125 65.025 -0.375
-19.125 65.025 -0.075
-19.125 65.025 -0.225
-19.125 65.325 -0.525
-16.575 62.325 1.575
-16.575 62.325 1.425
-16.575 62.325 1.275
-16.575 62.325 1.125
-18.225 63.075 0.375
-18.225 63.075 0.975
-18.375 63.225 0.375
-18.375 63.225 0.525
-19.125 65.475 -0.975
-19.125 65.475 -3.825
-18.225 67.275 0.675
-18.075 62.925 0.375
-18.075 62.925 0.675
-16.725 62.325 1.125
-16.725 62.325 0.525
-16.725 62.325 1.275
-16.725 62.325 -0.075
-16.725 62.325 1.425
-17.625 67.725 3.225
-18.825 63.825 0.525
-18.825 63.825 2.775
-18.825 66.525 2.175
-18.825 66.525 2.025
-16.725 68.025 1.125
-17.325 62.475 1.875
-18.975 64.125 0.225
-18.975 64.125 0.525
-18.975 64.125 -0.525
-17.325 67.875 1.425
-19.125 64.575 -1.275
-19.125 64.575 -0.675
-19.125 64.425 0.675
-17.475 62.475 -0.525
-18.975 63.975 0.675
-18.975 63.975 -0.675
-18.975 63.975 0.375
-17.475 67.875 3.075
-17.775 62.625 -0.675
-17.775 67.725 2.325
-17.775 62.625 2.775
-17.775 62.625 0.075
-17.775 62.625 -0.225
-17.775 62.625 -0.525
-18.375 67.275 0.675
-18.375 67.275 1.125
-18.225 62.925 0.825
-17.175 62.325 1.575
-17.175 68.025 1.275
-17.175 68.025 1.125
-19.275 65.175 -0.975
-19.275 65.175 -0.675
-16.275 62.175 0.975
-18.075 67.575 2.175
-19.275 65.025 -0.225
-19.275 65.025 -0.675
-19.275 65.025 -0.525
-16.125 62.175 1.425
-16.425 62.175 0.975
-16.575 62.175 0.975
-17.625 62.475 1.425
-16.725 62.175 2.025
-16.725 62.175 1.275
-16.725 62.175 1.725
-16.725 62.175 0.675
-16.725 68.175 -2.475
-17.325 62.325 1.575
-19.125 64.125 2.925
-19.125 64.125 1.125
-19.125 64.125 0.975
-19.125 64.125 0.525
-19.125 64.125 3.525
-18.825 66.825 1.875
-18.825 66.825 2.625
-19.275 64.575 -0.375
-16.875 68.175 0.975
-16.875 68.175 0.225
-16.875 68.175 0.375
-18.375 62.925 -0.225
-18.375 67.425 0.825
-18.375 67.425 0.675
-18.375 67.425 0.375
-18.975 63.675 3.075
-18.975 63.675 -0.675
-17.475 62.325 2.925
-17.475 62.325 -0.375
-19.125 63.975 2.775
-19.125 63.975 0.525
-17.025 68.175 -0.225
-19.275 64.425 0.375
-19.275 64.425 -0.975
-19.275 64.425 0.675
-18.225 62.775 0.375
-18.225 62.775 0.525
-18.225 67.575 2.025
-17.475 68.025 1.725
-18.075 67.725 2.175
-18.825 63.375 0.675
-19.275 64.275 -0.675
-19.275 64.275 0.675
-17.175 68.175 0.975
-17.175 62.175 -0.675
-17.175 62.175 2.175
-16.275 62.025 0.375
-19.425 65.175 -0.675
-17.625 62.325 -0.675
-17.625 62.325 -0.375
-17.625 62.325 -0.525
-16.125 62.025 1.425
-16.425 62.025 0.975
-16.425 62.025 1.425
-19.125 63.825 2.925
-19.425 65.025 -0.375
-19.425 65.025 -0.675
-19.425 65.025 -0.825
-16.425 68.325 1.275
-14.925 68.025 1.425
-17.625 68.025 1.575
-16.575 62.025 0.975
-16.575 62.025 0.825
-19.425 64.875 0.675
-19.425 64.875 0.375
-19.275 64.125 -0.825
-19.275 64.125 0.525
-17.325 68.175 1.125
-17.325 62.175 2.475
-16.725 62.025 1.575
-19.425 64.725 0.825
-16.725 68.325 0.825
-18.375 67.575 2.625
-16.875 62.025 1.725
-16.875 62.025 1.275
-16.875 68.325 1.725
-18.825 63.225 0.525
-18.825 63.225 -0.075
-18.225 62.625 0.375
-18.225 67.725 1.875
-18.825 67.125 1.725
-17.775 62.325 3.375
-19.125 63.675 3.225
-19.125 63.675 2.925
-17.475 68.175 1.125
-17.025 62.025 -0.675
-17.025 62.025 1.125
-19.425 64.425 -0.525
-19.425 64.425 0.675
-19.425 64.425 1.125
-17.025 68.325 2.925
-18.075 62.475 0.375
-18.075 62.475 0.975
-18.075 62.475 0.825
-18.975 66.975 2.025
-18.975 63.375 0.225
-18.975 63.375 0.525
-17.175 62.025 2.175
-17.175 62.025 -0.525
-19.275 63.825 2.025
-17.625 62.175 -0.525
-17.925 62.325 0.375
-17.925 62.325 0.075
-19.125 63.525 -0.075
-17.925 68.025 2.325
-17.925 68.025 -0.075
-16.275 61.875 0.975
-16.275 61.875 1.425
-16.275 61.875 1.125
-19.575 65.175 -0.525
-16.125 61.875 -0.375
-16.125 61.875 1.125
-18.825 63.075 0.525
-16.425 61.875 1.125
-16.425 61.875 1.425
-16.425 61.875 0.975
-19.575 65.325 0.675
-19.575 65.325 -0.525
-16.575 61.875 0.975
-19.575 64.875 1.125
-19.575 64.875 0.225
-19.575 64.875 0.675
-15.225 62.025 3.825
-19.425 64.125 0.525
-17.325 68.325 0.825
-16.725 61.875 2.025
-18.975 63.225 0.975
-18.975 63.225 0.525
-18.975 63.225 -0.525
-18.975 63.225 1.125
-19.575 65.625 -0.675
-18.975 67.125 2.475
-18.975 67.125 2.175
-18.225 67.875 1.875
-16.875 68.475 0.375
-16.875 68.475 0.825
-19.575 64.575 -0.375
-19.575 64.575 1.125
-17.775 62.175 -0.375
-17.775 62.175 -0.225
-17.775 62.175 0.075
-18.075 62.325 3.375
-18.075 62.325 0.525
-15.075 62.025 3.825
-17.475 62.025 -1.425
-17.475 62.025 3.375
-19.425 63.975 -1.125
-18.075 68.025 0.075
-17.025 68.475 0.975
-19.575 65.925 -2.325
-19.575 64.425 0.525
-18.675 62.775 0.525
-18.675 67.575 2.325
-18.825 62.925 0.525
-14.175 62.475 -1.275
-18.375 62.475 -0.075
-18.375 62.475 3.975
-17.175 68.475 2.175
-17.175 61.875 0.075
-17.175 61.875 1.425
-19.575 64.275 -0.525
-18.975 63.075 1.125
-19.275 63.525 2.775
-19.425 63.825 1.875
-16.275 61.725 0.975
-16.275 61.725 1.425
-16.125 61.725 0.825
-16.125 61.725 0.975
-16.125 61.725 1.575
-16.125 61.725 2.625
-16.425 61.725 0.975
-16.425 61.725 1.125
-18.225 62.325 -0.225
-18.225 62.325 3.525
-19.125 63.225 -0.375
-19.725 65.025 1.275
-19.725 65.325 -0.825
-19.725 65.325 0.825
-19.725 65.325 0.375
-16.575 61.725 2.175
-16.575 61.725 1.875
-17.325 68.475 1.275
-19.575 64.125 0.525
-19.575 66.225 -0.375
-19.725 65.475 1.125
-19.725 65.475 -0.225
-19.725 65.475 0.675
-19.725 64.875 2.775
-19.725 64.875 0.675
-15.825 61.725 0.825
-19.725 65.625 -0.075
-16.725 68.625 0.975
-17.775 62.025 0.375
-17.775 62.025 -0.375
-19.425 63.675 2.325
-19.425 63.675 3.225
-18.075 68.175 2.325
-18.075 68.175 -0.225
-18.075 68.175 0.075
-16.875 61.725 1.425
-13.725 62.775 2.175
-18.675 62.625 -0.225
-19.725 64.575 -0.525
-19.725 64.575 3.375
-19.725 65.775 -0.375
-18.825 67.575 2.475
-18.825 67.575 -1.575
-17.475 68.475 1.425
-19.575 63.975 0.375
-17.025 61.725 3.525
-17.025 68.625 1.275
-17.025 68.625 0.975
-19.725 65.925 2.175
-19.725 64.425 0.675
-19.125 67.275 -2.325
-17.925 68.325 0.075
-17.625 68.475 0.375
-19.725 64.275 -0.525
-17.175 68.625 1.425
-17.175 68.625 1.125
-18.225 62.175 -0.375
-19.275 67.125 4.275
-16.275 61.575 1.875
-16.275 61.575 1.125
-16.125 61.575 0.975
-16.425 61.575 0.825
-19.875 65.325 0.675
-19.875 65.325 -0.375
-17.325 68.625 1.425
-16.575 61.575 0.975
-13.875 62.475 0.975
-19.875 64.875 0.675
-19.875 65.475 1.275
-18.975 62.775 0.375
-16.725 61.575 1.875
-16.725 61.575 2.775
-19.875 64.725 -0.975
-19.875 64.725 3.225
-18.075 68.325 -0.525
-15.825 68.775 1.425
-18.525 62.325 0.075
-18.525 62.325 1.425
-16.875 61.575 -0.675
-19.875 65.775 0.825
-19.875 65.775 0.675
-19.875 65.775 0.375
-16.875 68.775 1.575
-16.875 68.775 1.125
-16.875 68.775 0.525
-16.875 68.775 2.475
-17.475 61.725 -0.075
-17.475 68.625 1.275
-17.475 68.625 1.575
-17.475 68.625 2.775
-18.375 68.175 1.875
-18.375 62.175 1.275
-18.375 62.175 -0.075
-18.375 62.175 0.075
-15.525 61.575 0.075
-17.025 61.575 -0.525
-19.875 64.425 -0.375
-19.875 64.425 -0.825
-19.875 64.425 0.675
-19.875 65.925 1.125
-17.025 68.775 0.375
-17.025 68.775 3.075
-17.025 68.775 1.425
-17.025 68.775 1.275
-17.925 68.475 5.175
-17.925 61.875 -0.075
-18.225 68.325 0.825
-18.225 68.325 1.575
-18.225 68.325 -0.225
-17.175 68.775 1.575
-17.175 68.775 2.175
-17.175 68.775 1.425
-17.175 68.775 0.375
-17.175 68.775 1.125
-17.175 68.775 0.525
-13.575 62.625 0.525
-16.275 61.425 -0.225
-18.525 62.175 1.125
-16.275 61.425 0.975
-18.525 68.175 1.275
-17.325 68.775 1.275
-20.025 65.025 1.425
-20.025 65.025 -0.375
-20.025 65.025 3.225
-16.425 61.425 1.125
-20.025 65.325 0.675
-16.425 61.425 0.975
-17.775 61.725 0.375
-20.025 65.475 -0.225
-15.975 61.425 1.575
-17.775 68.625 0.675
-19.725 63.675 0.525
-19.725 63.675 2.475
-20.025 65.625 -0.375
-20.025 64.725 -0.525
-20.025 65.625 0.225
-16.725 68.925 0.225
-20.025 65.625 1.275
-18.375 62.025 0.525
-18.375 62.025 0.675
-18.375 62.025 -0.375
-18.375 68.325 0.825
-18.375 68.325 1.875
-18.375 68.325 1.725
-17.475 61.575 0.375
-19.875 63.975 4.125
-19.875 66.375 -0.375
-17.475 68.775 1.425
-20.025 64.575 -0.225
-16.875 68.925 1.725
-20.025 65.775 0.675
-19.125 62.625 -0.525
-19.125 62.625 0.375
-17.025 61.425 -0.675
-20.025 65.925 1.275
-20.025 65.925 -0.525
-17.025 68.925 1.425
-17.025 68.925 1.275
-18.225 61.875 0.375
-17.625 61.575 -0.225
-20.025 64.275 -1.125
-15.375 68.925 1.725
-17.175 68.925 1.425
-17.175 61.425 -0.525
-17.175 61.425 2.175
-17.175 61.425 -0.675
-17.175 61.425 -0.825
-18.525 62.025 1.275
-18.525 68.325 0.825
-18.525 68.325 1.275
-18.075 61.725 0.975
-17.325 68.925 1.575
-17.325 61.425 2.325
-17.325 61.425 1.725
-17.325 61.425 -0.975
-17.325 68.925 1.425
-17.775 61.575 -0.375
-17.775 61.575 0.375
-16.275 61.275 0.375
-16.275 61.275 2.325
-19.875 66.675 -0.525
-19.875 66.675 3.525
-17.775 68.775 1.575
-16.125 61.275 0.825
-16.425 61.275 1.275
-20.175 65.025 -0.675
-20.175 65.325 0.675
-19.575 63.075 0.525
-18.375 61.875 -0.375
-18.375 68.475 0.825
-15.975 61.275 1.275
-20.175 64.875 -0.375
-20.175 64.875 2.925
-18.975 62.325 3.525
-16.725 61.275 2.625
-20.025 63.975 0.525
-18.825 62.175 0.525
-18.825 68.175 -2.475
-17.475 68.925 1.425
-17.475 61.425 -0.975
-17.475 61.425 -1.125
-17.475 61.425 1.725
-20.175 64.575 1.275
-20.175 65.775 0.675
-18.225 61.725 0.375
-19.725 63.225 0.675
-20.175 65.925 -2.475
-15.525 69.075 1.725
-17.025 69.075 0.525
-20.025 63.825 -0.075
-17.625 68.925 1.725
-17.625 68.925 1.425
-17.625 68.925 1.125
-18.525 68.475 -0.525
-19.575 67.425 -2.325
-17.175 61.275 -0.975
-18.075 61.575 0.075
-18.075 61.575 0.525
-18.075 61.575 0.825
-19.275 62.475 -0.525
-19.275 67.875 -2.475
-18.975 62.175 0.525
-18.375 61.725 2.325
-18.375 61.725 -0.525
-17.325 61.275 -0.825
-17.775 68.925 2.025
-17.775 61.425 -0.375
-20.175 64.125 2.025
-18.375 68.625 2.925
-16.275 61.125 0.825
-20.325 65.175 -0.225
-20.325 65.175 -0.375
-16.125 61.125 1.125
-18.825 62.025 0.375
-20.325 65.025 0.975
-20.325 65.325 0.825
-15.975 61.125 1.275
-20.325 65.475 -0.225
-20.325 65.475 -0.375
-16.725 61.125 -0.675
-18.675 68.475 0.825
-18.675 68.475 0.525
-18.675 61.875 -0.825
-17.475 61.275 -0.675
-20.175 63.975 -3.675
-20.175 66.375 -0.375
-17.475 69.075 0.825
-17.475 69.075 0.975
-17.475 69.075 1.125
-18.225 61.575 0.375
-16.875 69.225 1.125
-19.875 63.225 0.075
-19.875 63.225 0.675
-19.875 63.225 0.825
-20.325 64.575 -0.075
-20.325 65.775 0.675
-20.025 63.525 -0.675
-17.925 61.425 -0.525
-18.525 61.725 0.075
-18.525 61.725 -0.825
-17.025 61.125 1.425
-20.325 64.425 0.075
-20.325 65.925 0.525
-20.325 65.925 -0.375
-20.325 65.925 3.375
-18.525 68.625 3.225
-17.625 61.275 -1.125
-17.625 69.075 2.625
-17.625 69.075 1.425
-19.275 62.325 -0.375
-19.125 62.175 0.075
-17.175 69.225 3.225
-17.175 61.125 2.175
-20.325 64.275 -0.375
-19.425 62.475 -0.375
-18.975 62.025 0.375
-18.975 62.025 -1.425
-18.975 62.025 0.825
-20.025 66.975 -0.675
-18.075 61.425 -0.675
-18.075 61.425 0.525
-18.075 61.425 0.975
-18.375 61.575 0.525
-18.375 61.575 -0.525
-18.375 61.575 2.175
-18.825 61.875 1.875
-18.825 61.875 0.975
-18.825 61.875 1.125
-18.825 61.875 0.375
-18.825 61.875 2.475
-18.825 68.475 3.075
-19.575 62.625 3.375
-20.175 66.675 -0.525
-20.175 63.675 0.525
-15.225 69.225 2.025
-17.325 69.225 1.725
-17.325 69.225 2.625
-17.325 61.125 -0.675
-16.125 60.975 1.725
-20.475 65.025 0.975
-20.475 65.025 1.275
-20.475 65.475 -0.375
-20.475 64.875 0.675
-20.475 64.875 -0.075
-15.075 69.225 -0.075
-17.475 69.225 1.275
-20.325 63.975 -2.325
-20.325 63.975 0.225
-18.225 61.425 0.525
-17.925 61.275 0.675
-17.925 61.275 -0.525
-16.875 60.975 2.925
-20.475 64.575 -0.375
-20.475 64.575 -0.675
-18.525 61.575 0.225
-18.525 68.775 1.275
-19.575 62.475 -0.525
-17.625 69.225 0.225
-17.625 69.225 1.125
-17.625 69.225 2.625
-17.625 61.125 0.075
-17.625 61.125 2.925
-20.325 66.525 0.825
-18.825 61.725 0.375
-18.825 61.725 0.975
-17.175 60.975 -0.825
-17.175 60.975 1.575
-18.075 61.275 0.975
-17.175 69.375 2.025
-18.375 68.925 1.125
-18.375 68.925 2.175
-18.375 61.425 0.375
-20.025 67.275 -3.375
-17.775 69.225 0.975
-17.775 61.125 2.025
-20.325 63.675 -0.225
-18.675 61.575 0.375
-18.675 68.775 1.875
-17.325 60.975 -0.975
-19.275 62.025 -0.225
-19.275 62.025 -0.075
-19.275 62.025 -0.375
-19.275 62.025 1.425
-19.425 68.175 2.925
-20.625 65.025 0.525
-20.625 65.025 0.375
-20.625 65.325 1.425
-18.225 61.275 0.375
-20.625 64.875 0.075
-16.575 69.525 -2.775
-17.475 60.975 -0.825
-17.475 60.975 2.175
-17.475 60.975 -0.675
-20.475 66.375 3.375
-17.475 69.375 1.125
-17.475 69.375 2.475
-17.925 61.125 -0.375
-18.525 68.925 1.875
-18.525 68.925 0.975
-20.025 62.925 -0.375
-20.625 64.725 2.325
-20.625 64.725 2.625
-20.325 66.825 -0.675
-20.625 64.575 0.825
-18.825 61.575 -0.675
-17.625 60.975 0.225
-17.625 69.375 0.975
-17.625 69.375 1.125
-17.625 69.375 -0.975
-20.475 66.525 0.525
-20.475 66.525 0.975
-18.825 68.775 2.325
-18.825 68.775 2.175
-20.625 65.925 0.225
-20.625 65.925 -0.225
-17.025 69.525 2.925
-20.175 63.075 -0.525
-18.075 61.125 0.825
-18.075 61.125 0.075
-18.075 61.125 0.675
-18.075 69.225 0.225
-18.675 68.925 1.425
-18.675 61.425 -0.675
-18.675 61.425 0.375
-19.575 62.175 -0.825
-20.475 66.675 0.825
-20.475 66.675 1.275
-20.475 63.675 0.225
-17.325 60.825 -0.825
-20.625 64.125 0.675
-20.625 64.125 2.775
-20.625 64.125 1.125
-19.725 68.025 2.325
-17.325 69.525 1.425
-18.225 61.125 0.525
-18.225 69.225 1.875
-18.225 69.225 2.775
-20.325 63.225 0.825
-16.275 60.675 3.075
-18.525 61.275 1.275
-18.525 61.275 -0.525
-20.775 65.325 0.375
-16.125 60.675 1.425
-16.125 60.675 0.375
-16.125 60.675 1.575
-16.125 60.675 0.525
-18.525 69.075 2.925
-18.525 69.075 -0.375
-20.775 64.875 1.425
-17.475 60.825 2.025
-20.475 63.525 0.075
-20.475 63.525 2.175
-20.475 63.525 1.125
-20.625 66.375 0.075
-20.625 66.375 0.375
-17.925 69.375 3.375
-20.475 66.825 1.275
-17.475 69.525 0.975
-17.475 69.525 1.575
-20.775 64.725 -0.075
-20.775 64.575 0.525
-20.625 63.825 0.375
-20.625 63.825 1.275
-20.625 63.825 2.325
-20.625 66.525 0.825
-17.625 69.525 2.475
-20.325 63.075 0.675
-18.375 61.125 -0.375
-18.375 61.125 -0.525
-18.375 69.225 2.475
-19.425 61.875 0.525
-19.575 62.025 0.225
-19.425 61.875 -0.525
-15.525 60.675 0.375
-20.775 64.425 1.425
-14.475 60.975 -0.225
-18.075 60.975 0.525
-18.075 69.375 2.175
-19.725 68.175 2.325
-19.275 68.625 3.225
-19.725 62.175 -0.225
-18.675 61.275 -0.825
-18.675 69.075 -0.225
-18.675 69.075 1.275
-20.775 64.275 1.425
-20.775 64.275 0.075
-17.175 60.675 -0.675
-17.775 60.825 2.325
-17.775 60.825 -0.675
-20.625 63.675 2.325
-20.775 64.125 0.675
-17.325 69.675 1.725
-17.325 60.675 -1.275
-18.225 60.975 0.525
-18.225 60.975 0.975
-18.225 69.375 0.075
-18.525 69.225 -0.075
-18.525 61.125 0.525
-18.525 61.125 1.125
-20.325 62.925 2.175
-20.325 62.925 -0.075
-16.275 60.525 1.725
-20.625 63.525 2.025
-20.625 63.525 0.075
-20.925 65.025 0.675
-20.925 65.025 0.375
-20.925 65.025 1.425
-20.925 65.025 1.275
-20.925 65.325 0.075
-20.625 66.825 1.275
-20.625 66.825 1.125
-17.925 69.525 3.075
-20.775 63.975 0.675
-20.775 63.975 0.825
-17.475 69.675 1.575
-17.475 60.675 -0.375
-17.475 60.675 -0.825
-17.475 60.675 -0.525
-15.975 60.525 1.125
-18.825 61.275 2.475
-18.825 61.275 0.375
-18.825 61.275 2.775
-18.825 61.275 1.425
-20.175 62.625 -0.225
-20.925 64.875 1.575
-19.725 68.325 3.225
-20.925 65.775 0.375
-18.375 60.975 0.375
-18.375 60.975 0.525
-20.775 63.825 0.825
-17.625 69.675 1.875
-17.625 69.675 2.025
-20.775 66.525 3.075
-20.775 66.525 0.825
-18.675 69.225 -0.075
-18.675 69.225 2.625
-18.675 69.225 1.875
-18.675 61.125 0.225
-18.675 61.125 0.675
-18.675 61.125 0.375
-18.675 61.125 0.825
-20.625 66.975 1.575
-20.625 63.375 0.975
-20.325 62.775 3.075
-20.325 62.775 2.775
-18.075 69.525 2.925
-19.125 61.425 -0.075
-19.125 61.425 -0.825
-19.125 61.425 -0.975
-20.925 64.425 0.075
-20.925 64.425 1.425
-20.925 64.425 1.575
-20.925 64.425 2.475
-20.925 65.925 1.875
-20.925 65.925 1.575
-20.025 68.025 3.375
-17.175 60.525 1.425
-20.925 64.275 1.275
-20.925 64.275 1.125
-20.775 63.675 0.975
-17.775 60.675 4.125
-17.775 69.675 1.125
-18.975 61.275 0.825
-18.975 61.275 3.075
-18.975 61.275 0.075
-20.175 67.875 2.625
-18.975 69.075 1.875
-18.525 60.975 2.625
-18.525 60.975 0.825
-18.525 60.975 0.225
-18.525 60.975 0.525
-18.525 69.375 2.775
-14.325 60.825 0.225
-18.225 60.825 0.975
-15.225 60.525 1.575
-20.925 64.125 2.025
-20.925 64.125 3.525
-20.925 64.125 2.325
-20.925 64.125 0.975
-20.925 64.125 2.175
-17.325 69.825 1.125
-18.225 69.525 2.175
-18.225 69.525 1.275
-19.725 61.875 -0.825
-18.825 61.125 2.625
-20.775 63.525 1.425
-20.775 63.525 0.825
-20.775 63.525 0.225
-20.775 63.525 -0.075
-17.925 69.675 2.025
-16.275 60.375 0.825
-19.275 68.925 -0.225
-21.075 65.025 1.425
-21.075 65.025 1.275
-21.075 65.325 -0.075
-20.925 63.975 2.025
-20.925 63.975 0.825
-17.475 69.825 1.125
-15.975 60.375 -0.225
-15.975 60.375 0.375
-15.975 60.375 1.125
-21.075 64.875 1.125
-21.075 65.475 0.975
-18.375 60.825 0.525
-18.375 60.825 -0.525
-18.375 60.825 -0.375
-19.125 61.275 -0.525
-20.625 67.275 0.975
-20.175 68.025 2.475
-18.375 69.525 0.075
-18.675 60.975 0.075
-18.675 60.975 -0.675
-18.675 60.975 0.375
-16.875 60.375 1.275
-18.675 60.975 -0.525
-21.075 65.775 1.125
-18.675 69.375 0.675
-20.925 63.825 0.825
-20.925 66.525 0.825
-17.625 69.825 0.975
-20.775 66.975 1.725
-20.775 63.375 2.475
-18.075 69.675 2.175
-18.075 69.675 0.375
-15.525 60.375 0.525
-15.525 60.375 -0.075
-21.075 64.425 1.275
-21.075 64.425 1.125
-21.075 65.925 2.025
-18.975 61.125 2.325
-18.975 61.125 2.475
-18.975 61.125 2.625
-18.975 61.125 -0.675
-18.975 69.225 2.475
-18.975 69.225 1.125
-15.375 60.375 -0.075
-21.075 64.275 1.725
-19.875 61.875 1.875
-21.075 66.075 3.225
-17.775 60.525 -0.375
-20.925 66.675 0.975
-20.925 63.675 2.925
-20.925 63.675 2.175
-20.925 63.675 0.825
-17.775 69.825 0.975
-18.525 60.825 -0.525
-18.525 60.825 0.225
-20.625 62.925 2.175
-20.625 67.425 1.425
-20.025 68.325 3.375
-20.775 63.225 0.825
-20.775 63.225 3.075
-20.775 67.125 1.125
-18.225 69.675 -0.225
-18.225 69.675 2.175
-18.225 60.675 1.575
-18.225 60.675 0.525
-18.225 60.675 0.825
-18.225 60.675 0.075
-18.825 60.975 1.425
-18.825 60.975 2.775
-21.075 64.125 1.425
-21.075 64.125 0.975
-21.075 64.125 1.275
-18.825 69.375 0.675
-19.275 61.275 3.225
-20.175 62.175 0.225
-19.275 69.075 2.925
-17.925 60.525 1.575
-17.925 60.525 3.075
-17.925 60.525 2.175
-20.925 63.525 1.725
-20.925 63.525 2.475
-20.925 63.525 1.125
-20.925 63.525 1.425
-17.925 69.825 1.425
-17.925 69.825 1.875
-17.475 69.975 0.975
-21.075 63.975 0.825
-21.075 63.975 1.275
-21.075 63.975 1.725
-21.075 63.975 0.975
-21.225 65.175 0.825
-21.225 65.175 0.975
-16.425 60.225 0.675
-19.125 61.125 2.175
-19.125 69.225 3.375
-21.225 65.025 1.575
-21.225 65.025 1.425
-16.125 70.125 0.825
-15.975 60.225 1.275
-21.225 65.475 1.125
-21.225 64.875 1.425
-21.225 64.875 1.125
-21.225 64.875 0.975
-20.775 63.075 0.675
-20.775 63.075 1.275
-14.175 69.675 3.525
-18.375 60.675 -0.225
-18.375 60.675 -0.975
-18.375 60.675 -0.375
-18.375 60.675 0.525
-20.775 67.275 0.675
-20.775 67.275 0.975
-18.675 60.825 1.425
-18.675 60.825 -1.125
-18.675 60.825 4.425
-20.625 62.775 0.075
-20.625 62.775 1.575
-20.625 62.775 0.825
-21.225 64.725 0.525
-14.925 60.375 2.625
-17.625 60.375 -1.875
-19.875 61.725 -0.825
-21.075 63.825 1.425
-18.075 60.525 3.825
-20.925 63.375 0.675
-21.225 64.575 1.275
-21.225 65.775 1.125
-18.975 60.975 0.525
-18.975 60.975 -0.675
-18.975 60.975 2.475
-18.975 60.975 -0.375
-18.975 60.975 -0.975
-20.475 62.475 2.175
-18.975 69.375 0.675
-20.025 61.875 1.425
-21.225 65.925 2.175
-21.225 64.425 1.125
-17.775 69.975 1.575
-21.075 63.675 1.575
-21.075 63.675 0.525
-21.075 63.675 0.675
-21.075 63.675 0.975
-18.525 60.675 -0.375
-18.525 69.675 -0.225
-18.525 60.675 -0.675
-21.225 64.275 1.125
-17.175 70.125 0.825
-21.225 66.075 1.425
-19.275 61.125 -0.375
-18.825 60.825 2.475
-18.825 60.825 2.625
-18.825 60.825 0.525
-18.225 60.525 0.525
-20.625 62.625 1.275
-20.625 62.625 2.475
-20.625 62.625 1.725
-20.925 63.225 1.275
-20.925 63.225 1.425
-20.925 63.225 0.825
-18.225 69.825 1.575
-18.225 69.825 2.625
-17.325 60.225 0.525
-17.325 60.225 2.325
-21.225 64.125 0.975
-21.225 64.125 1.275
-17.325 70.125 1.275
-17.325 70.125 0.975
-19.125 60.975 4.575
-17.925 69.975 0.525
-17.925 69.975 1.725
-17.925 60.375 -1.725
-17.925 60.375 0.375
-17.925 60.375 3.375
-21.075 63.525 0.675
-19.125 69.375 0.675
-19.125 69.375 0.375
-19.875 61.575 -0.525
-21.225 63.975 2.475
-17.475 70.125 0.825
-17.475 70.125 1.875
-19.725 68.925 2.775
-19.725 68.925 3.825
-20.775 62.775 1.575
-18.675 69.675 -0.075
-18.675 69.675 2.475
-18.675 60.675 0.525
-21.375 65.175 1.425
-21.375 65.175 1.875
-20.775 67.575 1.575
-16.275 70.275 0.375
-16.125 60.075 0.975
-20.925 63.075 1.275
-20.925 63.075 1.125
-20.925 63.075 1.425
-18.375 60.525 -0.975
-18.375 60.525 1.275
-18.375 60.525 -1.125
-18.375 60.525 0.525
-21.375 65.025 0.975
-21.375 65.025 4.125
-21.375 65.025 1.425
-21.375 65.325 0.975
-21.375 65.325 3.975
-21.375 65.325 1.125
-20.925 67.275 0.975
-15.975 60.075 0.075
-15.975 60.075 0.825
-20.175 61.875 2.475
-20.175 61.875 0.225
-21.375 65.475 1.125
-21.375 64.875 1.425
-21.375 64.875 1.275
-21.375 64.875 0.975
-19.575 69.075 2.625
-19.575 69.075 2.475
-18.975 60.825 0.525
-20.625 62.475 1.275
-20.625 62.475 2.025
-21.375 64.725 1.425
-21.375 64.725 0.675
-18.075 69.975 1.725
-21.075 63.375 3.225
-21.075 63.375 2.175
-19.425 61.125 -2.175
-20.325 62.025 0.525
-21.225 63.825 0.225
-17.625 70.125 0.675
-21.225 66.525 0.975
-15.675 60.075 -0.075
-21.375 64.575 1.275
-21.375 64.575 1.575
-21.375 65.775 1.875
-21.375 65.775 0.975
-21.375 64.425 1.275
-21.375 65.925 1.575
-17.025 70.275 1.575
-20.475 62.175 -0.675
-18.525 60.525 1.575
-18.525 60.525 -1.125
-20.925 62.925 1.425
-18.525 69.825 0.675
-17.775 60.225 2.475
-18.825 60.675 -0.075
-17.775 70.125 0.525
-21.225 63.675 1.425
-21.225 63.675 1.575
-21.225 63.675 0.975
-21.225 66.675 2.625
-21.375 64.275 1.425
-21.375 66.075 1.575
-21.075 63.225 1.725
-21.075 63.225 2.025
-20.025 61.575 -0.675
-19.125 60.825 2.625
-19.125 69.525 0.825
-21.375 64.125 0.375
-21.375 64.125 1.425
-21.375 66.225 1.575
-17.925 60.225 2.325
-17.925 70.125 0.975
-17.925 70.125 -0.975
-19.575 69.225 2.925
-19.575 69.225 2.625
-20.325 61.875 1.125
-20.325 61.875 1.875
-18.675 60.525 0.525
-18.675 60.525 2.325
-20.925 62.775 1.575
-20.925 62.775 1.125
-18.675 69.825 -0.225
-18.375 60.375 1.125
-18.375 60.375 0.525
-18.375 60.375 -0.375
-21.075 63.075 0.825
-21.075 63.075 1.275
-18.375 69.975 1.575
-21.375 66.375 1.275
-21.375 66.375 1.125
-21.075 67.275 1.125
-17.475 70.275 1.425
-20.775 62.475 1.275
-20.775 62.475 2.025
-18.975 60.675 0.075
-18.975 60.675 2.475
-21.525 65.175 1.425
-21.525 65.175 1.575
-21.525 65.175 1.125
-16.275 70.425 0.675
-20.475 62.025 0.975
-21.525 65.025 0.825
-21.525 65.025 0.975
-16.125 59.925 1.725
-21.525 65.475 -0.375
-21.525 65.475 0.825
-21.525 65.475 1.125
-21.525 64.875 1.125
-15.975 59.925 2.325
-15.975 59.925 1.275
-21.225 63.375 0.525
-21.525 64.725 0.825
-21.375 63.825 0.525
-21.375 66.525 0.975
-21.375 66.525 -1.125
-17.625 70.275 1.725
-19.275 60.825 0.525
-21.525 64.575 1.425
-16.875 70.425 0.825
-21.525 65.775 1.725
-21.525 65.775 1.575
-20.625 62.175 1.725
-19.275 69.525 0.675
-18.525 69.975 -0.225
-18.525 69.975 0.525
-18.525 69.975 2.325
-21.075 67.425 -1.125
-15.525 59.925 0.825
-21.525 65.925 1.575
-21.525 65.925 1.425
-21.525 65.925 -0.525
-21.525 65.925 0.975
-21.525 64.425 0.375
-20.025 61.425 -0.675
-21.525 65.925 1.125
-18.825 69.825 -0.075
-20.175 61.575 -0.525
-19.875 61.275 1.425
-21.375 66.675 1.275
-19.725 61.125 -0.225
-21.525 64.275 0.975
-17.175 59.925 -0.675
-21.525 66.075 2.475
-21.525 66.075 1.725
-19.125 69.675 2.625
-19.125 69.675 -0.375
-19.125 60.675 -0.225
-19.125 60.675 -0.825
-21.525 66.075 1.875
-20.475 61.875 1.875
-21.525 66.225 2.025
-17.325 59.925 0.975
-17.325 59.925 -0.075
-21.375 63.525 3.525
-21.375 66.825 -3.825
-17.925 70.275 1.125
-17.925 70.275 1.575
-17.925 70.275 0.975
-18.675 60.375 0.525
-21.075 62.775 1.275
-19.425 69.525 -0.375
-18.375 60.225 0.975
-18.375 60.225 -0.225
-18.375 60.225 -0.975
-18.375 60.225 0.375
-18.375 60.225 0.225
-20.925 62.475 1.725
-20.925 62.475 1.425
-21.225 63.075 3.225
-21.225 63.075 3.375
-18.375 70.125 2.775
-21.225 67.275 2.775
-21.525 63.975 0.975
-21.525 63.975 0.675
-21.525 63.975 2.775
-17.475 70.425 1.125
-21.525 66.375 1.275
-21.525 66.375 1.125
-21.525 66.375 2.025
-17.475 59.925 0.825
-21.675 65.175 2.025
-21.675 65.025 0.825
-21.675 65.025 1.875
-21.675 65.325 0.225
-21.675 65.325 1.725
-18.075 60.075 -0.675
-18.075 60.075 0.375
-20.775 68.175 1.425
-20.775 68.175 1.275
-19.275 60.675 -0.975
-20.775 62.175 1.425
-21.375 63.375 1.575
-21.375 66.975 1.875
-21.675 64.875 2.325
-21.675 64.875 1.125
-21.675 65.475 1.575
-21.675 65.475 0.975
-18.075 70.275 1.125
-20.325 61.575 0.525
-20.325 61.575 -0.375
-21.675 65.625 0.975
-21.675 64.725 -0.225
-21.675 64.725 0.825
-21.525 63.825 1.125
-17.625 70.425 1.275
-17.625 70.425 1.725
-21.525 66.525 1.275
-21.525 66.525 1.875
-21.675 65.775 1.725
-21.675 65.775 1.575
-18.825 69.975 -0.075
-20.475 61.725 0.225
-18.525 60.225 0.525
-21.225 62.925 1.725
-21.225 67.425 1.125
-18.525 70.125 2.175
-21.675 65.925 1.575
-21.675 65.925 1.125
-21.675 65.925 1.725
-21.675 64.425 0.225
-20.925 62.325 1.125
-19.125 60.525 -0.375
-19.125 60.525 0.375
-19.125 69.825 2.475
-20.925 68.025 0.975
-18.225 60.075 0.375
-20.625 61.875 1.275
-20.625 61.875 0.975
-17.775 70.425 1.575
-21.375 63.225 1.875
-17.775 59.925 2.025
-18.225 70.275 -0.975
-21.675 64.275 2.775
-21.675 66.075 1.725
-21.675 66.075 -0.225
-21.675 66.075 1.425
-20.775 62.025 2.025
-19.425 60.675 1.875
-18.675 60.225 0.225
-18.675 60.225 4.425
-18.675 60.225 -2.025
-15.225 59.775 0.375
-21.675 66.225 1.575
-21.675 64.125 1.875
-17.925 70.425 1.425
-17.925 59.925 0.525
-21.525 66.825 1.425
-21.525 66.825 1.275
-21.525 66.825 1.575
-21.075 62.475 2.475
-18.975 60.375 -1.125
-21.075 67.875 0.975
-18.375 60.075 0.225
-18.375 60.075 0.825
-18.375 60.075 0.975
-18.375 60.075 0.525
-21.375 63.075 2.175
-21.375 63.075 1.125
-21.375 63.075 1.275
-20.175 61.275 1.275
-18.375 70.275 1.575
-18.375 70.275 1.725
-18.375 70.275 1.875
-19.875 60.975 -0.075
-20.475 61.575 1.875
-20.475 61.575 0.375
-21.675 63.975 2.325
-21.675 63.975 1.875
-19.275 60.525 1.575
-19.275 60.525 -0.225
-19.275 60.525 1.425
-19.275 60.525 1.725
-19.275 60.525 -0.525
-19.275 60.525 -0.825
-20.925 62.175 2.775
-20.925 62.175 1.275
-21.525 66.975 0.975
-21.525 66.975 1.575
-18.075 59.925 0.375
-19.725 60.825 2.475
-19.725 60.825 2.175
-20.625 61.725 1.125
-21.825 65.325 1.575
-21.825 65.325 1.275
-15.975 59.625 1.575
-16.575 59.625 -0.075
-21.675 66.525 1.275
-21.675 66.525 0.975
-17.625 70.575 1.425
-18.825 60.225 -0.675
-15.825 59.625 1.575
-15.825 59.625 1.275
-21.825 65.625 1.275
-18.525 60.075 -0.675
-18.525 60.075 -0.825
-18.525 60.075 0.525
-21.375 62.925 0.225
-21.375 62.925 2.475
-21.375 67.425 -0.525
-20.775 61.875 1.575
-19.575 60.675 1.425
-19.575 60.675 2.475
-19.575 60.675 -0.225
-21.075 62.325 1.425
-21.075 62.325 1.575
-19.125 60.375 2.325
-19.125 60.375 -0.375
-19.125 60.375 0.225
-19.125 69.975 3.075
-19.125 69.975 2.775
-21.075 68.025 0.675
-21.075 68.025 0.975
-21.525 67.125 1.275
-21.825 65.925 1.125
-21.825 64.425 2.625
-18.225 70.425 2.175
-18.225 59.925 -0.225
-18.225 59.925 0.975
-17.775 59.775 -1.425
-21.675 66.675 0.525
-21.675 66.675 1.125
-17.775 70.575 0.975
-17.775 70.575 1.125
-19.425 60.525 -0.075
-20.925 68.325 0.375
-20.925 68.325 3.675
-19.425 69.825 2.175
-19.425 69.825 2.475
-15.375 59.625 1.125
-20.325 69.075 3.225
-20.025 60.975 -2.925
-20.475 61.425 0.225
-20.475 61.425 -0.375
-21.375 62.775 2.475
-18.675 70.275 2.775
-18.675 70.275 -0.075
-18.975 60.225 -1.275
-21.225 62.475 2.025
-21.225 62.475 1.575
-21.225 67.875 0.825
-19.875 60.825 -0.075
-19.875 60.825 0.225
-17.925 59.775 -0.225
-21.675 66.825 1.875
-17.925 70.575 0.675
-17.925 70.575 2.175
-17.925 70.575 -0.225
-17.925 70.575 1.725
-17.925 70.575 0.825
-17.925 70.575 0.975
-20.625 68.775 2.775
-17.325 59.625 0.075
-21.825 66.225 2.175
-21.825 66.225 0.825
-21.825 66.225 1.425
-21.825 66.225 1.875
-21.525 63.075 2.025
-18.375 70.425 0.375
-18.375 70.425 2.325
-18.375 70.425 1.125
-21.525 67.275 1.875
-19.275 60.375 -2.025
-19.275 60.375 4.275
-19.275 69.975 2.175
-19.275 69.975 2.475
-21.075 68.175 0.975
-20.775 61.725 2.175
-20.775 61.725 0.825
-19.725 60.675 1.575
-19.725 60.675 2.175
-20.775 68.625 3.675
-15.075 59.625 0.225
-17.475 59.625 -0.225
-21.825 66.375 0.825
-21.825 66.375 0.525
-18.075 59.775 -0.225
-21.675 66.975 1.125
-21.675 63.375 3.225
-18.075 70.575 2.475
-21.975 65.175 1.725
-18.825 60.075 -0.375
-19.575 60.525 2.625
-19.575 60.525 -0.225
-19.575 60.525 2.325
-19.575 60.525 2.475
-20.925 61.875 1.425
-20.925 61.875 0.975
-20.925 61.875 1.275
-21.375 62.625 1.725
-21.375 62.625 1.875
-20.925 68.475 1.425
-21.975 65.325 0.675
-18.825 70.275 0.525
-15.975 59.475 1.275
-16.575 59.475 2.325
-21.975 65.475 1.425
-21.975 65.475 6.225
-19.125 60.225 -0.075
-18.525 70.425 2.625
-18.525 70.425 2.175
-21.825 66.525 1.575
-19.125 70.125 2.025
-21.975 65.625 1.125
-20.325 61.125 0.225
-15.675 59.475 1.425
-16.875 59.475 0.075
-12.075 61.275 -0.225
-20.475 61.275 0.375
-21.975 65.775 2.325
-20.475 69.075 3.525
-19.425 60.375 -0.525
-19.425 60.375 1.275
-18.225 59.775 2.925
-18.225 59.775 -0.225
-21.075 62.025 2.475
-21.675 67.125 1.725
-21.675 67.125 0.825
-21.675 67.125 1.875
-18.225 70.575 0.825
-20.625 61.425 0.075
-20.625 61.425 1.575
-17.025 59.475 2.625
-21.825 63.675 1.575
-21.825 66.675 0.975
-21.825 66.675 -0.075
-21.975 65.925 1.275
-21.975 65.925 0.525
-21.975 65.925 0.975
-21.975 65.925 1.575
-20.775 61.575 1.275
-20.775 61.575 1.875
-20.775 61.575 2.325
-20.775 61.575 0.825
-19.875 60.675 2.025
-19.875 60.675 2.175
-15.375 59.475 1.575
-18.975 60.075 -0.525
-18.975 60.075 -0.375
-17.175 59.475 0.825
-21.975 64.275 4.125
-18.975 70.275 -0.225
-18.975 70.275 -0.525
-18.675 70.425 -0.375
-19.275 60.225 0.525
-19.275 60.225 -0.225
-21.225 68.175 0.975
-17.925 70.725 1.575
-17.925 59.625 2.025
-20.925 61.725 1.275
-19.725 60.525 1.725
-19.725 60.525 2.175
-21.825 63.525 2.775
-21.825 66.825 0.975
-21.825 66.825 0.675
-21.825 66.825 1.875
-21.675 67.275 1.875
-21.675 67.275 3.075
-18.375 70.575 1.575
-18.375 70.575 1.125
-21.975 66.225 1.875
-19.575 60.375 0.525
-19.575 60.375 -0.225
-19.575 60.375 2.775
-19.575 60.375 3.075
-19.575 60.375 2.475
-19.575 60.375 -0.675
-19.575 60.375 2.175
-18.075 59.625 -0.825
-18.075 70.725 -0.225
-18.075 70.725 1.275
-18.075 70.725 0.675
-21.825 66.975 1.425
-21.825 66.975 1.125
-21.825 66.975 0.075
-21.825 66.975 1.275
-21.825 66.975 0.675
-21.525 67.725 0.075
-21.525 62.625 2.475
-21.525 62.625 1.875
-18.825 59.925 -0.525
-18.825 59.925 -0.675
-18.825 59.925 -0.375
-19.125 60.075 2.325
-19.125 60.075 -0.075
-20.625 61.275 2.325
-19.125 70.275 -0.225
-19.125 70.275 1.425
-18.525 59.775 2.925
-18.525 59.775 3.075
-18.525 59.775 1.425
-21.675 62.925 2.475
-18.525 70.575 1.425
-14.925 59.475 0.825
-20.775 61.425 2.775
-20.775 61.425 1.125
-20.775 61.425 0.975
-20.775 61.425 1.275
-20.775 68.925 2.325
-17.625 70.875 1.425
-21.975 66.525 1.575
-21.975 66.525 0.975
-19.425 60.225 1.275
-19.425 60.225 -0.225
-19.425 60.225 -0.525
-21.225 62.025 2.325
-16.875 59.325 0.675
-15.675 59.325 1.275
-20.925 61.575 -0.375
-20.925 61.575 2.775
-19.875 60.525 2.025
-19.875 60.525 1.875
-22.125 65.775 0.975
-22.125 65.775 0.075
-18.225 59.625 1.575
-18.225 70.725 1.575
-21.825 67.125 -0.525
-21.825 67.125 1.725
-17.775 59.475 -0.975
-17.775 70.875 1.425
