# .PCD v0.7 - Point Cloud Data file format
VERSION 0.7
FIELDS x y z
SIZE 4 4 4
TYPE F F F
COUNT 1 1 1
WIDTH 2048
HEIGHT 1
VIEWPOINT 0 0 0 1 0 0 0
POINTS 2048
DATA ascii
-65.775 119.325 3.525
-65.925 119.325 0.525
-65.925 119.325 3.375
-65.775 119.175 0.375
-65.625 119.325 -0.075
-65.625 119.325 3.225
-65.625 119.475 3.825
-65.925 119.175 -0.075
-65.625 119.175 3.225
-65.775 119.025 -0.075
-65.775 119.025 0.075
-65.775 119.025 0.225
-65.475 119.325 3.225
-65.475 119.325 0.075
-65.475 119.325 -0.375
-65.925 119.025 -0.675
-65.625 119.025 0.825
-65.475 119.475 0.075
-65.475 119.175 -0.225
-65.475 119.175 3.375
-66.075 119.025 2.625
-66.075 119.025 4.425
-65.775 118.875 2.775
-66.225 119.175 3.375
-66.225 119.175 4.575
-65.925 119.775 2.925
-65.925 118.875 -0.075
-65.925 118.875 0.075
-65.325 119.475 0.225
-65.625 118.875 2.175
-65.625 118.875 -0.225
-65.625 118.875 0.825
-66.225 119.025 -0.075
-65.325 119.625 0.225
-65.325 119.025 3.525
-65.475 119.775 -0.225
-65.475 118.875 3.075
-65.475 119.775 -0.525
-66.375 119.325 0.075
-65.175 119.325 -0.525
-65.775 118.725 -0.825
-65.175 119.475 0.075
-65.175 119.475 -0.075
-65.175 119.475 -0.525
-65.175 119.475 -0.225
-65.625 118.725 0.675
-65.175 119.175 1.725
-65.175 119.175 0.825
-65.625 118.725 1.275
-65.175 119.175 0.675
-66.225 118.875 3.225
-65.325 119.775 3.525
-65.325 119.775 0.975
-65.325 118.875 1.725
-65.325 118.875 0.675
-66.375 119.625 2.925
-65.175 119.625 0.675
-65.175 119.025 0.675
-65.475 118.725 0.825
-66.225 119.925 3.225
-66.375 118.875 -0.525
-66.375 118.875 -0.675
-65.775 118.575 3.375
-65.775 118.575 1.875
-66.525 119.325 3.225
-65.175 118.875 1.275
-65.175 118.875 0.675
-65.175 119.775 0.825
-65.325 118.725 0.375
-65.925 118.575 2.475
-65.925 120.075 3.225
-65.925 118.575 -1.125
-66.525 119.175 3.675
-65.625 118.575 0.675
-65.625 118.575 1.575
-65.025 119.625 0.075
-65.025 119.625 -0.225
-66.525 119.025 -0.225
-65.025 119.625 3.975
-66.075 118.575 0.825
-66.075 118.575 2.025
-65.475 118.575 1.275
-65.475 120.075 1.275
-66.375 119.925 3.225
-66.375 118.725 -1.425
-66.375 118.725 0.225
-65.175 119.925 3.375
-65.175 118.725 0.675
-65.175 118.725 0.375
-65.175 118.725 2.325
-65.175 118.725 1.125
-65.325 118.575 -0.375
-66.525 118.875 -0.225
-65.025 118.875 -0.225
-65.325 118.575 0.675
-65.025 118.875 3.225
-65.025 118.875 1.275
-65.325 120.075 -1.725
-65.025 119.775 -0.225
-66.675 119.325 3.975
-65.775 118.425 0.825
-65.625 120.225 3.975
-64.875 119.475 -0.525
-64.875 119.475 3.525
-65.925 118.425 1.275
-65.925 118.425 -0.075
-65.625 118.425 0.675
-65.625 118.425 1.125
-65.625 118.425 0.375
-64.875 119.175 0.375
-66.075 120.225 1.875
-64.875 119.025 0.375
-66.075 118.425 -0.675
-64.875 119.025 0.675
-66.075 118.425 2.775
-66.075 118.425 0.825
-64.875 119.625 3.525
-65.475 118.425 2.625
-66.525 119.925 2.775
-65.025 119.925 3.225
-65.175 118.575 1.275
-65.175 120.075 0.675
-65.025 118.725 1.125
-65.175 118.575 -0.375
-65.025 118.725 1.275
-66.525 118.725 3.825
-65.025 118.725 2.925
-66.225 120.225 3.675
-65.325 120.225 -0.375
-66.675 118.875 3.375
-66.225 118.425 -0.375
-64.875 118.875 0.675
-64.875 118.875 1.125
-64.875 118.875 -0.825
-65.325 118.425 0.075
-65.325 118.425 2.175
-64.875 118.875 1.275
-66.825 119.325 3.675
-66.525 118.575 -0.525
-65.025 120.075 2.175
-65.025 118.575 0.675
-66.675 119.925 4.275
-66.375 120.225 3.675
-66.675 119.925 3.225
-66.375 120.225 2.175
-66.675 118.725 3.675
-65.175 118.425 4.125
-65.175 118.425 2.925
-64.875 118.725 0.825
-64.875 118.725 0.675
-66.075 120.375 3.525
-66.075 118.275 0.825
-66.825 119.625 3.075
-66.075 118.275 -0.375
-66.075 120.375 3.375
-66.075 118.275 -0.525
-65.475 120.375 3.075
-65.475 120.375 -1.875
-64.725 119.625 -0.225
-64.725 119.625 -0.525
-64.725 119.025 -0.075
-64.725 119.025 0.825
-66.225 120.375 2.775
-66.225 118.275 -0.825
-66.825 118.875 0.525
-64.725 119.775 -0.525
-64.725 119.775 -0.075
-64.725 118.875 -0.225
-64.725 119.775 4.725
-64.725 119.775 1.575
-64.725 119.775 -0.375
-65.025 120.225 1.125
-65.025 120.225 2.925
-66.525 120.225 3.675
-64.875 118.575 0.825
-65.025 118.425 0.825
-66.525 118.425 -0.225
-65.025 118.425 0.675
-64.875 120.075 -0.975
-64.575 119.325 0.675
-66.975 119.475 -0.975
-66.375 120.375 3.525
-66.825 118.725 -0.225
-65.175 118.275 2.325
-65.175 118.275 -0.825
-65.175 120.375 3.525
-65.925 120.525 3.525
-64.575 119.175 0.225
-65.625 118.125 5.325
-64.575 119.175 3.975
-64.725 118.725 -0.525
-64.725 118.725 2.325
-64.725 118.725 -1.125
-66.975 119.625 3.825
-66.975 119.025 -0.225
-66.075 118.125 0.375
-66.075 118.125 1.125
-66.075 118.125 1.275
-66.075 118.125 0.825
-64.575 119.025 -0.225
-64.575 119.025 0.375
-66.075 120.525 2.325
-65.475 120.525 2.925
-66.675 120.225 2.925
-66.675 120.225 3.075
-64.875 120.225 2.625
-66.675 118.425 3.225
-64.875 118.425 -0.375
-64.875 118.425 0.825
-66.975 118.875 3.225
-66.975 118.875 -0.075
-66.225 118.125 0.825
-65.325 120.525 3.675
-65.025 118.275 0.825
-65.025 120.375 2.925
-65.025 118.275 -0.825
-66.525 118.275 0.825
-66.525 118.275 -0.975
-66.525 120.375 3.375
-66.825 118.575 -0.675
-64.725 120.075 3.375
-64.725 120.075 0.075
-64.725 120.075 2.775
-66.975 118.725 0.075
-66.975 118.725 -0.525
-64.575 119.925 -0.225
-65.175 120.525 2.775
-65.175 120.525 3.075
-64.575 118.725 -0.825
-64.575 118.725 -0.675
-67.125 119.325 -0.525
-64.425 119.325 0.375
-64.425 119.325 0.675
-67.125 119.475 3.675
-67.125 119.175 3.525
-64.425 119.475 2.625
-64.425 119.475 0.675
-65.925 117.975 -0.675
-65.925 117.975 0.675
-65.625 117.975 -0.375
-64.425 119.175 0.075
-67.125 119.625 3.225
-67.125 119.025 3.675
-65.475 120.675 3.825
-64.875 118.275 -1.125
-66.825 118.425 0.075
-64.875 120.375 2.775
-66.075 117.975 0.675
-64.425 119.625 0.675
-66.075 117.975 0.825
-66.075 117.975 0.075
-65.475 117.975 -0.075
-64.725 118.425 -0.525
-66.975 118.575 0.075
-66.525 120.525 2.925
-64.575 118.575 4.875
-66.525 118.125 0.825
-65.025 120.525 3.075
-66.525 118.125 0.375
-65.325 120.675 3.975
-67.125 118.875 3.525
-67.125 118.875 3.975
-66.225 117.975 1.425
-65.325 117.975 -0.375
-65.325 117.975 -0.525
-65.325 117.975 -0.075
-64.425 119.775 2.625
-66.375 117.975 -0.825
-66.375 117.975 3.075
-64.425 119.925 -0.225
-64.425 119.925 -0.375
-65.175 117.975 -0.675
-65.175 117.975 -0.525
-64.425 118.725 -1.125
-64.725 118.275 1.875
-66.975 120.225 3.975
-66.975 118.425 0.825
-66.975 118.425 3.525
-66.675 120.525 3.825
-64.275 119.325 -0.375
-64.275 119.325 2.325
-64.275 119.325 -0.675
-64.875 120.525 2.925
-64.875 118.125 2.775
-64.275 119.475 -0.075
-67.275 119.475 3.825
-64.275 119.475 -0.675
-64.275 119.475 1.125
-64.275 119.175 -0.075
-65.625 120.825 3.075
-65.625 117.825 -0.825
-64.275 119.175 2.775
-64.275 119.025 3.075
-67.275 119.025 3.375
-64.275 119.625 0.375
-64.275 119.625 0.675
-64.275 119.625 2.625
-67.275 119.025 3.525
-66.075 117.825 -0.225
-66.075 117.825 1.125
-66.075 117.825 0.675
-66.075 117.825 0.375
-64.275 119.025 0.525
-65.475 120.825 2.325
-65.475 120.825 3.375
-67.125 120.075 -0.075
-65.025 120.675 2.925
-64.425 120.075 0.375
-64.425 120.075 2.475
-64.425 120.075 -0.525
-64.425 118.575 1.425
-66.525 117.975 0.075
-66.525 117.975 0.825
-65.025 117.975 -0.375
-66.225 117.825 0.225
-66.225 117.825 -0.225
-66.225 120.825 2.325
-64.275 119.775 0.675
-65.325 120.825 2.325
-64.275 119.775 2.475
-65.325 120.825 4.275
-65.325 117.825 0.075
-67.275 119.775 3.375
-65.325 117.825 -0.225
-65.325 120.825 3.375
-64.575 118.275 3.675
-64.575 118.275 2.475
-64.275 119.925 -0.075
-64.275 119.925 0.675
-66.375 117.825 1.275
-66.375 117.825 0.525
-66.375 117.825 5.325
-64.275 119.925 -0.225
-65.175 120.825 2.925
-65.175 117.825 2.475
-64.275 118.725 -0.825
-66.675 120.675 2.925
-67.125 118.425 0.375
-66.675 117.975 0.375
-64.125 119.325 2.925
-64.125 119.325 4.575
-65.775 117.675 -0.675
-64.125 119.325 0.375
-64.125 119.325 2.625
-65.925 120.975 2.775
-67.425 119.475 2.475
-65.925 120.975 2.475
-65.625 120.975 3.375
-64.125 119.475 4.275
-64.125 119.475 -0.675
-64.125 119.475 3.375
-65.925 117.675 -0.525
-64.125 119.475 -0.075
-64.125 119.175 2.775
-64.125 119.175 1.875
-64.125 119.175 -0.225
-64.125 119.175 3.075
-65.625 117.675 0.225
-64.125 119.175 2.925
-65.025 117.825 3.375
-65.025 117.825 2.475
-64.275 118.575 2.775
-66.525 117.825 0.825
-64.125 119.625 1.275
-66.075 117.675 1.125
-66.075 117.675 1.275
-66.075 117.675 0.675
-64.125 119.025 -0.075
-65.475 117.675 -0.075
-65.475 117.675 0.375
-66.975 120.525 3.225
-66.975 118.125 0.375
-64.575 118.125 -1.275
-64.575 118.125 3.225
-65.325 120.975 3.075
-67.425 118.875 2.175
-67.425 118.875 3.375
-66.825 120.675 3.225
-66.225 117.675 -0.375
-64.725 120.675 2.925
-64.425 118.275 3.075
-65.325 117.675 -0.225
-64.125 118.875 3.375
-66.675 120.825 2.475
-66.675 117.825 0.375
-64.875 117.825 1.425
-65.175 120.975 1.425
-64.125 119.925 2.625
-66.375 117.675 0.825
-66.375 117.675 0.525
-66.375 117.675 1.275
-64.125 118.725 -0.225
-65.175 117.675 2.775
-64.125 118.725 3.075
-65.175 117.675 -0.075
-64.125 118.725 1.725
-67.575 119.325 3.375
-63.975 119.325 -0.225
-63.975 119.325 2.475
-65.925 117.525 0.225
-65.925 117.525 2.625
-65.925 117.525 0.675
-65.925 117.525 2.475
-65.625 117.525 0.225
-65.625 117.525 0.075
-66.975 117.975 0.525
-63.975 119.475 2.625
-63.975 119.175 2.325
-63.975 119.175 2.175
-63.975 119.175 -0.075
-64.575 117.975 3.375
-67.425 118.575 3.975
-64.125 118.575 -0.675
-66.525 117.675 0.825
-64.125 118.575 2.775
-65.025 117.675 -0.675
-64.125 118.575 -0.975
-64.125 118.575 2.475
-66.075 117.525 -1.125
-67.575 119.025 1.875
-66.075 117.525 0.675
-66.075 121.125 2.625
-65.475 121.125 3.375
-63.975 119.625 -0.825
-63.975 119.025 3.075
-63.975 119.025 2.175
-64.275 118.275 2.325
-67.275 118.275 3.825
-64.725 117.825 2.925
-64.725 117.825 -0.675
-66.225 117.525 -1.425
-66.225 117.525 -0.375
-66.225 121.125 2.925
-67.575 118.875 2.025
-65.325 121.125 2.175
-65.325 117.525 -0.375
-65.325 117.525 -0.225
-63.975 119.775 -0.825
-63.975 118.875 3.675
-67.425 120.225 3.825
-66.675 120.975 2.625
-64.125 120.225 0.075
-66.675 117.675 -0.525
-64.125 118.425 -0.375
-64.125 118.425 2.325
-66.375 117.525 0.825
-65.175 117.525 2.775
-63.975 119.925 0.675
-63.975 118.725 3.075
-63.975 118.725 0.225
-63.975 118.725 2.625
-67.125 117.975 -0.225
-64.425 120.675 3.825
-66.975 117.825 0.225
-67.275 118.125 0.075
-66.525 117.525 0.675
-65.025 117.525 2.925
-65.025 121.125 2.775
-65.025 117.525 3.225
-65.775 121.275 3.075
-64.725 120.975 0.225
-65.925 117.375 -0.075
-65.925 117.375 0.675
-65.925 117.375 -0.825
-63.825 119.475 3.675
-63.825 119.475 3.525
-63.825 119.175 2.925
-66.075 117.375 3.825
-66.075 121.275 2.925
-63.825 119.625 0.225
-63.825 119.625 2.325
-66.075 117.375 0.075
-65.475 117.375 1.575
-66.225 117.375 -0.375
-65.325 117.375 2.325
-65.325 117.375 -0.225
-65.325 117.375 3.375
-65.325 121.275 3.525
-66.675 121.125 2.625
-67.575 118.425 3.675
-63.975 120.225 0.525
-63.975 118.425 2.775
-64.275 120.675 3.825
-67.275 117.975 0.225
-67.425 118.125 3.975
-66.975 117.675 3.825
-63.825 119.925 1.125
-66.375 121.275 3.525
-65.175 117.375 2.325
-65.175 121.275 3.225
-63.825 118.725 2.925
-65.175 117.375 2.775
-64.125 120.525 0.225
-64.125 118.125 3.075
-64.125 120.525 -0.375
-66.825 117.525 -1.275
-66.825 117.525 3.675
-66.825 117.525 -0.675
-67.575 118.275 3.675
-63.975 118.275 2.325
-63.975 118.275 1.275
-63.975 118.275 2.475
-63.975 120.375 -0.525
-63.975 120.375 -0.825
-64.725 121.125 2.625
-67.725 118.575 3.825
-63.825 118.575 2.775
-65.025 121.275 3.075
-63.825 118.575 2.475
-65.025 121.275 2.925
-65.025 117.375 2.175
-66.525 121.275 3.375
-65.025 121.275 3.675
-67.875 119.475 2.925
-65.625 121.425 2.925
-63.675 119.175 2.775
-66.075 121.425 3.375
-64.275 117.825 2.625
-67.275 117.825 0.375
-66.075 117.225 -0.525
-66.075 117.225 -1.275
-63.675 119.625 1.575
-65.475 117.225 -0.825
-67.125 117.675 3.225
-64.125 120.675 -0.375
-64.125 120.675 0.825
-64.425 117.675 -0.525
-67.725 118.425 3.675
-66.225 121.425 3.075
-65.325 121.425 1.725
-65.325 121.425 2.775
-65.325 121.425 2.025
-65.325 121.425 3.825
-63.825 120.225 0.525
-66.675 117.375 -0.825
-63.825 118.425 2.925
-64.875 117.375 2.925
-65.325 117.225 2.025
-66.975 121.125 2.625
-64.575 121.125 3.675
-67.875 118.725 3.525
-63.675 119.925 -0.675
-65.175 117.225 2.175
-66.825 117.375 -0.825
-66.825 117.375 -0.675
-63.825 120.375 -0.225
-66.825 121.275 2.775
-67.275 120.975 2.775
-67.275 120.975 3.675
-67.875 118.575 3.675
-66.525 121.425 2.925
-65.025 121.425 3.525
-64.275 117.675 3.525
-67.275 117.675 0.525
-67.275 117.675 0.075
-63.675 118.575 2.175
-63.675 120.075 0.675
-63.975 120.675 3.525
-67.575 117.975 0.225
-63.525 119.325 0.375
-63.975 117.975 2.775
-65.925 121.575 2.625
-65.925 117.075 -0.375
-65.925 117.075 2.625
-65.925 121.575 2.775
-65.925 121.575 2.175
-65.625 121.575 3.225
-65.625 121.575 2.475
-63.525 119.475 4.125
-63.525 119.475 -1.425
-63.525 119.175 -0.675
-63.525 119.175 2.775
-65.475 121.575 2.775
-63.525 119.625 -0.375
-63.525 119.625 0.225
-63.525 119.625 0.825
-66.675 121.425 3.375
-67.875 118.425 1.725
-66.675 117.225 -0.825
-66.675 117.225 -0.075
-64.875 117.225 1.875
-64.875 117.225 0.975
-67.725 118.125 3.825
-66.975 117.375 -0.825
-64.575 117.375 2.025
-63.825 118.125 2.775
-64.575 121.275 3.525
-65.325 121.575 3.975
-65.325 117.075 2.775
-63.525 119.775 0.225
-66.375 121.575 3.375
-66.375 121.575 3.525
-65.175 117.075 2.475
-65.175 117.075 0.525
-63.525 119.925 -1.575
-63.525 119.925 0.225
-63.525 119.925 0.675
-63.525 119.925 2.925
-67.425 120.975 3.225
-67.425 117.675 0.075
-67.575 117.825 -0.375
-64.725 117.225 1.275
-64.725 117.225 1.425
-67.725 117.975 2.175
-63.825 120.675 -0.225
-65.025 121.575 2.925
-65.025 121.575 2.775
-66.525 117.075 0.675
-63.525 120.075 0.675
-64.425 117.375 3.825
-68.175 119.325 3.225
-63.375 119.325 0.225
-68.175 119.475 3.225
-63.375 119.475 1.125
-65.925 116.925 2.475
-63.375 119.475 0.075
-63.375 119.475 1.725
-66.075 121.725 2.925
-68.175 119.025 3.525
-65.475 121.725 2.775
-63.375 119.625 1.425
-63.375 119.025 3.075
-66.675 117.075 -0.375
-66.675 117.075 -0.525
-66.675 117.075 0.675
-66.675 117.075 0.225
-64.875 117.075 1.425
-64.875 121.575 2.625
-63.525 120.225 0.675
-63.525 120.225 -0.375
-63.525 118.425 2.475
-67.425 117.525 -0.525
-64.125 117.525 2.175
-64.125 117.525 1.725
-64.125 117.525 3.675
-64.125 121.125 1.125
-66.225 116.925 -0.675
-65.325 116.925 2.775
-65.325 116.925 2.625
-63.975 117.675 2.625
-67.725 120.825 3.225
-63.825 117.825 2.925
-64.275 117.375 1.125
-64.275 117.375 3.525
-64.275 117.375 1.725
-64.275 121.275 3.525
-65.175 121.725 3.375
-68.175 118.725 3.525
-63.375 119.925 0.225
-63.375 119.925 -0.225
-66.375 116.925 -0.525
-65.175 116.925 1.275
-63.375 118.725 2.475
-68.025 120.375 2.925
-66.825 117.075 -0.225
-64.725 117.075 -0.225
-64.725 117.075 2.025
-64.725 117.075 2.475
-64.425 121.425 3.525
-67.875 117.975 2.175
-63.675 120.675 -0.675
-63.675 117.975 2.625
-63.375 120.075 1.125
-63.375 120.075 0.975
-63.375 118.575 2.325
-65.025 116.925 1.275
-67.575 117.525 -0.375
-63.975 121.125 3.225
-63.975 121.125 3.075
-63.975 117.525 3.075
-68.325 119.325 2.625
-68.325 119.325 3.375
-68.025 120.525 2.175
-68.025 120.525 2.925
-64.575 117.075 2.025
-64.575 117.075 2.175
-63.225 119.325 1.575
-63.225 119.325 1.275
-63.225 119.325 0.975
-63.525 120.525 1.125
-63.525 118.125 2.625
-68.325 119.475 2.625
-63.825 120.975 -0.075
-67.425 121.275 2.325
-68.325 119.175 3.375
-65.625 121.875 2.625
-65.625 116.775 2.025
-63.225 119.475 -0.525
-63.225 119.475 0.975
-63.225 119.175 -0.525
-64.125 117.375 2.325
-63.825 117.675 3.075
-63.825 117.675 0.825
-63.375 120.225 0.525
-63.375 120.225 -0.675
-63.375 120.225 0.675
-66.675 116.925 0.675
-66.675 116.925 -0.825
-66.675 116.925 1.125
-66.675 116.925 0.975
-63.375 120.225 1.275
-64.875 116.925 0.825
-63.375 118.425 2.625
-63.375 118.425 2.475
-68.325 119.025 2.325
-66.075 116.775 2.325
-66.075 116.775 2.475
-65.475 116.775 1.275
-63.225 119.625 0.825
-63.225 119.025 2.625
-67.875 120.825 2.925
-67.875 117.825 -0.075
-67.875 117.825 4.875
-63.675 117.825 2.775
-63.675 117.825 2.325
-67.275 117.225 -0.825
-67.275 117.225 0.075
-63.675 120.825 3.225
-63.675 120.825 0.225
-68.325 119.775 2.475
-65.325 121.875 2.775
-65.325 116.775 2.475
-65.325 116.775 1.275
-65.325 116.775 1.875
-63.225 119.775 0.825
-63.225 119.775 0.525
-63.225 119.775 1.425
-63.225 118.875 -1.575
-66.375 116.775 -0.075
-64.725 121.725 0.075
-64.725 121.725 2.925
-65.175 121.875 2.775
-65.175 116.775 1.275
-65.175 116.775 2.625
-65.175 116.775 2.025
-68.325 118.725 3.675
-63.225 119.925 -0.225
-63.225 119.925 1.275
-63.225 119.925 0.525
-63.225 119.925 0.825
-63.375 120.375 -0.525
-63.375 118.275 2.475
-63.375 120.375 0.675
-66.825 116.925 2.625
-67.125 117.075 0.225
-67.125 117.075 3.825
-67.125 117.075 4.125
-63.525 117.975 2.625
-67.725 121.125 3.075
-67.575 117.375 -0.225
-67.575 117.375 0.225
-67.575 121.275 2.475
-63.825 121.125 0.225
-63.825 117.525 -0.375
-63.825 117.525 1.425
-63.975 117.375 1.425
-63.975 117.375 0.375
-63.975 117.375 0.825
-63.975 117.375 1.275
-63.975 121.275 2.025
-65.025 121.875 2.175
-65.025 116.775 0.825
-68.325 118.575 3.975
-66.525 116.775 3.225
-66.525 116.775 0.675
-66.525 116.775 -0.525
-63.225 120.075 3.375
-63.225 120.075 3.675
-63.225 120.075 -0.075
-63.225 120.075 -0.975
-63.675 120.975 3.075
-67.425 117.225 -0.375
-67.425 117.225 0.225
-67.425 117.225 0.075
-64.125 117.225 1.275
-64.125 117.225 0.975
-64.575 121.725 0.675
-63.375 118.125 2.775
-63.375 120.525 0.675
-64.575 116.925 2.025
-68.475 119.325 2.775
-63.075 119.325 1.275
-65.775 116.625 1.575
-68.475 119.475 2.625
-68.475 119.475 3.075
-66.675 116.775 1.125
-64.875 116.775 1.125
-64.875 116.775 2.025
-64.875 116.775 0.375
-68.325 118.425 3.675
-68.025 117.825 3.075
-64.275 117.075 1.575
-68.025 117.825 0.825
-63.225 120.225 -0.075
-63.225 120.225 -0.525
-65.925 116.625 2.475
-65.625 116.625 1.275
-63.225 118.425 2.025
-68.475 119.025 2.475
-65.475 116.625 1.275
-65.475 116.625 2.625
-65.475 116.625 2.925
-66.225 116.625 3.075
-66.225 116.625 -0.225
-66.225 116.625 2.325
-63.075 119.775 2.325
-63.075 119.775 -3.975
-65.325 116.625 1.875
-65.325 122.025 2.925
-67.125 121.725 1.125
-67.125 116.925 0.375
-63.375 117.975 2.025
-64.425 116.925 2.475
-64.725 116.775 0.525
-63.225 118.275 2.475
-63.225 118.275 2.775
-63.825 117.375 1.575
-63.825 121.275 0.825
-68.475 118.725 3.675
-63.075 119.925 0.975
-63.075 119.925 3.825
-63.675 121.125 -0.075
-63.675 117.525 1.425
-65.175 122.025 2.175
-63.975 117.225 1.275
-68.025 120.975 3.375
-68.025 120.975 2.775
-67.425 117.075 -0.825
-68.025 120.975 3.525
-63.525 120.975 2.925
-63.525 120.975 3.375
-63.525 120.975 3.525
-64.125 117.075 4.125
-64.125 117.075 2.175
-64.125 117.075 2.625
-68.025 117.675 -0.525
-63.525 117.675 1.275
-63.525 117.675 2.025
-63.075 118.575 0.075
-63.075 118.575 3.225
-66.525 116.625 0.675
-65.025 116.625 0.975
-65.025 122.025 2.025
-63.075 120.075 0.525
-66.975 116.775 -0.225
-64.575 116.775 0.975
-64.575 116.775 3.075
-64.575 116.775 2.025
-63.225 120.525 0.975
-63.225 120.525 -0.525
-63.225 120.525 -0.225
-68.175 120.825 3.225
-67.275 116.925 0.075
-63.375 117.825 3.075
-63.375 117.825 2.775
-63.075 120.225 -0.075
-63.075 120.225 0.675
-64.875 116.625 1.875
-64.875 122.025 2.175
-68.625 119.325 3.825
-62.925 119.325 1.275
-62.925 119.325 -0.075
-68.625 119.475 2.625
-68.625 119.175 3.375
-62.925 119.475 -0.825
-62.925 119.475 -0.375
-65.625 116.475 1.275
-65.625 116.475 2.475
-68.625 119.025 3.825
-68.625 119.025 3.375
-63.825 121.425 0.975
-63.825 121.425 0.675
-63.675 117.375 1.425
-62.925 119.625 0.375
-62.925 119.025 2.175
-66.075 116.475 2.475
-65.475 116.475 1.275
-65.475 116.475 2.625
-68.025 121.125 2.925
-68.025 121.125 3.225
-68.025 121.125 3.075
-68.025 117.525 -1.125
-63.975 117.075 2.175
-63.975 117.075 1.425
-63.975 117.075 1.275
-63.525 117.525 1.725
-63.525 121.125 3.525
-63.525 121.125 3.825
-68.625 119.775 3.075
-68.625 119.775 3.225
-65.325 122.175 2.175
-65.325 122.175 2.775
-67.125 116.775 -0.225
-68.325 120.675 3.525
-63.225 120.675 1.575
-63.225 120.675 -0.225
-63.225 120.675 -0.525
-64.425 116.775 2.925
-64.425 116.775 1.725
-64.425 116.775 2.325
-66.225 116.475 3.375
-63.225 117.975 2.775
-62.925 119.775 -0.075
-65.325 116.475 1.575
-65.325 116.475 0.825
-62.925 118.875 2.475
-65.325 116.475 2.175
-65.325 116.475 1.275
-63.075 120.375 -0.975
-63.075 118.275 2.925
-63.075 118.275 2.625
-63.075 118.275 2.175
-63.075 118.275 1.875
-63.075 118.275 2.775
-64.725 116.625 1.725
-64.725 122.025 3.225
-68.175 120.975 3.375
-68.625 118.725 3.075
-63.375 120.975 3.075
-67.425 116.925 0.975
-67.425 116.925 3.225
-62.925 119.925 3.075
-64.125 116.925 1.425
-64.125 116.925 3.075
-65.175 116.475 2.625
-62.925 118.725 3.075
-65.175 116.475 1.425
-68.625 118.575 3.525
-65.025 122.175 2.475
-65.025 122.175 1.875
-66.525 116.475 2.625
-66.525 116.475 0.675
-62.925 118.575 2.325
-62.925 118.575 3.225
-66.525 116.475 -0.225
-62.925 120.075 2.925
-65.025 116.475 2.175
-66.975 122.025 3.825
-63.075 118.125 2.025
-63.075 118.125 2.175
-64.575 116.625 0.825
-64.575 116.625 1.425
-63.075 120.525 -0.525
-63.075 120.525 1.125
-64.275 116.775 1.875
-64.275 116.775 1.425
-64.275 121.875 2.625
-64.275 121.875 3.075
-67.275 116.775 1.425
-63.225 117.825 2.925
-63.675 121.425 3.375
-63.675 117.225 2.025
-67.725 117.075 1.725
-68.025 117.375 0.075
-63.825 121.575 3.825
-63.825 117.075 1.875
-68.025 121.275 3.075
-63.525 121.275 0.375
-63.525 121.275 3.525
-64.875 122.175 2.775
-64.875 122.175 2.325
-66.675 116.475 3.075
-62.925 120.225 1.125
-62.925 120.225 0.975
-62.925 120.225 0.525
-62.925 120.225 -1.575
-62.925 120.225 0.225
-62.925 118.425 3.075
-64.875 116.475 0.525
-68.175 121.125 3.375
-68.175 121.125 2.475
-63.975 121.725 2.175
-65.775 116.325 2.625
-65.775 116.325 1.275
-68.775 119.325 3.375
-63.375 117.525 0.975
-67.575 116.925 0.975
-63.375 121.125 3.975
-65.925 116.325 2.475
-65.925 122.325 2.325
-68.775 119.475 3.225
-65.625 116.325 1.575
-65.625 116.325 1.875
-65.625 116.325 -0.675
-68.775 119.175 3.225
-68.775 119.625 3.225
-65.475 116.325 2.475
-65.475 116.325 1.725
-65.475 116.325 2.625
-65.475 116.325 2.325
-68.475 120.675 3.525
-63.075 120.675 4.575
-63.075 120.675 1.275
-63.075 120.675 -0.075
-67.125 116.625 3.525
-63.075 117.975 2.175
-68.775 118.875 3.975
-68.775 118.875 2.925
-68.775 119.775 3.225
-62.775 118.875 2.475
-67.425 116.775 -0.225
-67.425 116.775 -0.525
-67.425 116.775 0.975
-68.625 120.375 3.075
-68.625 118.275 -1.425
-68.325 117.675 0.975
-64.125 121.875 2.175
-63.225 117.675 1.125
-62.925 118.275 3.075
-66.825 116.475 3.375
-62.925 120.375 0.525
-62.925 120.375 0.375
-64.725 116.475 1.725
-65.175 116.325 0.825
-65.175 122.325 2.475
-65.175 116.325 1.425
-65.175 116.325 1.725
-68.775 118.725 2.325
-68.775 118.725 3.675
-62.775 119.925 4.125
-62.775 119.925 0.225
-62.775 118.725 -0.675
-68.025 121.425 3.075
-63.525 121.425 2.925
-63.525 121.425 0.225
-68.025 117.225 -0.375
-68.025 117.225 0.675
-63.525 117.225 2.175
-68.475 120.825 3.525
-63.075 117.825 0.375
-63.075 117.825 3.525
-67.275 116.625 1.425
-67.275 116.625 1.275
-67.275 116.625 0.525
-67.275 116.625 -0.675
-67.275 116.625 0.825
-64.275 116.625 2.325
-68.175 117.375 2.325
-68.175 117.375 0.825
-68.175 117.375 1.575
-64.575 122.175 2.025
-66.525 116.325 -0.225
-65.025 122.325 1.725
-66.975 116.475 -0.075
-63.375 117.375 2.025
-63.375 117.375 1.725
-63.375 121.275 1.425
-62.775 118.575 2.175
-62.775 118.575 2.325
-62.925 118.125 3.225
-62.925 118.125 1.725
-62.925 120.525 0.525
-64.575 116.475 1.875
-67.575 116.775 0.975
-67.575 116.775 -0.525
-68.325 117.525 0.075
-68.325 121.125 3.675
-63.975 116.775 1.275
-63.975 121.875 2.175
-63.225 117.525 2.025
-63.225 117.525 1.125
-63.225 121.125 -1.725
-62.775 118.425 2.325
-65.775 122.475 2.475
-68.925 119.325 3.225
-68.925 119.325 3.075
-68.925 119.325 3.375
-62.625 119.325 -0.375
-65.775 116.175 2.625
-65.625 122.475 2.325
-64.425 122.175 1.425
-64.425 122.175 2.625
-62.925 120.675 -0.525
-62.925 120.675 0.525
-62.925 120.675 -0.075
-62.625 119.475 -0.075
-62.925 120.675 0.675
-67.125 116.475 -0.075
-65.625 116.175 2.325
-65.625 116.175 1.875
-68.475 120.975 3.525
-68.925 119.625 3.225
-63.075 120.975 4.125
-63.075 120.975 1.725
-63.075 120.975 0.525
-67.425 116.625 3.825
-67.425 116.625 0.975
-62.625 119.625 -0.675
-62.625 119.625 -0.825
-62.625 119.625 -0.525
-62.625 119.625 -0.075
-62.625 119.025 2.325
-66.075 116.175 2.475
-63.075 117.675 1.125
-63.075 117.675 1.875
-63.075 117.675 2.775
-63.075 117.675 0.825
-65.475 116.175 2.475
-66.825 116.325 0.075
-62.775 118.275 2.625
-62.775 118.275 2.025
-62.775 118.275 2.775
-62.775 120.375 1.125
-62.775 120.375 0.675
-63.525 117.075 4.275
-63.525 121.575 3.075
-65.325 116.175 3.225
-65.325 116.175 0.975
-62.625 119.775 -0.675
-62.625 118.875 2.325
-62.625 118.875 3.225
-63.675 121.725 2.925
-63.375 117.225 1.725
-62.625 119.925 -0.375
-66.375 116.175 2.625
-66.375 116.175 2.475
-65.175 116.175 1.275
-65.175 116.175 0.975
-62.625 118.725 0.825
-65.175 116.175 -0.225
-67.725 116.775 2.775
-63.825 116.775 2.025
-63.225 121.275 1.575
-62.925 120.825 -0.225
-67.275 116.475 1.275
-67.275 116.475 1.425
-67.275 116.475 -0.675
-67.275 116.475 0.825
-66.975 116.325 -0.225
-64.575 122.325 2.325
-64.575 122.325 2.475
-64.575 116.325 1.875
-65.025 122.475 1.875
-65.025 116.175 1.725
-62.625 118.575 2.325
-62.625 118.575 2.625
-66.525 116.175 -0.375
-62.625 120.075 -0.675
-62.625 120.075 -0.825
-62.625 120.075 2.025
-63.075 121.125 2.025
-63.075 121.125 2.175
-67.575 116.625 1.875
-63.975 122.025 1.875
-63.975 122.025 2.175
-64.875 122.475 1.575
-66.675 116.175 0.225
-66.675 116.175 3.075
-62.625 120.225 -0.225
-62.625 120.225 4.875
-62.625 120.225 -0.675
-62.625 118.425 1.575
-68.775 120.675 3.525
-67.125 116.325 3.225
-63.525 121.725 0.375
-63.525 121.725 2.925
-64.425 122.325 1.725
-64.425 122.325 0.375
-64.425 122.325 1.575
-68.025 116.925 -0.525
-62.775 120.675 0.675
-62.775 120.675 -0.075
-62.775 117.975 1.125
-62.775 117.975 1.725
-62.775 117.975 1.875
-62.775 117.975 2.325
-64.125 122.175 -0.075
-67.425 116.475 0.975
-67.425 116.475 0.525
-62.925 117.675 1.125
-65.775 116.025 1.425
-65.775 116.025 2.775
-65.775 116.025 1.575
-69.075 119.325 3.075
-62.475 119.325 -0.525
-67.875 116.775 -0.225
-69.075 119.475 2.775
-65.625 122.625 2.925
-65.625 116.025 1.575
-65.625 116.025 2.325
-65.625 116.025 1.125
-65.625 116.025 0.225
-63.225 121.425 0.375
-63.675 116.775 1.725
-63.675 121.875 3.225
-63.675 121.875 2.475
-62.475 119.475 0.225
-62.475 119.475 3.525
-66.075 116.025 2.775
-66.075 116.025 2.475
-65.475 116.025 0.975
-62.475 119.025 2.175
-62.475 119.025 2.325
-62.475 119.025 2.475
-62.475 119.025 3.525
-62.625 120.375 0.675
-62.625 120.375 -0.975
-67.725 116.625 -0.225
-65.325 116.025 1.125
-65.325 116.025 3.225
-63.075 121.275 2.625
-63.075 121.275 0.675
-63.825 122.025 3.975
-63.825 122.025 2.025
-63.825 122.025 1.875
-62.475 119.775 -1.125
-62.475 118.875 3.225
-65.175 116.025 1.275
-69.075 118.725 1.725
-64.275 122.325 1.725
-67.275 116.325 0.975
-68.775 117.825 2.775
-62.475 119.925 0.225
-62.775 117.825 1.425
-68.925 118.125 3.075
-68.625 117.525 3.825
-68.625 117.525 0.975
-68.625 121.125 3.525
-62.925 117.525 1.125
-67.575 116.475 2.625
-67.575 116.475 -0.225
-62.625 118.125 1.875
-66.525 122.625 -0.525
-66.525 116.025 0.225
-66.525 116.025 -1.125
-65.025 116.025 3.075
-69.075 118.575 3.975
-62.475 118.575 0.375
-63.375 121.725 3.075
-68.025 116.775 2.475
-63.525 121.875 0.375
-63.225 117.075 1.725
-68.475 121.425 3.225
-69.075 118.425 2.775
-62.475 120.225 -0.675
-62.475 120.225 0.675
-62.475 120.225 2.625
-67.425 116.325 3.825
-67.425 116.325 0.975
-62.775 120.975 -0.375
-64.125 122.325 2.475
-64.425 122.475 1.875
-64.425 122.475 1.575
-68.925 117.975 2.775
-68.925 117.975 3.675
-62.625 120.675 -0.075
-62.625 117.975 2.775
-62.625 117.975 1.575
-65.775 115.875 2.475
-65.775 115.875 1.425
-62.325 119.325 1.875
-63.825 122.175 3.075
-68.625 121.275 3.525
-68.625 117.375 3.375
-65.925 115.875 2.775
-65.625 115.875 0.975
-62.325 119.175 2.475
-62.325 119.175 2.025
-62.925 121.275 2.625
-62.925 117.375 1.725
-66.825 116.025 2.775
-66.825 116.025 -0.075
-69.075 118.275 3.975
-69.075 118.275 2.925
-64.725 122.625 1.425
-62.325 119.025 2.175
-62.325 119.025 2.475
-62.475 120.375 1.125
-62.475 120.375 0.375
-62.475 120.375 0.675
-62.475 118.275 2.025
-65.475 115.875 1.425
-65.475 115.875 1.725
-66.225 115.875 1.725
-66.225 115.875 2.025
-68.925 117.825 2.925
-68.925 117.825 3.675
-62.625 117.825 0.975
-62.625 117.825 1.725
-62.625 117.825 1.425
-63.975 122.325 0.225
-62.775 121.125 1.275
-69.225 119.925 2.775
-69.225 118.725 1.725
-69.225 118.725 2.925
-62.325 119.925 3.075
-66.375 115.875 2.025
-63.375 121.875 2.625
-62.325 118.725 1.425
-66.975 116.025 -0.525
-64.575 122.625 1.425
-62.475 120.525 0.675
-62.475 120.525 1.125
-62.475 118.125 0.975
-62.475 118.125 0.675
-68.475 121.575 3.225
-63.525 122.025 3.075
-62.325 118.575 2.925
-62.325 118.575 2.475
-66.525 115.875 2.625
-63.675 122.175 1.125
-68.625 117.225 3.675
-68.625 117.225 3.075
-68.625 117.225 3.225
-67.875 116.475 0.975
-68.925 120.975 3.375
-64.125 122.475 1.125
-62.625 120.975 0.225
-62.625 120.975 0.075
-62.625 117.675 2.025
-62.475 120.675 0.675
-62.475 120.675 -0.525
-62.325 118.425 2.175
-62.325 118.425 2.325
-62.475 117.975 1.575
-68.775 121.275 3.375
-68.775 121.275 3.525
-62.775 121.275 2.475
-62.775 121.275 3.675
-62.175 119.325 3.225
-65.775 115.725 0.825
-62.175 119.475 0.375
-62.175 119.475 3.375
-62.175 119.175 -0.075
-62.175 119.175 2.175
-65.625 115.725 0.525
-65.625 115.725 1.425
-69.225 120.375 3.225
-63.225 121.875 3.075
-62.325 118.275 1.125
-66.825 115.875 -0.525
-64.725 122.775 1.575
-64.725 122.775 1.725
-64.725 122.775 0.825
-68.475 116.925 -0.525
-62.175 119.625 -0.675
-62.175 119.025 2.325
-66.075 115.725 1.425
-65.475 115.725 1.425
-65.475 115.725 1.575
-69.075 120.825 3.525
-69.075 120.825 3.675
-67.275 116.025 0.675
-69.075 117.825 4.275
-69.075 117.825 2.775
-62.475 120.825 0.675
-62.475 117.825 2.475
-62.475 117.825 1.875
-63.975 122.475 3.075
-63.975 122.475 1.575
-63.975 122.475 0.975
-62.625 121.125 2.925
-62.625 121.125 2.625
-67.575 116.175 1.425
-66.225 115.725 2.775
-66.225 115.725 1.425
-62.175 119.775 -0.375
-68.625 117.075 3.375
-63.525 122.175 2.925
-62.925 121.575 1.875
-62.925 121.575 -0.825
-69.375 118.725 3.075
-66.975 115.875 -0.825
-66.975 115.875 2.475
-62.325 118.125 0.675
-62.325 118.125 2.475
-62.325 118.125 1.575
-64.575 122.775 1.125
-67.875 116.325 0.975
-67.875 116.325 -0.225
-62.775 117.225 1.275
-66.525 115.725 -0.975
-66.525 115.725 2.775
-66.525 115.725 2.475
-66.525 115.725 3.225
-67.425 116.025 0.225
-67.425 116.025 0.525
-62.475 120.975 -0.675
-64.125 122.625 3.225
-69.225 117.975 2.775
-63.825 122.475 0.975
-68.925 117.375 3.375
-67.725 116.175 0.975
-62.625 121.275 2.325
-62.625 121.275 2.625
-62.175 120.225 0.225
-66.675 115.725 -0.225
-68.475 116.775 -0.525
-63.375 122.175 2.025
-63.375 122.175 -0.525
-68.625 116.925 3.075
-69.375 118.275 3.675
-65.775 115.575 2.925
-65.775 115.575 3.075
-65.775 115.575 1.125
-65.775 115.575 0.675
-68.025 116.325 1.425
-62.175 120.375 -0.375
-62.175 118.275 1.725
-62.175 118.275 1.875
-65.925 123.075 1.875
-65.625 115.575 2.175
-65.625 115.575 2.625
-65.625 115.575 1.725
-67.575 116.025 1.275
-67.575 116.025 0.975
-67.575 116.025 1.425
-67.575 116.025 0.525
-69.075 117.525 3.525
-69.075 117.525 3.075
-62.325 120.825 -0.075
-62.325 120.825 0.675
-67.275 115.875 0.525
-62.025 119.025 2.325
-62.025 119.625 -0.525
-66.225 123.075 1.875
-65.325 123.075 4.125
-65.325 123.075 4.275
-62.025 118.875 3.825
-62.025 118.875 3.075
-63.675 122.475 2.775
-62.625 121.425 2.925
-62.625 121.425 3.375
-66.975 115.725 -0.375
-62.175 120.525 1.125
-62.175 118.125 0.975
-62.175 118.125 1.125
-66.375 115.575 1.275
-69.525 118.725 2.925
-62.025 118.725 2.625
-68.475 116.625 0.225
-68.625 116.775 -0.675
-68.625 116.775 2.925
-63.225 122.175 2.625
-63.225 122.175 1.575
-62.325 120.975 -0.225
-62.325 120.975 -0.525
-67.425 115.875 0.975
-67.425 115.875 1.125
-67.425 115.875 0.525
-67.425 115.875 0.375
-66.525 115.575 2.475
-66.525 115.575 2.925
-66.525 115.575 2.025
-64.125 122.775 1.125
-62.025 120.075 0.075
-62.025 120.075 -0.675
-67.725 116.025 2.775
-63.825 122.625 2.625
-63.825 122.625 1.875
-62.475 121.275 -0.525
-63.375 122.325 2.475
-68.775 116.925 -0.525
-68.775 116.925 3.375
-68.775 116.925 3.825
-68.775 116.925 3.075
-66.675 115.575 2.025
-62.025 120.225 -0.375
-62.025 120.225 -0.825
-62.025 120.225 -0.675
-62.025 120.225 -0.975
-62.025 118.425 2.025
-62.025 118.425 0.675
-62.025 118.425 1.275
-62.025 118.425 1.425
-68.925 117.075 3.225
-63.525 122.475 2.775
-63.525 122.475 1.725
-63.525 122.475 2.325
-62.625 117.075 1.275
-62.625 121.575 1.725
-63.525 116.175 -1.725
-69.225 117.525 3.225
-67.575 115.875 0.825
-66.825 115.575 3.225
-66.825 115.575 2.625
-62.025 118.275 1.125
-62.025 120.375 0.375
-62.025 120.375 -0.375
-62.025 120.375 1.725
-69.375 117.825 2.325
-65.775 115.425 2.025
-65.775 115.425 1.125
-61.875 119.325 1.875
-62.175 120.825 3.825
-62.175 120.825 -0.225
-67.275 115.725 0.225
-67.275 115.725 0.525
-67.275 115.725 2.925
-62.175 117.825 3.075
-69.675 119.475 2.775
-61.875 119.475 2.175
-65.925 115.425 1.575
-65.625 115.425 2.925
-65.625 115.425 1.725
-67.875 116.025 1.425
-63.675 122.625 2.625
-63.675 122.625 0.525
-69.075 117.225 2.475
-66.075 115.425 2.475
-66.075 115.425 0.525
-63.075 122.175 1.875
-63.075 122.175 1.275
-68.475 116.475 0.075
-68.475 116.475 3.225
-68.475 116.475 3.375
-66.225 115.425 1.875
-61.875 118.875 2.475
-61.875 118.875 3.675
-61.875 118.875 1.875
-62.925 122.025 1.125
-68.325 116.325 0.375
-63.225 122.325 2.175
-63.225 122.325 2.025
-62.025 118.125 0.825
-62.025 118.125 2.175
-62.025 118.125 2.475
-66.375 115.425 1.875
-66.375 115.425 3.075
-63.375 122.475 0.825
-63.375 122.475 2.475
-68.925 116.925 3.075
-68.925 116.925 3.525
-69.375 117.675 3.375
-62.625 121.725 1.725
-68.175 116.175 0.525
-62.175 120.975 -0.525
-67.425 115.725 1.125
-67.425 115.725 0.675
-67.425 115.725 2.925
-62.625 116.925 1.725
-69.225 117.375 3.375
-67.725 115.875 0.975
-67.725 115.875 0.375
-62.325 121.275 2.925
-69.675 118.575 3.225
-69.675 118.575 2.475
-61.875 120.075 0.975
-61.875 118.575 2.025
-61.875 118.575 1.875
-61.875 120.075 0.075
-69.525 120.675 2.775
-64.425 115.575 -0.825
-68.025 116.025 -0.375
-69.075 117.075 3.675
-63.525 122.625 2.325
-63.525 122.625 2.025
-63.525 122.625 1.875
-62.475 121.575 2.025
-61.875 120.225 -0.825
-61.875 120.225 0.975
-61.875 118.425 0.825
-61.875 118.425 2.325
-61.875 118.425 2.625
-69.375 117.525 3.375
-62.175 121.125 -0.825
-62.175 121.125 3.075
-67.575 115.725 -0.075
-63.975 115.725 -1.725
-62.925 122.175 2.175
-63.075 122.325 2.025
-63.075 122.325 1.875
-63.075 122.325 3.375
-62.775 122.025 1.875
-67.275 115.575 0.525
-61.875 120.375 1.425
-61.875 118.275 2.325
-66.825 115.425 -0.825
-62.325 117.225 1.125
-63.675 122.775 2.625
-65.775 115.275 2.775
-65.775 115.275 1.575
-65.775 115.275 1.125
-68.925 116.775 4.275
-63.225 122.475 2.325
-65.925 115.275 0.825
-65.925 115.275 1.275
-65.625 115.275 1.275
-61.725 119.475 -0.675
-61.725 119.475 2.175
-61.725 119.175 2.325
-66.075 115.275 1.425
-61.725 119.625 2.775
-69.825 119.775 2.775
-68.175 116.025 0.525
-68.175 116.025 0.975
-62.475 121.725 1.425
-62.475 121.725 1.575
-63.375 122.625 2.025
-69.075 116.925 2.625
-61.875 120.525 -0.075
-69.375 117.375 2.475
-66.375 115.275 2.025
-66.375 115.275 1.125
-66.375 115.275 0.975
-66.375 115.275 2.775
-66.375 123.375 -2.175
-61.725 119.925 0.375
-62.175 121.275 2.775
-63.825 115.725 -1.875
-67.425 115.575 0.525
-62.025 120.975 -0.225
-62.025 120.975 0.225
-69.225 117.075 2.775
-69.225 117.075 2.475
-65.025 115.275 0.375
-66.525 115.275 -0.225
-66.525 115.275 1.425
-62.325 121.575 -0.075
-61.725 120.075 0.075
-63.525 122.775 2.325
-67.125 115.425 0.675
-68.625 116.325 0.075
-62.775 122.175 2.025
-62.925 122.325 2.025
-62.925 122.325 1.575
-62.925 122.325 1.725
-63.075 122.475 2.325
-66.675 115.275 1.725
-69.825 118.425 2.475
-61.725 120.225 -0.675
-61.725 120.225 0.975
-61.725 120.225 0.375
-61.725 118.425 1.575
-61.725 118.425 1.125
-61.725 118.425 2.475
-67.575 115.575 -0.225
-67.575 115.575 0.075
-69.525 117.525 2.925
-62.025 121.125 -0.225
-69.375 117.225 2.475
-69.375 117.225 2.625
-62.175 121.425 -0.375
-67.875 115.725 1.575
-62.175 117.225 0.975
-63.225 122.625 0.675
-63.225 122.625 2.175
-69.675 117.825 1.125
-61.875 120.825 2.025
-66.825 115.275 2.175
-61.725 120.375 0.825
-61.725 120.375 -0.525
-61.725 120.375 -0.075
-69.975 119.475 3.225
-62.325 121.725 1.425
-62.325 121.725 -0.225
-62.325 121.725 -1.125
-62.325 121.725 -0.375
-68.175 115.875 0.975
-65.925 115.125 1.875
-65.925 115.125 1.725
-66.075 115.125 1.425
-69.975 119.775 2.925
-69.825 120.525 4.125
-66.225 115.125 2.775
-66.225 115.125 2.025
-66.225 115.125 1.275
-66.225 115.125 2.175
-66.225 115.125 0.075
-61.575 118.875 1.275
-61.725 120.525 1.275
-61.725 120.525 0.825
-61.725 120.525 0.525
-61.725 120.525 1.425
-62.025 121.275 2.025
-61.875 120.975 0.375
-67.425 115.425 3.375
-68.775 116.325 3.375
-68.775 116.325 0.225
-66.375 115.125 1.875
-66.375 115.125 2.325
-61.575 119.925 0.375
-62.775 122.325 1.425
-69.375 117.075 3.825
-62.175 121.575 3.075
-68.025 115.725 0.975
-62.925 122.475 1.575
-62.925 122.475 1.875
-62.625 122.175 1.575
-63.075 122.625 1.425
-61.575 120.075 0.525
-66.525 115.125 1.725
-61.575 118.575 1.275
-61.575 118.575 2.925
-61.725 120.675 0.675
-61.725 117.975 1.425
-69.225 116.775 4.125
-63.225 122.775 2.025
-69.975 118.425 1.725
-69.975 118.425 2.175
-61.575 120.225 2.325
-61.575 120.225 0.375
-66.675 115.125 2.025
-66.675 115.125 1.725
-61.875 121.125 -0.075
-61.875 121.125 0.825
-67.575 115.425 3.675
-67.575 115.425 0.525
-67.875 115.575 0.975
-67.875 115.575 1.425
-62.025 121.425 -0.375
-69.825 117.825 1.725
-69.825 117.825 2.625
-61.725 120.825 -0.075
-69.375 116.925 2.925
-68.175 115.725 -1.125
-62.775 122.475 0.075
-62.775 122.475 1.575
-62.775 122.475 2.475
-62.775 122.475 1.425
-62.625 122.325 2.625
-62.625 122.325 2.475
-68.775 116.175 0.225
-65.775 114.975 2.325
-69.675 117.375 2.175
-70.125 119.025 3.075
-66.075 123.675 -2.025
-65.475 123.675 0.975
-65.475 123.675 1.425
-62.475 122.175 1.575
-67.725 115.425 -0.225
-67.725 115.425 0.975
-67.725 115.425 0.225
-67.725 115.425 0.525
-62.925 122.625 1.575
-66.075 114.975 2.925
-61.425 119.625 -0.975
-69.975 118.125 1.575
-69.975 120.525 4.125
-61.575 120.525 0.675
-61.575 120.525 0.975
-61.575 118.125 1.575
-68.025 115.575 0.975
-68.025 115.575 3.975
-61.725 120.975 3.525
-61.725 117.675 2.325
-66.225 114.975 0.225
-66.225 114.975 2.025
-66.225 114.975 0.975
-65.325 114.975 2.625
-61.425 119.775 2.475
-61.425 119.775 -0.525
-68.475 115.875 3.975
-62.325 122.025 1.125
-70.125 118.725 1.425
-66.375 114.975 2.325
-66.375 114.975 2.625
-69.975 117.975 1.425
-69.975 117.975 2.475
-63.225 122.925 1.875
-61.575 120.675 -0.675
-61.575 120.675 1.125
-61.575 120.675 0.825
-61.575 120.675 0.675
-61.575 120.675 -0.075
-61.575 120.675 0.375
-61.575 117.975 1.275
-70.125 118.575 2.175
-70.125 120.075 2.325
-66.525 114.975 1.575
-61.425 118.575 1.425
-61.875 121.425 0.075
-67.875 115.425 3.675
-67.875 115.425 0.675
-67.875 115.425 3.375
-67.875 115.425 0.975
-67.575 115.275 0.525
-69.825 121.125 4.125
-63.975 123.375 3.525
-61.725 121.125 1.725
-61.725 121.125 -0.225
-61.425 120.225 1.275
-66.675 114.975 2.325
-62.025 121.725 0.075
-62.025 121.725 2.325
-62.025 121.725 3.225
-62.625 122.475 1.425
-62.625 122.475 0.675
-62.625 122.475 1.275
-69.975 117.825 3.375
-69.975 120.825 3.075
-68.775 116.025 4.275
-69.075 116.325 2.175
-62.775 122.625 2.475
-62.775 122.625 1.275
-62.775 122.625 0.975
-62.775 122.625 0.825
-61.575 120.825 -0.375
-61.575 120.825 -0.225
-61.575 120.825 0.675
-62.475 122.325 1.575
-62.475 122.325 1.425
-62.925 122.775 1.425
-61.425 120.375 -0.225
-67.725 115.275 1.125
-67.725 115.275 -0.225
-61.725 121.275 0.075
-61.725 121.275 -0.075
-61.725 121.275 -0.225
-63.075 122.925 1.425
-68.475 115.725 3.675
-62.175 122.025 -1.125
-63.525 123.225 1.125
-70.275 119.475 2.775
-65.925 123.825 1.125
-65.625 123.825 1.125
-68.025 115.425 3.075
-68.025 115.425 0.975
-61.875 121.575 -0.525
-61.875 121.575 -0.225
-61.275 119.175 2.325
-66.075 114.825 2.625
-66.075 114.825 0.825
-65.475 123.825 1.125
-61.275 119.025 2.475
-70.125 118.125 2.475
-70.125 118.125 0.975
-66.225 114.825 0.825
-70.275 118.875 2.925
-70.275 118.875 2.175
-61.275 119.775 -0.675
-61.275 118.875 3.375
-62.025 121.875 2.475
-62.025 121.875 2.625
-62.025 121.875 0.075
-62.025 121.875 1.875
-66.375 114.825 1.875
-66.375 114.825 0.975
-61.275 119.925 -0.375
-61.275 119.925 -0.675
-61.275 118.725 1.425
-70.125 117.975 3.675
-70.125 117.975 2.025
-61.425 120.675 -0.225
-61.425 120.675 1.125
-61.425 120.675 -0.075
-61.425 120.675 -0.375
-67.875 115.275 3.525
-62.475 122.475 1.575
-70.275 120.075 3.675
-66.525 114.825 2.625
-66.525 114.825 1.725
-66.525 114.825 0.675
-70.275 118.575 1.575
-70.275 118.575 2.025
-65.025 123.825 0.675
-62.625 122.625 1.425
-61.575 121.125 -0.225
-61.575 121.125 -0.075
-67.575 115.125 0.525
-63.975 123.525 -3.075
-68.775 115.875 0.975
-62.775 122.775 2.325
-69.675 116.925 1.575
-69.675 116.925 2.625
-61.875 121.725 3.525
-70.275 120.225 3.375
-66.675 114.825 2.625
-66.675 114.825 1.425
-70.275 118.425 2.775
-61.275 118.425 2.475
-62.925 122.925 1.125
-62.925 122.925 1.425
-68.625 115.725 3.225
-70.125 117.825 3.075
-61.425 120.825 1.275
-66.825 114.825 -0.225
-66.825 114.825 2.475
-63.075 123.075 1.425
-67.725 115.125 1.125
-67.725 115.125 -0.525
-61.575 121.275 -0.225
-61.575 121.275 0.225
-63.525 115.275 -2.025
-70.125 120.975 3.075
-70.125 120.975 2.625
-65.625 123.975 0.675
-61.425 120.975 0.675
-61.425 120.975 0.375
-61.425 120.975 1.125
-65.925 114.675 2.775
-66.975 114.825 2.475
-61.275 118.125 1.425
-69.675 116.775 3.675
-61.875 121.875 3.225
-61.875 121.875 1.575
-61.125 119.625 -0.225
-69.075 116.025 3.525
-69.075 116.025 4.275
-62.475 122.625 0.975
-70.425 119.775 3.525
-70.425 119.775 2.025
-69.225 116.175 3.225
-69.225 116.175 2.025
-68.925 115.875 0.975
-68.925 115.875 2.925
-68.925 115.875 2.775
-66.225 114.675 1.875
-66.225 114.675 1.425
-62.625 122.775 1.125
-62.625 122.775 1.725
-69.375 116.325 4.575
-68.775 122.925 2.325
-62.775 122.925 0.825
-68.775 115.725 4.425
-70.425 119.925 2.925
-70.425 119.925 1.875
-66.375 114.675 2.325
-61.125 119.925 -5.175
-66.375 114.675 1.425
-61.125 118.725 1.575
-61.125 118.725 0.375
-69.975 117.225 2.325
-69.975 117.225 2.025
-61.575 121.425 -0.525
-67.875 115.125 4.125
-70.275 120.675 3.075
-70.275 120.675 3.975
-67.125 114.825 2.025
-61.275 120.675 0.225
-61.275 117.975 1.275
-70.125 117.525 2.175
-61.725 121.725 2.775
-69.825 116.925 1.575
-69.825 116.925 2.625
-61.425 121.125 3.525
-61.425 121.125 3.675
-61.425 121.125 3.375
-61.425 121.125 0.675
-67.575 114.975 3.825
-67.575 114.975 0.525
-70.425 120.075 2.175
-70.425 118.575 2.175
-62.025 122.175 -1.425
-62.925 123.075 1.275
-69.525 116.475 4.125
-66.525 114.675 2.325
-66.675 114.675 2.475
-66.675 114.675 1.575
-61.275 120.825 -0.675
-69.975 117.075 2.475
-68.025 115.125 -0.825
-61.575 121.575 -0.225
-70.425 120.375 2.025
-70.125 117.375 0.375
-67.725 114.975 3.825
-67.725 114.975 -0.525
-66.825 114.675 2.175
-66.825 114.675 2.325
-61.425 121.275 -0.225
-69.225 116.025 2.625
-69.225 116.025 3.675
-62.325 122.625 3.075
-62.325 122.625 2.025
-62.325 122.625 1.275
-69.075 115.875 4.125
-62.325 122.625 1.725
-62.475 122.775 1.425
-68.925 122.925 2.175
-62.625 122.925 2.475
-62.625 122.925 0.975
-62.175 122.475 1.425
-68.925 115.725 0.975
-68.925 115.725 2.925
-69.825 116.775 3.525
-70.275 117.675 3.375
-60.975 119.325 -0.525
-70.425 118.125 2.475
-65.925 114.525 0.975
-70.575 119.175 1.875
-65.625 124.125 0.675
-69.525 116.325 1.425
-69.525 116.325 3.225
-66.975 114.675 2.325
-66.975 114.675 2.775
-62.775 123.075 1.575
-62.775 123.075 1.875
-62.025 116.325 -1.875
-62.025 122.325 1.125
-61.125 120.525 -0.225
-70.575 119.025 2.775
-70.575 119.775 1.875
-60.975 118.875 -0.225
-70.125 121.425 3.525
-61.875 122.175 2.325
-61.875 122.175 2.175
-67.875 114.975 2.925
-61.875 116.475 -1.875
-70.575 119.925 1.125
-66.375 114.525 1.575
-68.175 115.125 -0.375
-61.575 121.725 3.525
-68.175 115.125 2.925
-61.575 121.725 2.175
-61.575 121.725 2.025
-60.975 119.925 -0.375
-60.975 119.925 -0.225
-70.425 117.975 2.625
-61.275 121.125 -0.675
-61.275 121.125 3.525
-66.525 114.525 0.525
-66.525 114.525 2.475
-70.575 120.075 2.025
-70.575 118.575 1.725
-60.975 118.575 2.625
-68.475 115.275 3.675
-68.475 115.275 1.575
-62.325 122.775 1.275
-62.325 122.775 1.125
-62.325 122.775 3.375
-66.675 114.525 1.425
-66.675 114.525 1.575
-66.675 114.525 2.175
-66.675 114.525 1.125
-62.475 122.925 1.875
-62.175 122.625 1.575
-64.275 123.975 3.075
-67.275 114.675 -0.975
-61.125 117.825 2.025
-70.125 117.075 2.625
-61.425 121.575 -0.675
-67.725 114.825 0.975
-70.275 117.375 0.825
-70.275 117.375 2.175
-61.275 121.275 -0.075
-69.975 116.775 2.925
-69.975 116.775 0.975
-69.975 116.775 2.325
-66.825 114.525 2.925
-66.825 114.525 1.875
-70.575 120.375 2.475
-68.325 115.125 -1.725
-61.575 121.875 2.325
-61.575 121.875 2.925
-68.775 115.425 2.625
-61.875 122.325 1.875
-70.425 120.975 2.625
-61.125 120.975 -0.225
-66.975 114.525 2.325
-66.975 114.525 2.625
-70.575 118.125 2.025
-60.975 118.125 1.425
-70.725 119.475 3.675
-61.725 122.175 1.725
-60.825 119.625 -0.525
-61.275 121.425 -1.125
-70.125 116.925 1.125
-70.125 116.925 2.475
