# .PCD v0.7 - Point Cloud Data file format
VERSION 0.7
FIELDS x y z
SIZE 4 4 4
TYPE F F F
COUNT 1 1 1
WIDTH 2048
HEIGHT 1
VIEWPOINT 0 0 0 1 0 0 0
POINTS 2048
DATA ascii
-5.775 25.575 0.675
-5.775 25.575 1.425
-5.775 25.575 0.975
-5.775 25.425 1.425
-5.775 25.425 1.725
-5.775 25.425 1.125
-5.925 25.575 2.625
-5.625 25.575 1.125
-5.625 25.575 1.275
-5.625 25.575 0.675
-5.625 25.575 1.425
-5.625 25.575 0.525
-5.775 25.725 1.575
-5.775 25.725 1.275
-5.925 25.425 1.425
-5.925 25.425 -0.375
-5.925 25.725 0.675
-5.925 25.725 1.875
-5.625 25.725 -4.875
-5.625 25.725 1.125
-5.625 25.725 0.675
-5.625 25.725 1.725
-6.075 25.575 1.275
-6.075 25.575 1.425
-5.475 25.575 1.425
-5.775 25.875 0.825
-5.475 25.575 0.525
-5.775 25.275 1.575
-5.775 25.275 -0.375
-6.075 25.425 0.375
-5.475 25.425 0.975
-5.925 25.875 0.675
-5.925 25.875 1.275
-5.925 25.875 0.975
-5.925 25.275 -0.375
-5.625 25.875 1.275
-6.075 25.725 0.525
-6.075 25.725 1.425
-6.075 25.725 2.625
-6.075 25.725 1.575
-6.075 25.725 1.275
-5.475 25.725 1.575
-5.475 25.725 0.825
-6.075 25.275 0.675
-6.075 25.875 0.975
-6.075 25.875 4.875
-6.075 25.275 1.575
-5.475 25.275 1.125
-5.475 25.275 2.325
-5.475 25.275 1.275
-5.475 25.875 0.225
-5.775 25.125 1.725
-5.325 25.575 0.675
-5.325 25.575 3.225
-5.325 25.575 0.375
-5.925 26.025 0.525
-5.925 25.125 0.975
-5.625 26.025 1.125
-5.625 25.125 1.125
-5.325 25.425 2.025
-5.325 25.425 0.375
-5.325 25.425 1.125
-5.325 25.425 1.425
-5.325 25.725 1.425
-5.325 25.725 0.525
-6.075 25.125 0.075
-6.075 25.125 -0.525
-6.225 25.275 1.125
-6.225 25.875 0.525
-5.475 25.125 1.725
-6.225 25.275 0.075
-5.475 25.125 1.575
-5.475 25.125 0.975
-6.225 25.875 1.575
-5.475 26.025 2.475
-5.325 25.275 -0.525
-5.325 25.875 0.825
-5.325 25.275 0.525
-5.325 25.275 0.975
-5.325 25.875 4.725
-6.375 25.575 2.025
-6.375 25.575 0.525
-5.175 25.575 1.275
-5.175 25.575 1.575
-5.175 25.575 0.675
-5.175 25.575 0.825
-5.175 25.575 1.425
-5.625 24.975 1.425
-6.375 25.425 0.825
-6.375 25.425 1.575
-6.375 25.425 1.275
-6.375 25.425 1.725
-5.175 25.425 0.525
-5.175 25.425 0.675
-6.375 25.725 0.975
-6.375 25.725 0.825
-5.175 25.425 -4.425
-5.175 25.725 1.875
-5.175 25.725 0.975
-5.925 26.175 0.225
-6.225 26.025 0.375
-6.225 25.125 -0.825
-6.225 26.025 1.125
-6.225 26.025 0.975
-6.225 25.125 1.275
-6.225 25.125 1.575
-6.225 25.125 1.125
-5.475 24.975 0.825
-6.375 25.275 1.125
-6.375 25.275 1.425
-5.175 25.275 0.225
-5.175 25.275 1.125
-5.175 25.875 1.275
-5.175 25.275 0.975
-5.175 25.875 3.375
-5.175 25.875 1.125
-5.175 25.275 0.375
-5.175 25.875 1.725
-6.075 26.175 -5.025
-5.475 26.175 0.375
-6.225 24.975 1.725
-5.325 24.975 0.825
-5.325 24.975 1.575
-6.375 26.025 0.525
-6.525 25.575 0.675
-5.175 26.025 0.825
-5.025 25.575 0.375
-5.775 26.325 1.425
-5.175 26.025 2.175
-6.525 25.575 0.975
-5.175 26.025 1.425
-5.025 25.575 -1.725
-5.775 26.325 1.125
-6.525 25.575 0.825
-5.775 26.325 0.375
-5.175 26.025 1.725
-5.775 24.825 2.025
-5.025 25.575 0.525
-5.775 24.825 1.725
-6.225 26.175 -0.225
-5.325 26.175 0.825
-5.325 26.175 4.275
-5.925 24.825 1.575
-5.925 24.825 1.275
-5.625 24.825 1.125
-5.625 24.825 1.425
-5.625 26.325 0.675
-5.625 24.825 2.025
-5.025 25.725 0.975
-5.025 25.725 0.525
-6.525 25.725 0.825
-5.025 25.725 0.375
-5.025 25.725 1.125
-6.075 24.825 0.825
-5.475 26.325 1.425
-5.025 25.875 3.375
-5.025 25.875 0.975
-6.525 25.275 0.975
-5.475 26.325 1.275
-5.025 25.875 1.425
-6.525 25.875 1.275
-5.475 26.325 1.575
-6.375 26.175 0.675
-6.375 26.175 0.375
-5.175 26.175 2.475
-5.175 26.175 0.075
-5.025 26.025 1.275
-5.025 26.025 0.825
-6.525 25.125 1.125
-5.025 26.025 0.975
-6.225 26.325 0.975
-6.225 24.825 1.275
-6.225 26.325 0.675
-5.325 26.325 0.825
-5.325 26.325 0.375
-5.775 24.675 1.125
-5.775 24.675 1.725
-6.675 25.575 1.875
-4.875 25.575 2.025
-4.875 25.575 0.825
-4.875 25.575 -3.075
-4.875 25.575 0.375
-5.925 24.675 1.725
-6.675 25.425 2.025
-4.875 25.725 0.675
-4.875 25.725 0.975
-4.875 25.725 2.025
-4.875 25.725 0.375
-4.875 25.725 -4.425
-5.925 26.475 1.125
-5.625 26.475 2.025
-5.475 24.675 2.475
-6.675 25.275 1.425
-6.675 25.275 3.225
-4.875 25.875 0.675
-4.875 25.875 0.375
-4.875 25.875 0.525
-4.875 25.875 0.825
-4.875 25.875 -0.075
-5.475 26.475 1.875
-5.475 26.475 2.175
-6.525 24.975 1.125
-6.525 24.975 1.575
-6.375 24.825 0.825
-6.375 24.825 1.575
-6.375 26.325 0.825
-5.175 26.325 1.725
-5.025 26.175 2.175
-5.025 26.175 1.125
-6.525 26.175 2.025
-5.025 26.175 1.575
-6.225 24.675 1.575
-5.325 24.675 0.825
-6.675 25.125 1.275
-6.675 25.125 0.825
-6.675 25.125 3.375
-4.875 26.025 1.275
-4.875 26.025 0.525
-4.875 26.025 0.375
-4.875 26.025 0.825
-4.875 26.025 0.675
-4.875 26.025 1.425
-6.225 26.475 1.125
-5.325 26.475 1.275
-5.325 26.475 1.875
-5.325 26.475 1.125
-5.325 26.475 1.725
-6.825 25.575 0.075
-5.775 24.525 1.275
-5.775 24.525 1.725
-5.775 24.525 4.425
-5.775 24.525 1.575
-5.025 24.825 0.375
-6.525 24.825 0.975
-5.025 26.325 1.275
-6.525 24.825 1.275
-6.525 24.825 1.575
-5.025 24.825 0.525
-5.025 26.325 2.175
-5.025 26.325 1.575
-5.025 26.325 -1.575
-5.025 26.325 0.975
-5.025 26.325 2.475
-5.925 26.625 1.125
-5.925 24.525 1.275
-5.925 26.625 1.275
-5.625 24.525 1.275
-5.625 26.625 0.825
-6.675 24.975 1.125
-6.675 24.975 0.975
-6.675 24.975 1.275
-6.675 24.975 0.825
-6.675 24.975 0.525
-6.375 24.675 1.425
-6.375 24.675 2.025
-4.875 26.175 0.975
-4.875 26.175 -0.825
-4.875 26.175 0.825
-4.875 26.175 0.675
-4.875 26.175 1.275
-5.175 26.475 1.125
-6.825 25.275 0.225
-6.075 24.525 1.725
-6.075 26.625 0.525
-6.075 26.625 0.825
-5.475 24.525 0.075
-4.725 25.875 0.525
-4.725 25.875 0.975
-4.725 25.875 0.375
-5.475 26.625 1.125
-5.475 24.525 0.225
-4.725 25.275 1.125
-6.825 25.125 0.375
-6.825 25.125 -0.375
-6.225 26.625 1.125
-4.725 26.025 0.375
-4.725 26.025 0.825
-5.325 24.525 0.225
-6.525 24.675 1.725
-6.525 24.675 1.875
-6.675 24.825 1.575
-6.675 26.325 1.125
-6.675 24.825 1.125
-4.875 26.325 0.825
-5.025 26.475 0.975
-5.025 26.475 4.275
-5.775 26.775 0.525
-5.775 26.775 0.225
-5.775 24.375 1.575
-5.775 24.375 1.875
-6.825 24.975 1.725
-5.925 26.775 0.225
-5.925 24.375 2.775
-5.925 24.375 1.725
-5.625 26.775 0.675
-5.625 26.775 0.375
-4.575 25.425 1.875
-4.575 25.425 2.175
-6.375 24.525 0.825
-6.375 24.525 1.275
-6.375 24.525 1.875
-4.725 26.175 0.975
-4.725 26.175 0.375
-6.075 26.775 0.825
-6.075 26.775 0.675
-6.075 26.775 1.575
-6.075 24.375 0.975
-6.075 24.375 1.425
-5.475 26.775 0.675
-5.475 26.775 1.575
-5.475 26.775 2.025
-5.475 24.375 -2.925
-6.975 25.275 0.075
-4.575 25.875 0.375
-4.575 25.875 0.525
-4.575 25.275 0.225
-4.575 25.875 0.225
-6.675 24.675 2.025
-6.675 24.675 -0.525
-6.675 24.675 1.275
-4.875 24.675 -0.675
-4.875 26.475 1.125
-4.875 26.475 1.275
-6.225 24.375 1.275
-6.225 24.375 0.825
-6.225 24.375 1.725
-4.575 26.025 1.425
-4.575 26.025 0.675
-4.575 26.025 0.225
-6.825 24.825 0.225
-6.525 24.525 1.425
-5.025 24.525 2.775
-4.725 26.325 0.375
-4.725 26.325 0.975
-6.525 26.625 -2.325
-5.025 26.625 1.125
-4.725 26.325 0.825
-4.725 24.825 2.325
-6.525 24.525 1.275
-5.025 26.625 1.275
-6.375 24.375 0.825
-6.375 24.375 0.975
-6.375 24.375 1.575
-5.175 26.775 4.125
-4.575 26.175 1.125
-4.575 26.175 0.375
-4.575 26.175 1.575
-4.575 26.175 0.675
-5.775 24.225 0.525
-5.775 24.225 -3.675
-5.775 26.925 0.525
-5.775 26.925 1.725
-5.775 26.925 1.575
-5.925 24.225 1.725
-5.925 24.225 1.425
-7.125 25.425 0.675
-4.425 25.725 2.025
-5.925 26.925 0.075
-5.925 26.925 0.225
-5.925 26.925 3.375
-5.625 26.925 1.725
-5.625 26.925 0.075
-5.625 26.925 1.425
-6.075 24.225 0.825
-6.075 24.225 1.425
-6.075 24.225 1.275
-6.825 24.675 1.425
-6.675 24.525 -0.375
-6.675 24.525 1.275
-6.675 24.525 0.825
-6.675 24.525 1.875
-4.425 25.875 0.225
-4.875 26.625 1.275
-5.475 26.925 1.125
-5.475 26.925 1.725
-4.725 26.475 0.525
-4.725 26.475 0.675
-4.725 26.475 1.125
-4.725 26.475 1.575
-4.725 26.475 0.225
-5.025 24.375 3.075
-6.525 24.375 2.325
-6.525 24.375 1.875
-4.575 26.325 1.725
-4.575 26.325 0.225
-4.575 24.825 0.525
-4.575 26.325 0.825
-4.575 26.325 0.075
-6.225 24.225 0.525
-6.225 24.225 0.825
-6.225 24.225 1.875
-4.425 26.025 0.225
-4.425 26.025 0.075
-4.425 26.025 0.975
-6.375 24.225 1.125
-6.375 24.225 1.425
-6.375 24.225 1.275
-6.375 24.225 2.025
-5.175 24.225 2.775
-4.425 26.175 0.375
-4.425 26.175 0.225
-6.825 24.525 1.275
-4.725 26.625 0.225
-4.725 26.625 -0.075
-6.975 24.675 0.975
-6.675 24.375 1.425
-6.675 24.375 1.725
-5.775 24.075 -5.925
-4.275 25.575 0.375
-4.575 26.475 0.375
-4.575 26.475 2.025
-4.575 26.475 0.225
-4.575 26.475 0.525
-5.925 27.075 1.125
-5.925 24.075 0.375
-5.625 27.075 1.725
-5.925 27.075 -0.075
-5.625 24.075 0.225
-4.275 25.725 2.775
-6.075 24.075 1.725
-6.075 24.075 0.525
-6.075 24.075 0.675
-5.475 27.075 4.575
-5.475 27.075 -0.375
-5.475 27.075 1.125
-4.275 25.875 0.525
-7.275 25.275 0.825
-5.025 24.225 4.875
-5.025 24.225 -0.675
-4.425 24.825 2.025
-4.425 26.325 0.375
-4.425 24.825 0.375
-4.425 24.825 2.175
-4.425 26.325 0.225
-5.025 26.925 -1.875
-4.275 26.025 -2.325
-6.225 24.075 2.175
-4.275 25.125 -0.225
-6.225 24.075 1.725
-6.225 24.075 0.525
-6.225 24.075 0.825
-4.275 25.125 0.375
-5.325 24.075 1.575
-4.725 24.375 0.375
-4.725 26.775 1.875
-6.975 24.525 0.675
-4.575 26.625 0.375
-4.575 24.525 -0.525
-4.575 26.625 0.825
-4.575 26.625 0.225
-4.275 24.975 0.375
-6.375 24.075 1.575
-6.375 24.075 0.825
-6.375 27.075 1.425
-6.375 24.075 1.275
-5.175 27.075 0.975
-6.675 24.225 1.425
-6.675 24.225 1.725
-6.675 24.225 1.275
-4.875 24.225 0.525
-4.875 24.225 -0.375
-4.425 24.675 0.375
-4.875 26.925 2.775
-4.425 26.475 0.225
-4.425 26.475 0.075
-4.425 26.475 0.525
-4.125 25.575 0.375
-4.125 25.575 0.075
-4.125 25.575 -0.375
-5.925 23.925 1.725
-4.125 25.425 0.375
-4.125 25.425 -0.225
-4.125 25.425 -0.375
-4.125 25.425 -0.075
-4.125 25.725 2.175
-6.075 23.925 1.725
-5.475 23.925 0.675
-5.025 27.075 0.825
-5.025 24.075 0.525
-5.025 24.075 -0.675
-4.275 24.825 -0.975
-4.275 24.825 0.525
-4.275 24.825 0.375
-4.125 25.275 0.375
-4.125 25.275 -0.225
-4.125 25.275 -0.075
-4.125 25.875 -0.825
-4.125 25.875 0.375
-5.475 27.225 0.675
-4.575 26.775 0.375
-4.575 26.775 0.225
-4.575 24.375 0.375
-4.575 26.775 2.325
-4.575 24.375 2.175
-4.575 26.775 0.525
-6.825 24.225 1.725
-6.225 23.925 1.425
-6.225 23.925 0.525
-6.225 23.925 0.825
-4.125 25.125 1.125
-4.125 25.125 -1.125
-4.125 25.125 0.375
-4.125 25.125 0.525
-7.125 24.525 1.425
-7.125 24.525 1.575
-4.425 24.525 0.975
-4.425 24.525 0.375
-4.425 26.625 0.675
-4.425 26.625 0.375
-4.425 26.625 0.525
-4.425 26.625 1.875
-4.425 26.625 -0.075
-4.725 26.925 -0.225
-5.325 27.225 1.425
-4.275 24.675 1.725
-4.275 24.675 0.375
-4.275 24.675 0.525
-6.675 24.075 0.225
-6.675 24.075 0.975
-6.675 24.075 1.575
-6.675 24.075 1.725
-4.875 24.075 -0.675
-4.875 24.075 0.375
-4.875 24.075 1.425
-4.275 26.475 0.225
-4.275 26.475 0.675
-6.375 23.925 1.575
-7.425 24.975 1.725
-5.175 23.925 -0.525
-5.175 23.925 -2.325
-4.125 24.975 0.375
-4.125 24.975 0.525
-4.125 26.175 1.125
-5.175 27.225 1.125
-3.975 25.575 -0.375
-6.975 24.225 1.275
-4.575 24.225 0.525
-7.125 24.375 1.875
-7.125 24.375 1.575
-4.425 24.375 0.525
-4.425 24.375 1.275
-4.425 26.775 0.675
-4.425 26.775 0.375
-4.425 24.375 0.975
-4.425 26.775 0.975
-7.575 25.725 1.275
-3.975 25.425 0.375
-3.975 25.425 -0.375
-3.975 25.425 0.525
-3.975 25.725 -0.375
-5.925 23.775 0.825
-4.575 26.925 1.875
-4.575 26.925 1.125
-5.025 23.925 -0.525
-5.025 23.925 0.525
-6.525 23.925 1.575
-6.525 23.925 2.175
-4.125 24.825 -0.075
-4.125 24.825 0.825
-4.125 24.825 0.975
-4.125 24.825 0.225
-4.125 24.825 0.375
-5.025 27.225 0.825
-3.975 25.275 0.375
-3.975 25.275 2.175
-3.975 25.275 0.825
-3.975 25.875 0.375
-3.975 25.275 -0.075
-3.975 25.875 -5.325
-5.475 27.375 1.125
-5.475 23.775 2.625
-5.475 23.775 -1.125
-5.475 27.375 2.475
-6.825 24.075 1.425
-6.825 24.075 2.625
-4.725 24.075 0.525
-4.275 24.525 0.825
-4.275 24.525 0.375
-3.975 26.025 0.225
-3.975 25.125 0.825
-3.975 25.125 0.975
-3.975 25.125 0.075
-3.975 25.125 0.375
-6.225 23.775 1.575
-5.325 27.375 0.225
-5.325 27.375 -0.375
-5.325 27.375 -0.675
-5.325 23.775 2.475
-6.675 23.925 0.825
-6.675 23.925 1.725
-6.675 23.925 1.425
-7.425 24.675 1.725
-4.875 23.925 0.525
-4.125 24.675 0.375
-3.975 24.975 0.375
-6.375 23.775 0.675
-6.375 23.775 1.425
-7.125 24.225 -1.125
-4.425 24.225 0.525
-4.425 26.925 1.575
-7.275 24.375 1.425
-4.275 24.375 0.375
-6.975 24.075 1.875
-6.975 24.075 2.175
-6.975 24.075 1.425
-4.575 27.075 1.875
-4.575 24.075 0.525
-4.575 24.075 0.975
-4.575 24.075 0.225
-5.775 23.625 -1.125
-5.775 23.625 -0.825
-5.775 23.625 -0.225
-3.825 25.575 -0.375
-3.825 25.575 0.975
-3.825 25.575 -0.525
-3.825 25.575 0.375
-3.975 24.825 0.225
-5.025 23.775 -0.675
-5.025 23.775 0.525
-5.025 23.775 -0.375
-5.025 27.375 -1.725
-6.525 23.775 1.425
-6.525 23.775 2.175
-6.525 23.775 0.825
-6.825 23.925 0.675
-4.725 23.925 1.725
-4.725 23.925 -0.225
-4.725 23.925 1.275
-4.725 23.925 0.975
-5.625 23.625 -1.125
-5.625 27.525 -0.375
-5.625 23.625 -0.975
-5.625 23.625 -0.825
-3.825 25.425 0.825
-3.825 25.425 0.375
-3.825 25.725 0.375
-4.125 24.525 0.225
-5.475 23.625 0.375
-3.825 25.875 0.375
-3.825 25.875 -0.375
-3.825 25.275 0.375
-3.825 25.275 1.575
-3.825 25.275 2.025
-3.825 25.275 1.275
-3.825 25.875 1.275
-3.825 25.275 1.425
-3.825 25.275 0.075
-5.325 27.525 2.475
-5.325 27.525 -0.525
-5.325 27.525 0.525
-5.325 23.625 -0.675
-3.825 25.125 1.425
-3.825 25.125 0.375
-6.675 23.775 1.275
-6.675 23.775 1.725
-6.675 23.775 1.575
-4.875 23.775 -0.375
-4.875 27.375 0.225
-4.875 27.375 0.675
-4.875 23.775 1.125
-4.875 23.775 0.525
-7.275 24.225 2.025
-7.275 24.225 1.725
-4.275 24.225 0.225
-7.125 24.075 1.875
-7.125 24.075 2.025
-7.125 24.075 2.325
-4.425 24.075 0.225
-4.275 26.925 0.825
-4.275 26.925 0.225
-7.275 26.925 2.925
-6.975 23.925 1.575
-6.975 23.925 2.175
-6.975 23.925 3.075
-6.975 23.925 2.025
-4.575 23.925 0.225
-4.575 23.925 0.525
-7.425 24.375 2.025
-5.175 27.525 0.225
-4.575 27.225 0.825
-4.575 27.225 1.575
-7.575 24.525 2.625
-6.825 23.775 2.175
-6.825 23.775 2.475
-6.825 23.775 2.325
-6.825 23.775 1.425
-6.825 23.775 2.025
-4.725 23.775 0.525
-4.725 23.775 0.975
-4.725 23.775 1.575
-4.725 27.375 1.425
-5.025 27.525 0.825
-6.525 23.625 1.275
-5.025 23.625 0.525
-6.525 23.625 0.525
-6.525 23.625 2.325
-6.525 23.625 0.225
-5.775 23.475 -0.075
-5.775 23.475 -0.675
-5.775 27.675 -0.525
-3.675 25.425 0.075
-3.675 25.425 1.425
-3.675 25.425 1.575
-3.675 25.725 0.975
-3.675 25.725 0.525
-5.475 23.475 0.525
-5.475 23.475 1.575
-7.275 24.075 2.175
-4.275 27.075 1.425
-7.275 24.075 1.125
-4.275 27.075 0.975
-4.275 27.075 -0.075
-7.275 24.075 1.725
-4.275 27.075 1.275
-3.675 25.275 1.425
-3.675 25.875 0.375
-6.075 27.675 2.475
-5.475 27.675 0.075
-7.125 23.925 2.025
-7.125 23.925 1.875
-7.425 26.925 3.075
-4.125 26.925 0.525
-6.225 23.475 3.075
-6.225 23.475 0.225
-5.325 23.475 -0.375
-5.325 23.475 -0.225
-6.675 23.625 -0.075
-6.675 23.625 0.975
-6.675 23.625 2.025
-6.675 23.625 1.425
-6.675 23.625 0.375
-6.675 23.625 2.325
-6.675 23.625 1.875
-6.675 23.625 1.725
-4.875 23.625 1.125
-4.875 23.625 0.525
-4.875 23.625 0.975
-4.875 23.625 1.575
-4.875 27.525 1.425
-3.675 25.125 1.725
-3.675 25.125 2.025
-3.675 26.025 0.375
-7.575 24.375 1.725
-3.975 24.375 1.425
-3.975 24.375 1.275
-6.975 23.775 -0.075
-6.975 23.775 0.375
-6.975 23.775 1.875
-4.575 27.375 1.125
-4.575 27.375 2.325
-4.575 23.775 1.575
-5.175 23.475 0.525
-5.175 23.475 -0.225
-3.675 24.975 1.725
-3.675 26.175 0.375
-5.175 27.675 0.375
-6.825 27.525 1.125
-6.825 23.625 2.175
-4.725 23.625 1.275
-4.725 23.625 0.225
-4.725 27.525 0.075
-4.725 27.525 1.275
-4.725 27.525 -0.075
-3.825 24.525 0.825
-5.025 23.475 1.125
-5.025 23.475 0.525
-7.275 23.925 2.025
-7.275 23.925 0.825
-4.275 23.925 1.425
-7.275 23.925 2.175
-7.425 24.075 1.125
-7.425 24.075 0.975
-4.125 27.075 0.525
-4.125 27.075 0.825
-6.525 27.675 0.225
-5.025 27.675 1.575
-4.275 27.225 0.675
-4.275 27.225 0.525
-4.275 27.225 1.425
-4.275 27.225 0.975
-4.275 27.225 0.375
-7.575 24.225 2.325
-7.575 24.225 2.025
-3.975 24.225 1.275
-5.775 23.325 1.725
-5.775 23.325 -0.675
-7.125 23.775 2.025
-4.425 27.375 0.825
-4.425 27.375 1.725
-4.425 27.375 1.125
-4.425 23.775 1.725
-7.575 26.925 3.225
-3.975 26.925 -2.325
-3.975 26.925 0.675
-3.975 26.925 -1.575
-5.625 23.325 2.475
-5.925 23.325 2.175
-3.525 25.425 1.725
-3.525 25.425 1.425
-3.525 25.425 -0.975
-3.525 25.725 0.375
-3.525 25.725 0.075
-3.525 25.725 -0.375
-6.075 23.325 2.025
-3.525 25.275 1.425
-3.525 25.875 -0.375
-3.525 25.875 0.975
-3.525 25.275 1.875
-3.525 25.875 -0.225
-3.525 25.875 0.525
-3.525 25.275 1.275
-3.525 25.875 0.825
-3.525 25.275 1.725
-6.675 23.475 3.225
-6.675 23.475 0.675
-6.675 23.475 2.925
-4.875 23.475 1.875
-4.875 23.475 0.525
-4.875 23.475 0.225
-4.875 23.475 0.975
-3.675 24.675 0.975
-3.675 26.475 -1.275
-4.875 27.675 0.825
-4.875 27.675 1.575
-4.875 27.675 1.275
-6.975 23.625 2.775
-4.575 27.525 -0.225
-4.575 27.525 0.825
-4.575 23.625 2.025
-4.575 27.525 1.125
-4.575 23.625 1.425
-4.575 23.625 1.725
-6.225 27.825 2.175
-6.225 23.325 2.325
-5.325 23.325 -0.225
-5.325 23.325 0.525
-3.525 25.125 1.725
-3.525 25.125 0.975
-3.525 25.125 0.825
-3.525 25.125 2.025
-3.525 25.125 1.425
-3.525 26.025 1.575
-3.525 25.125 1.275
-3.525 26.025 5.475
-3.525 24.975 0.675
-3.525 24.975 1.725
-3.525 24.975 2.025
-3.525 24.975 1.275
-3.525 24.975 0.975
-5.175 23.325 1.875
-5.175 23.325 1.125
-5.175 23.325 0.525
-5.175 23.325 -2.175
-3.525 26.175 0.375
-7.425 23.925 1.575
-7.425 23.925 3.375
-7.425 23.925 1.725
-7.425 23.925 0.975
-7.425 23.925 2.175
-7.425 23.925 2.025
-7.425 23.925 0.825
-4.125 23.925 0.975
-4.125 23.925 1.575
-4.125 23.925 1.425
-4.125 23.925 1.125
-4.125 27.225 1.275
-4.125 27.225 0.975
-4.125 27.225 0.825
-4.125 27.225 0.525
-7.575 24.075 2.325
-7.575 24.075 1.425
-3.975 24.075 1.425
-3.975 27.075 0.525
-3.975 27.075 0.375
-4.275 23.775 0.825
-4.275 23.775 1.575
-4.275 23.775 1.275
-4.275 23.775 1.125
-4.275 23.775 1.725
-7.275 23.775 2.475
-7.275 23.775 2.625
-7.275 23.775 0.975
-7.275 23.775 1.575
-4.275 27.375 0.825
-4.275 27.375 0.375
-4.275 27.375 0.525
-6.825 23.475 2.775
-6.825 23.475 2.025
-7.875 26.625 3.525
-3.675 24.525 0.975
-3.675 24.525 1.125
-3.675 26.625 -0.975
-4.725 27.675 -0.075
-7.725 24.225 3.075
-3.825 24.225 0.225
-3.825 24.225 0.975
-3.825 24.225 1.125
-3.825 24.225 1.275
-7.125 23.625 3.675
-4.425 27.525 1.725
-4.425 27.525 0.825
-4.425 23.625 2.025
-4.425 23.625 0.825
-4.425 23.625 1.275
-5.025 23.325 0.525
-5.025 23.325 0.975
-6.525 27.825 4.725
-6.525 23.325 2.175
-3.525 26.325 0.375
-3.525 24.825 0.825
-3.525 24.825 0.975
-3.525 24.825 1.125
-3.525 24.825 1.275
-3.525 26.325 -0.525
-3.825 26.925 0.525
-5.775 23.175 -0.975
-5.625 23.175 0.525
-3.375 25.425 1.425
-3.375 25.425 0.825
-6.975 23.475 -0.375
-4.575 23.475 1.125
-4.575 23.475 1.275
-5.475 23.175 1.275
-3.675 24.375 1.275
-3.675 26.775 1.425
-3.375 25.875 -0.525
-3.375 25.875 0.375
-3.375 25.275 1.725
-3.375 25.275 1.275
-5.475 27.975 1.125
-5.475 27.975 1.425
-3.525 24.675 1.275
-6.675 23.325 2.175
-6.675 23.325 -1.125
-6.675 23.325 2.475
-4.875 27.825 0.975
-4.875 23.325 0.525
-4.875 23.325 1.575
-4.875 27.825 0.825
-3.525 26.475 0.375
-5.325 23.175 0.525
-7.575 23.925 1.875
-7.575 23.925 2.325
-7.575 23.925 2.025
-7.575 23.925 1.125
-7.575 23.925 0.975
-3.975 23.925 1.275
-3.975 23.925 1.575
-3.975 23.925 0.075
-7.425 23.775 1.125
-3.375 25.125 1.125
-3.375 25.125 1.725
-3.375 25.125 1.875
-3.375 26.025 0.225
-3.375 26.025 0.975
-3.375 26.025 0.375
-3.375 26.025 0.825
-4.125 27.375 1.125
-4.125 23.775 1.725
-4.125 23.775 1.575
-4.125 23.775 1.125
-4.125 27.375 1.425
-4.125 27.375 1.275
-4.125 27.375 0.825
-4.125 27.375 0.525
-4.125 27.375 0.975
-3.975 27.225 0.975
-3.975 27.225 0.375
-3.975 27.225 -3.675
-3.975 27.225 0.525
-3.975 27.225 0.675
-7.725 24.075 1.875
-7.725 24.075 2.175
-7.275 23.625 2.475
-7.275 23.625 2.175
-4.275 23.625 0.375
-4.275 23.625 0.975
-4.275 27.525 0.675
-4.275 23.625 1.275
-4.275 27.525 2.925
-4.275 27.525 1.575
-4.275 27.525 0.375
-4.275 27.525 0.975
-3.825 27.075 0.675
-3.825 27.075 0.225
-3.825 27.075 0.375
-6.375 23.175 2.925
-5.175 23.175 0.525
-5.175 23.175 0.975
-3.375 24.975 2.475
-3.375 24.975 1.125
-3.375 24.975 2.175
-3.375 24.975 0.825
-3.375 24.975 1.725
-3.375 24.975 1.275
-3.375 26.175 0.375
-3.375 26.175 -0.225
-3.375 26.175 -0.375
-3.375 26.175 0.525
-5.175 27.975 0.825
-8.025 24.525 1.575
-4.725 27.825 0.225
-3.525 26.625 1.875
-7.125 23.475 2.625
-7.875 24.225 3.375
-4.425 23.475 1.425
-4.425 23.475 1.125
-4.425 23.475 0.375
-3.675 24.225 1.125
-4.425 27.675 -4.275
-4.425 27.675 1.125
-5.025 23.175 0.525
-5.025 23.175 1.575
-5.025 23.175 1.875
-5.025 23.175 0.225
-6.525 23.175 2.475
-6.525 23.175 2.325
-3.375 24.825 1.875
-3.375 26.325 0.825
-3.375 26.325 0.975
-3.375 26.325 0.375
-3.375 26.325 -0.225
-3.375 26.325 -0.375
-5.025 27.975 0.375
-7.575 23.775 0.075
-3.975 27.375 0.825
-3.975 27.375 0.225
-3.975 27.375 0.375
-3.975 23.775 1.425
-3.525 24.375 3.075
-4.575 23.325 1.425
-3.525 24.375 1.575
-4.575 27.825 0.975
-3.225 25.575 1.425
-7.725 23.925 0.975
-7.725 23.925 2.325
-3.825 23.925 -0.375
-4.125 27.525 1.275
-4.125 27.525 0.975
-3.225 25.425 0.975
-3.225 25.425 1.125
-3.225 25.725 1.725
-5.925 23.025 2.625
-5.925 23.025 -0.825
-5.625 23.025 0.525
-5.925 28.125 0.075
-5.625 28.125 1.575
-3.825 27.225 0.225
-3.825 27.225 0.525
-4.875 23.175 1.725
-3.375 24.675 1.425
-8.175 24.675 2.025
-3.375 26.475 -0.225
-3.375 26.475 0.375
-8.175 26.475 2.025
-4.875 27.975 0.825
-4.875 27.975 1.575
-3.225 25.275 1.575
-7.275 23.475 -0.225
-4.275 23.475 1.425
-4.275 23.475 1.125
-7.875 24.075 2.625
-7.875 24.075 2.175
-3.675 24.075 1.725
-3.675 24.075 0.975
-3.675 24.075 1.425
-3.675 27.075 0.375
-4.275 27.675 0.975
-4.275 27.675 -4.575
-4.275 27.675 1.275
-4.275 27.675 1.725
-3.225 25.125 1.425
-3.225 25.125 1.875
-3.225 26.025 -0.225
-3.225 26.025 0.375
-3.225 26.025 1.575
-6.225 23.025 2.025
-5.325 23.025 0.975
-5.325 23.025 1.125
-5.325 23.025 0.525
-6.825 23.175 2.475
-4.725 23.175 1.275
-3.225 24.975 0.975
-3.375 26.625 0.375
-6.375 28.125 0.825
-3.375 24.525 0.825
-3.375 24.525 1.275
-3.375 24.525 1.425
-3.225 26.175 0.225
-3.225 26.175 1.725
-3.225 26.175 0.375
-5.175 28.125 1.875
-5.175 23.025 2.025
-5.175 23.025 2.475
-5.175 23.025 0.225
-5.175 23.025 0.525
-4.725 27.975 0.975
-4.725 27.975 -4.125
-3.525 24.225 1.125
-4.425 27.825 -2.025
-8.025 26.925 3.225
-7.575 23.625 -0.075
-7.575 23.625 1.125
-7.575 23.625 0.675
-7.575 23.625 2.475
-3.975 27.525 0.375
-3.975 27.525 0.525
-3.975 27.525 3.225
-3.975 23.625 0.675
-3.975 23.625 1.275
-7.725 23.775 0.975
-7.725 23.775 2.325
-7.725 23.775 1.125
-7.725 23.775 2.175
-7.725 23.775 1.275
-7.725 23.775 1.425
-3.825 27.375 0.375
-3.825 27.375 3.675
-3.825 27.375 0.825
-3.825 23.775 1.275
-3.825 23.775 1.425
-3.825 23.775 1.125
-3.225 24.825 1.425
-3.225 26.325 2.025
-3.225 26.325 0.825
-3.225 26.325 0.375
-3.225 26.325 0.075
-5.025 28.125 0.675
-7.425 23.475 2.175
-7.875 23.925 0.225
-3.675 23.925 1.275
-3.675 23.925 2.025
-4.125 27.675 0.825
-4.125 27.675 1.425
-4.125 27.675 2.325
-3.675 27.225 2.325
-4.575 23.175 2.775
-4.575 23.175 1.725
-3.375 24.375 1.275
-5.775 22.875 2.775
-3.075 25.575 1.125
-5.925 22.875 0.525
-5.625 22.875 0.525
-5.925 28.275 0.225
-3.225 24.675 3.225
-3.225 24.675 0.375
-4.275 27.825 1.125
-4.275 27.825 2.475
-4.275 23.325 1.125
-7.275 23.325 -0.225
-3.075 25.425 1.725
-3.075 25.425 1.575
-3.075 25.425 1.275
-3.075 25.725 -0.675
-3.525 24.075 1.575
-3.525 24.075 1.125
-3.525 24.075 0.975
-3.525 24.075 1.275
-3.525 27.075 2.175
-6.675 23.025 2.475
-4.875 23.025 1.725
-4.875 23.025 1.425
-3.225 26.475 -0.225
-5.475 22.875 0.675
-8.475 25.275 1.125
-6.225 28.275 0.975
-5.325 22.875 0.525
-5.325 22.875 2.025
-3.075 26.025 -1.575
-3.075 26.025 1.425
-4.425 23.175 1.425
-3.375 24.225 1.125
-3.375 24.225 0.825
-3.375 24.225 0.975
-3.375 24.225 1.425
-3.375 24.225 1.275
-3.375 24.225 6.225
-8.175 24.225 2.175
-3.375 26.925 2.175
-3.375 26.925 1.875
-4.425 27.975 0.975
-7.725 23.625 1.125
-7.725 23.625 3.525
-3.825 27.525 1.875
-3.825 27.525 0.525
-3.825 27.525 0.375
-3.825 23.625 0.975
-3.825 23.625 1.425
-3.825 23.625 1.275
-3.225 26.625 0.525
-3.225 24.525 1.125
-3.225 24.525 0.525
-4.725 23.025 1.125
-4.725 23.025 5.175
-7.575 23.475 0.375
-7.575 23.475 2.775
-7.575 23.475 2.325
-3.975 23.475 0.825
-3.975 23.475 0.975
-8.475 24.975 2.325
-6.375 22.875 3.225
-5.175 22.875 2.025
-5.175 28.275 -0.675
-3.075 24.975 2.625
-3.075 24.975 2.325
-3.075 24.975 1.575
-3.075 26.175 1.125
-3.675 23.775 1.425
-3.675 23.775 1.125
-3.675 23.775 1.275
-3.975 27.675 0.375
-3.975 27.675 0.675
-3.975 27.675 -0.075
-3.975 27.675 0.525
-3.975 27.675 0.225
-3.975 27.675 1.725
-8.025 23.925 -0.375
-3.525 23.925 0.975
-3.525 23.925 1.275
-3.525 23.925 0.825
-4.125 27.825 1.725
-4.125 27.825 0.675
-4.125 27.825 0.375
-4.125 23.325 0.975
-4.125 23.325 1.125
-3.525 27.225 -2.025
-6.525 28.275 3.825
-5.025 22.875 2.175
-5.025 22.875 1.875
-6.525 22.875 2.475
-3.075 26.325 1.275
-3.075 24.825 1.275
-3.075 24.825 1.425
-8.325 24.375 2.175
-3.225 24.375 0.525
-3.225 26.775 2.475
-3.225 26.775 1.875
-3.225 26.775 -0.375
-3.225 26.775 -0.075
-4.575 28.125 2.475
-4.575 28.125 0.525
-4.575 23.025 1.125
-4.575 23.025 1.425
-4.575 23.025 1.275
-4.275 23.175 1.125
-3.375 27.075 -2.775
-3.375 24.075 1.275
-3.375 24.075 0.825
-3.375 24.075 0.975
-8.175 24.075 2.325
-3.075 24.675 1.125
-3.075 24.675 1.425
-4.875 28.275 0.525
-3.075 26.475 1.425
-3.075 26.475 -0.075
-3.075 26.475 0.525
-3.075 26.475 1.275
-5.775 22.725 2.475
-2.925 25.575 1.275
-5.775 28.425 0.525
-5.925 22.725 0.675
-5.625 22.725 0.525
-8.625 25.425 0.075
-2.925 25.425 1.425
-2.925 25.425 1.875
-2.925 25.725 1.125
-5.475 22.725 0.525
-5.475 22.725 0.975
-5.475 22.725 2.175
-5.475 22.725 1.125
-6.075 22.725 2.775
-3.825 23.475 0.825
-3.825 23.475 1.125
-3.825 23.475 0.525
-3.825 23.475 0.975
-3.825 23.475 1.275
-7.875 23.625 0.975
-7.875 23.625 1.575
-7.875 23.625 2.325
-3.675 23.625 1.125
-2.925 25.875 0.975
-2.925 25.875 1.125
-2.925 25.275 1.425
-2.925 25.875 0.825
-3.825 27.675 0.375
-3.825 27.675 0.525
-3.825 27.675 0.825
-7.575 23.325 2.775
-3.975 27.825 1.725
-3.975 27.825 0.375
-3.975 23.325 0.975
-3.975 23.325 1.125
-3.975 23.325 0.825
-3.975 23.325 1.425
-3.975 23.325 0.675
-8.025 23.775 -0.375
-3.525 23.775 1.275
-3.525 23.775 0.075
-5.325 22.725 0.225
-3.225 24.225 0.525
-3.225 24.225 0.675
-3.225 24.225 1.275
-3.225 24.225 0.825
-3.225 24.225 0.975
-2.925 26.025 -0.675
-2.925 26.025 0.825
-4.425 28.125 1.575
-4.425 28.125 0.975
-4.425 28.125 0.825
-4.425 28.125 0.225
-3.225 26.925 2.175
-8.475 24.525 2.775
-4.725 22.875 1.425
-4.725 22.875 1.275
-4.725 22.875 1.125
-3.075 26.625 0.525
-3.075 26.625 -0.225
-3.075 26.625 -0.075
-3.075 24.525 0.825
-3.075 24.525 0.675
-3.075 24.525 1.425
-6.375 22.725 1.425
-5.175 22.725 2.025
-7.425 23.175 2.625
-4.125 23.175 1.125
-8.625 24.975 1.575
-3.375 23.925 0.825
-3.375 23.925 0.975
-2.925 24.975 0.825
-2.925 24.975 0.375
-2.925 26.175 1.125
-2.925 26.175 1.275
-6.375 28.425 1.125
-7.425 27.975 -0.675
-3.375 27.225 -2.775
-8.175 27.225 2.925
-4.125 27.975 2.175
-5.025 22.725 1.575
-5.025 22.725 1.875
-8.625 24.825 1.575
-8.625 24.825 3.075
-8.625 24.825 2.175
-2.925 26.325 -0.525
-2.925 24.825 1.875
-8.475 24.375 1.875
-4.575 22.875 1.425
-4.575 22.875 1.125
-4.575 28.275 0.675
-3.075 26.775 0.525
-3.075 26.775 0.825
-3.075 26.775 -0.375
-3.075 26.775 -0.225
-3.075 26.775 -0.525
-3.075 24.375 0.975
-3.075 24.375 1.275
-3.075 24.375 0.675
-3.075 24.375 1.125
-8.325 24.075 -1.275
-3.225 24.075 1.125
-3.225 24.075 0.525
-3.225 24.075 0.975
-3.225 24.075 0.825
-4.275 28.125 0.375
-4.275 23.025 0.975
-4.275 23.025 1.125
-7.275 23.025 0.675
-7.875 23.475 2.325
-7.875 23.475 2.175
-3.675 23.475 0.975
-3.675 27.675 -1.275
-8.025 23.625 2.775
-8.025 23.625 1.725
-3.825 27.825 0.825
-3.825 27.825 1.425
-3.825 27.825 0.375
-3.825 27.825 0.675
-3.825 27.825 0.525
-3.825 23.325 0.975
-3.825 23.325 0.675
-6.675 22.725 2.925
-8.625 24.675 2.325
-2.925 24.675 1.125
-2.925 24.675 0.675
-2.925 24.675 0.975
-2.925 26.475 1.275
-3.975 23.175 0.525
-3.975 23.175 0.675
-3.975 23.175 0.975
-3.975 23.175 0.825
-8.775 25.575 2.475
-5.775 22.575 1.575
-5.775 22.575 0.525
-2.775 25.575 1.275
-2.775 25.575 1.125
-2.775 25.575 1.425
-2.775 25.575 2.625
-3.375 23.775 1.125
-8.175 23.775 2.025
-3.975 27.975 0.375
-3.975 27.975 0.525
-3.975 27.975 0.675
-3.975 27.975 1.425
-3.975 27.975 1.275
-5.925 22.575 0.675
-5.625 22.575 -0.225
-2.775 25.425 1.425
-2.775 25.425 1.575
-2.775 25.425 1.275
-5.475 22.575 0.525
-5.475 22.575 2.175
-6.075 22.575 0.825
-2.775 25.275 1.275
-2.775 25.275 0.975
-2.775 25.875 1.125
-3.075 24.225 0.975
-4.425 28.275 1.275
-4.425 28.275 0.225
-4.425 22.875 1.125
-4.425 22.875 1.275
-3.075 26.925 1.725
-3.075 26.925 0.525
-3.075 26.925 0.375
-8.775 25.125 3.375
-5.325 22.575 2.025
-5.325 22.575 1.425
-5.325 22.575 1.575
-2.775 25.125 0.975
-2.775 25.125 1.425
-2.775 25.125 1.125
-2.775 25.125 1.275
-2.775 26.025 0.975
-2.775 26.025 0.825
-2.775 26.025 -0.525
-4.725 22.725 1.275
-4.725 22.725 1.575
-4.725 22.725 1.125
-8.325 23.925 2.475
-3.225 23.925 0.825
-8.625 24.525 3.225
-2.925 24.525 0.825
-2.925 24.525 0.525
-2.925 24.525 0.675
-2.925 26.625 -0.225
-2.925 26.625 0.225
-2.925 26.625 0.525
-4.125 28.125 1.875
-4.125 28.125 2.625
-4.125 28.125 1.275
-4.125 23.025 0.825
-4.125 23.025 0.525
-4.125 23.025 0.975
-4.725 28.425 0.525
-4.725 28.425 1.125
-3.225 27.225 2.025
-5.175 22.575 1.575
-5.175 22.575 1.425
-2.775 26.175 0.375
-2.775 26.175 1.275
-8.025 23.475 2.625
-3.525 23.475 1.125
-3.675 23.325 -2.325
-3.675 23.325 0.825
-3.675 27.825 1.275
-3.675 27.825 -2.925
-3.675 27.825 -2.475
-3.525 27.675 1.125
-4.275 28.275 1.425
-4.275 28.275 0.525
-4.275 22.875 1.875
-3.075 27.075 2.025
-3.075 27.075 3.225
-3.075 27.075 1.875
-3.075 27.075 0.525
-3.075 27.075 0.375
-3.075 24.075 0.825
-4.575 22.725 1.275
-4.575 22.725 1.425
-4.575 22.725 1.575
-7.725 23.175 2.175
-3.825 23.175 1.125
-3.825 23.175 0.825
-3.825 23.175 0.675
-3.375 23.625 0.075
-2.925 26.775 0.825
-2.925 26.775 0.525
-2.925 26.775 -2.325
-2.925 26.775 0.225
-2.925 24.375 0.975
-2.925 24.375 0.675
-2.925 26.775 0.075
-5.025 28.575 0.375
-5.025 28.575 -0.225
-2.775 24.825 0.825
-2.775 24.825 0.675
-2.775 24.825 1.125
-4.575 28.425 0.675
-3.825 27.975 1.425
-3.825 27.975 0.675
-3.825 27.975 0.525
-8.325 23.775 1.725
-3.225 23.775 0.825
-3.975 28.125 2.025
-3.975 28.125 1.425
-3.975 23.025 0.975
-3.975 23.025 0.825
-3.975 23.025 -0.375
-3.975 23.025 1.125
-8.775 24.675 3.075
-4.875 28.575 0.075
-2.775 24.675 0.825
-2.775 24.675 0.525
-4.875 22.575 1.875
-4.875 22.575 1.725
-4.875 22.575 1.275
-4.875 22.575 1.425
-2.775 26.475 0.375
-5.775 22.425 0.525
-5.775 22.425 2.325
-5.775 22.425 -0.225
-2.625 25.575 0.975
-2.625 25.575 1.125
-4.425 22.725 1.275
-4.425 22.725 0.975
-5.925 22.425 0.525
-5.925 22.425 1.275
-5.625 22.425 0.225
-5.625 22.425 1.125
-2.625 25.425 1.125
-2.625 25.425 0.975
-2.625 25.725 0.675
-2.625 25.725 1.125
-2.625 25.725 1.275
-2.925 26.925 1.725
-2.925 26.925 -0.225
-2.925 26.925 0.975
-2.925 26.925 1.875
-2.925 26.925 0.525
-5.475 22.425 1.575
-5.475 22.425 2.175
-5.475 22.425 2.925
-6.075 22.425 2.925
-6.075 22.425 2.625
-3.075 23.925 0.825
-4.125 28.275 0.525
-4.125 28.275 0.675
-4.125 28.275 0.825
-4.125 28.275 1.125
-4.125 22.875 1.725
-4.125 22.875 0.975
-4.125 22.875 0.825
-2.625 25.875 1.425
-2.625 25.875 0.825
-2.625 25.875 0.675
-2.625 25.875 1.275
-2.625 25.275 0.975
-8.925 25.275 2.775
-3.075 27.225 0.375
-3.075 27.225 0.525
-6.075 28.725 1.725
-6.825 22.575 -0.975
-6.825 22.575 2.925
-4.725 22.575 1.575
-4.725 22.575 1.275
-4.725 22.575 1.425
-4.725 28.575 0.675
-4.725 28.575 1.725
-8.775 24.525 1.875
-2.775 24.525 0.975
-5.325 22.425 1.875
-5.325 22.425 1.425
-5.325 22.425 2.325
-5.325 22.425 1.275
-8.025 23.325 3.075
-8.025 23.325 1.875
-2.625 26.025 1.275
-2.625 25.125 0.975
-2.625 25.125 0.825
-2.625 25.125 1.125
-3.525 27.825 1.125
-3.525 27.825 0.825
-3.675 23.175 0.825
-3.675 27.975 0.675
-3.675 27.975 0.975
-3.675 27.975 1.425
-5.175 22.425 2.025
-5.175 22.425 1.275
-5.175 22.425 1.425
-2.625 24.975 0.675
-8.925 24.975 2.025
-2.625 26.175 0.975
-2.625 26.175 -0.675
-2.625 26.175 0.225
-2.625 26.175 1.125
-8.325 23.625 3.675
-8.325 23.625 2.025
-8.325 23.625 1.725
-3.225 23.625 0.675
-3.825 28.125 1.425
-3.825 28.125 -0.075
-3.825 28.125 2.325
-3.825 28.125 2.775
-3.825 28.125 1.575
-3.825 23.025 4.275
-3.825 23.025 0.675
-3.825 23.025 0.825
-4.275 22.725 0.975
-2.925 27.075 2.025
-2.925 27.075 0.375
-2.925 27.075 1.875
-2.925 27.075 1.725
-2.925 27.075 1.425
-4.275 28.425 1.575
-4.275 28.425 1.125
-4.275 28.425 0.375
-8.775 24.375 2.775
-8.775 24.375 2.025
-4.575 22.575 1.125
-4.575 22.575 0.525
-4.575 22.575 1.275
-4.575 22.575 0.975
-4.575 28.575 0.675
-2.775 26.775 1.875
-5.025 22.425 1.725
-5.025 22.425 2.025
-3.975 28.275 2.175
-3.975 28.275 1.275
-3.975 22.875 0.525
-3.975 22.875 0.825
-3.075 23.775 1.425
-3.075 23.775 0.825
-3.075 23.775 1.725
-4.875 22.425 1.425
-4.875 22.425 1.125
-4.875 22.425 1.275
-2.625 24.675 0.525
-8.925 24.675 2.475
-2.625 26.475 -0.075
-2.625 26.475 -0.225
-2.625 26.475 0.375
-8.025 23.175 4.725
-8.025 23.175 1.575
-8.025 23.175 1.725
-8.025 23.175 2.025
-3.375 27.825 0.825
-4.425 22.575 0.975
-4.425 22.575 1.425
-4.425 28.575 0.975
-8.175 23.325 3.675
-8.175 23.325 1.575
-2.775 26.925 0.225
-2.775 26.925 0.375
-2.775 26.925 1.725
-2.775 26.925 1.425
-3.525 27.975 0.825
-3.525 27.975 0.975
-3.525 27.975 -2.025
-3.525 27.975 0.675
-4.125 22.725 0.675
-4.125 22.725 1.125
-2.925 23.925 1.425
-4.125 28.425 1.725
-4.125 28.425 0.975
-4.125 28.425 0.375
-2.475 25.575 0.975
-2.475 25.575 0.375
-2.475 25.575 1.275
-5.775 22.275 1.725
-5.775 22.275 3.075
-5.775 22.275 1.125
-5.775 22.275 0.975
-5.775 22.275 0.525
-5.775 22.275 -0.375
-8.325 23.475 3.825
-2.475 25.425 1.125
-2.475 25.725 0.675
-2.475 25.725 0.825
-2.475 25.725 1.125
-2.475 25.725 0.975
-5.925 22.275 0.525
-3.675 28.125 1.425
-3.675 28.125 1.275
-3.675 28.125 3.075
-3.675 28.125 0.375
-5.625 22.275 0.375
-5.625 22.275 2.025
-5.625 22.275 5.475
-2.475 25.875 1.575
-2.475 25.875 1.125
-2.475 25.875 1.275
-2.475 25.275 1.275
-5.475 22.275 1.275
-5.475 22.275 1.425
-5.475 22.275 2.325
-5.475 22.275 2.025
-5.475 22.275 1.875
-6.075 22.275 2.775
-6.075 22.275 0.525
-4.725 22.425 1.425
-4.725 22.425 1.125
-4.725 22.425 1.575
-8.925 24.525 1.425
-8.475 23.625 2.775
-3.825 28.275 2.625
-3.825 28.275 1.425
-3.825 28.275 1.275
-3.825 28.275 0.375
-2.475 26.025 2.475
-2.475 26.025 1.575
-2.475 26.025 1.125
-2.475 26.025 3.975
-2.475 25.125 1.275
-2.475 25.125 0.975
-5.325 22.275 1.425
-5.325 22.275 2.025
-5.325 22.275 -0.225
-5.325 22.275 1.275
-4.275 28.575 0.525
-4.275 28.575 1.275
-2.475 24.975 1.125
-4.275 22.575 0.975
-4.275 22.575 1.125
-4.275 22.575 0.825
-4.275 22.575 0.225
-2.775 27.075 1.725
-2.775 27.075 0.525
-2.775 27.075 0.825
-2.775 27.075 0.975
-2.475 26.175 1.125
-2.775 24.075 2.175
-2.775 24.075 1.275
-5.175 22.275 1.575
-5.175 22.275 2.025
-5.175 22.275 -0.525
-5.175 22.275 1.125
-5.175 22.275 0.975
-5.175 22.275 1.275
-5.175 22.275 1.425
-5.175 28.875 4.425
-4.575 22.425 0.975
-4.575 22.425 1.125
-4.575 22.425 1.425
-4.575 22.425 1.275
-4.575 22.425 1.575
-4.575 22.425 1.725
-3.975 22.725 0.975
-2.625 26.775 1.875
-2.925 27.375 0.375
-3.975 28.425 0.975
-3.975 28.425 1.275
-3.975 28.425 1.875
-4.575 28.725 0.975
-5.025 22.275 2.325
-5.025 22.275 1.425
-8.175 23.175 0.675
-8.175 23.175 1.875
-8.175 23.175 0.525
-3.375 27.975 1.125
-3.375 27.975 0.525
-3.375 27.975 0.075
-3.375 27.975 0.825
-3.375 27.975 0.975
-3.225 27.825 0.825
-3.225 23.325 1.125
-3.525 28.125 0.975
-3.525 28.125 1.425
-3.525 28.125 0.675
-3.525 28.125 1.125
-8.025 23.025 1.725
-3.525 23.025 3.375
-9.075 24.675 2.475
-3.075 23.475 2.175
-3.675 28.275 1.125
-3.675 28.275 -1.725
-3.675 28.275 0.075
-3.675 28.275 1.875
-3.675 28.275 0.375
-3.675 28.275 2.025
-3.675 28.275 0.225
-4.875 22.275 1.425
-8.775 23.925 3.075
-4.125 28.575 0.825
-4.125 28.575 0.675
-4.125 28.575 1.575
-4.125 22.575 0.675
-4.125 22.575 0.975
-2.775 27.225 1.875
-2.775 27.225 -0.075
-2.775 27.225 0.375
-4.425 22.425 0.975
-4.425 22.425 1.125
-8.925 24.225 4.875
-4.425 28.725 0.825
-4.425 28.725 2.025
-4.425 28.725 1.425
-5.775 22.125 0.525
-5.775 22.125 0.225
-5.925 22.125 0.525
-5.925 22.125 0.375
-5.925 22.125 0.675
-5.925 22.125 2.625
-5.925 22.125 -4.275
-5.625 22.125 2.925
-5.625 22.125 2.025
-5.625 22.125 1.575
-5.625 22.125 1.725
-2.925 27.525 0.375
-2.325 25.425 1.275
-2.325 25.425 0.675
-2.325 25.725 1.275
-2.325 25.725 0.825
-2.325 25.725 1.125
-2.325 25.725 0.675
-2.325 25.725 1.425
-3.825 28.425 2.175
-3.825 28.425 0.825
-3.825 28.425 1.425
-5.475 22.125 2.325
-5.475 22.125 1.275
-5.475 22.125 1.425
-6.075 22.125 -1.875
-6.075 22.125 0.525
-6.075 22.125 -0.375
-5.475 22.125 1.875
-9.075 24.525 1.575
-2.325 25.875 0.525
-2.325 25.875 3.525
-2.325 25.875 0.975
-2.325 25.875 1.275
-2.325 25.875 0.825
-2.325 25.275 0.675
-2.325 25.875 1.125
-2.475 26.625 1.725
-2.475 26.625 0.525
-2.475 26.625 1.125
-4.725 22.275 1.125
-9.225 25.125 3.225
-5.325 22.125 -0.375
-5.325 22.125 2.475
-5.325 22.125 1.425
-5.325 22.125 2.325
-5.325 22.125 3.375
-5.325 22.125 -0.525
-5.325 29.025 2.925
-2.325 26.025 1.275
-2.325 26.025 1.425
-2.325 25.125 0.675
-2.325 25.125 0.975
-2.325 26.025 1.125
-2.325 26.025 1.725
-4.275 22.425 1.125
-4.275 22.425 0.975
-4.275 22.425 0.075
-4.275 22.425 -0.675
-2.625 27.075 0.375
-3.975 28.575 1.575
-3.975 28.575 0.975
-3.975 22.575 0.675
-2.775 27.375 0.375
-2.775 23.775 1.575
-2.775 23.775 2.175
-5.175 22.125 2.775
-5.175 22.125 1.725
-2.325 26.175 0.075
-2.325 26.175 0.825
-2.325 26.175 1.725
-8.325 27.975 2.775
-3.375 28.125 0.675
-3.375 28.125 0.825
-3.375 28.125 1.125
-8.175 23.025 0.975
-8.175 23.025 1.875
-3.225 27.975 0.675
-9.075 24.375 2.925
-2.475 26.775 1.125
-2.475 26.775 2.025
-4.575 22.275 0.975
-4.575 22.275 1.875
-4.575 22.275 1.125
-8.025 22.875 1.725
-8.025 22.875 2.175
-3.525 28.275 1.575
-3.525 28.275 1.425
-3.525 28.275 -0.075
-3.525 28.275 0.525
-3.525 28.275 0.975
-5.025 22.125 -0.675
-5.025 22.125 1.725
-6.525 22.125 -1.275
-5.025 29.025 1.275
-2.325 26.325 2.175
-2.325 26.325 1.125
-2.325 26.325 0.675
-7.875 22.725 2.625
-3.675 28.425 0.675
-3.675 28.425 0.375
-3.675 28.425 0.975
-3.675 28.425 0.525
-3.675 28.425 0.825
-2.925 27.675 -3.675
-2.925 27.675 1.575
-7.425 22.425 4.275
-2.625 23.925 1.575
-2.625 27.225 0.225
-2.625 27.225 0.975
-2.625 27.225 0.075
-2.625 27.225 0.375
-2.625 27.225 -0.075
-4.125 28.725 0.525
-4.125 28.725 1.425
-4.125 28.725 0.975
-4.125 28.725 1.725
-9.075 24.225 2.925
-9.075 24.225 3.375
-9.225 24.675 3.675
-4.875 22.125 1.275
-4.875 22.125 0.825
-4.875 22.125 1.575
-4.425 28.875 2.325
-4.425 28.875 1.125
-2.475 26.925 1.125
-2.475 26.925 1.425
-4.425 22.275 0.525
-8.775 23.625 3.675
-7.725 22.575 0.525
-3.825 28.575 0.825
-3.825 28.575 0.975
-3.825 28.575 0.675
-3.825 28.575 0.525
-2.775 27.525 0.525
-2.775 27.525 0.375
-5.775 21.975 -0.375
-2.175 25.575 0.225
-2.175 25.575 0.675
-5.925 21.975 0.525
-5.925 21.975 0.975
-5.925 21.975 1.125
-5.625 21.975 2.025
-5.625 21.975 2.175
-2.175 25.425 0.375
-2.175 25.725 0.675
-2.175 25.725 0.975
-2.175 25.725 0.825
-4.725 22.125 1.275
-4.725 22.125 1.425
-9.225 24.525 2.775
-2.325 26.625 1.575
-3.225 28.125 0.525
-5.475 21.975 -0.375
-5.475 21.975 2.025
-6.075 21.975 0.675
-6.075 21.975 1.575
-6.075 21.975 0.975
-6.075 21.975 0.525
-3.375 28.275 1.125
-3.375 28.275 0.225
-3.375 28.275 0.675
-8.175 22.875 0.375
-3.375 28.275 1.725
-2.175 25.875 1.125
-2.175 25.875 -4.125
-2.175 25.875 0.975
-2.175 25.875 1.275
-2.175 25.875 0.075
-2.175 25.275 0.825
-2.175 25.875 -0.675
-2.475 27.075 1.425
-4.275 28.875 0.825
-4.275 28.875 3.075
-4.275 28.875 1.425
-4.275 22.275 0.525
-6.225 21.975 -0.675
-5.325 21.975 -0.075
-5.325 21.975 -0.225
-9.375 25.125 3.075
-2.175 25.125 0.825
-2.175 26.025 0.675
-2.175 26.025 1.125
-2.175 26.025 0.825
-2.175 26.025 0.225
-2.625 27.375 -0.225
-2.625 27.375 1.725
-3.975 28.725 -0.225
-3.975 28.725 0.675
-3.975 28.725 0.825
-8.025 22.725 2.175
-8.025 22.725 0.675
-8.025 22.725 1.125
-2.925 23.325 1.875
-3.525 28.425 0.975
-3.525 28.425 0.225
-6.375 21.975 0.525
-5.175 21.975 2.025
-5.175 21.975 1.275
-2.175 26.175 0.675
-2.175 26.175 0.825
-6.975 22.125 -1.275
-6.975 22.125 -0.975
-9.225 26.775 1.725
-4.575 22.125 1.275
-2.325 26.775 1.125
-2.325 26.775 1.575
-2.325 26.775 1.275
-7.875 22.575 2.475
-3.675 28.575 0.675
-3.675 28.575 0.825
-3.675 28.575 0.975
-3.675 28.575 0.525
-3.675 28.575 1.125
-3.675 28.575 1.575
-5.025 21.975 2.175
-2.175 26.325 0.975
-2.175 26.325 0.675
-2.175 26.325 0.825
-4.125 28.875 1.725
-4.125 28.875 1.425
-4.125 28.875 0.825
-4.125 22.275 0.075
-4.125 22.275 5.325
-4.125 22.275 0.375
-9.225 24.225 2.475
-4.425 22.125 1.275
-4.425 22.125 0.675
-4.425 22.125 1.125
-2.625 27.525 0.525
-2.325 26.925 0.975
-2.325 26.925 1.125
-3.825 28.725 6.375
-3.825 28.725 1.875
-4.875 21.975 0.975
-4.875 21.975 1.425
-4.875 21.975 1.575
-9.375 24.675 2.925
-9.375 24.675 3.375
-9.375 26.475 2.175
-2.175 26.475 0.525
-4.875 29.175 1.425
-8.325 22.875 1.275
-3.225 28.275 0.675
-3.225 28.275 1.125
-3.225 28.275 1.275
-3.225 28.275 0.975
-3.225 28.275 0.825
-3.075 28.125 0.675
-3.075 28.125 0.375
-8.175 22.725 1.425
-3.375 28.425 1.575
-3.375 28.425 1.275
-3.375 28.425 0.825
