# .PCD v0.7 - Point Cloud Data file format
VERSION 0.7
FIELDS x y z
SIZE 4 4 4
TYPE F F F
COUNT 1 1 1
WIDTH 2048
HEIGHT 1
VIEWPOINT 0 0 0 1 0 0 0
POINTS 2048
DATA ascii
13.275 34.275 -0.075
13.425 34.125 2.025
13.425 34.275 2.025
13.425 33.825 1.875
13.125 34.425 0.825
13.425 34.425 -0.075
12.975 34.425 -0.975
12.825 34.125 1.275
13.275 33.675 0.375
13.275 34.575 0.075
12.825 33.975 0.225
12.825 33.975 -0.825
12.825 34.275 2.025
13.425 34.575 0.075
13.125 34.575 0.675
13.725 34.425 0.075
12.825 34.425 -0.975
13.575 33.675 1.725
12.975 34.575 0.525
12.675 34.125 0.075
13.275 34.725 0.075
13.875 34.275 2.475
13.875 34.275 2.325
12.675 33.975 0.075
13.875 34.275 2.025
12.675 34.275 -0.675
12.825 34.575 -0.825
12.825 34.575 -0.675
12.675 33.825 0.525
12.675 33.825 0.675
12.675 33.825 0.075
13.275 34.875 0.075
12.675 33.675 0.075
12.825 34.725 -0.975
12.525 33.975 1.275
12.525 33.975 -0.225
13.125 34.875 0.525
13.125 34.875 0.675
12.975 34.875 -0.825
12.675 33.525 0.075
12.525 33.675 0.825
13.275 35.025 0.075
13.275 35.025 -0.225
13.275 35.025 0.225
12.675 33.375 -2.025
13.275 35.175 0.075
14.325 33.975 1.575
14.325 33.975 1.275
12.675 35.025 -0.525
12.975 35.175 -1.125
14.325 34.575 1.575
14.325 34.575 1.425
12.225 34.575 1.575
12.225 33.675 0.825
12.375 34.875 1.275
12.375 34.875 -0.075
14.475 34.125 1.425
12.675 35.175 0.525
13.875 35.175 2.025
14.325 33.525 -0.375
12.225 34.725 1.275
12.225 34.725 1.425
14.475 34.425 1.425
13.575 35.325 1.125
12.075 34.575 1.425
13.725 35.325 2.025
12.825 35.325 -1.125
14.475 34.725 1.875
14.475 33.525 -0.075
12.075 33.525 -0.225
14.625 34.125 1.275
14.625 33.975 2.625
11.925 34.275 -1.125
13.425 32.775 -0.375
12.375 35.175 -0.225
11.925 34.425 -0.825
12.975 35.475 0.675
14.475 34.875 1.725
12.075 34.875 -0.825
14.625 33.675 -0.825
11.925 34.575 1.575
12.825 35.475 0.075
13.875 35.475 1.875
13.875 32.775 0.075
14.325 35.175 1.875
12.225 35.175 -0.825
11.775 34.125 1.425
12.375 35.325 0.225
11.775 34.275 0.975
13.425 35.625 1.425
13.125 32.625 1.125
14.775 33.825 -3.675
11.775 34.425 0.825
14.775 33.825 0.225
14.625 33.375 0.075
11.775 34.575 0.525
12.075 35.175 -0.975
12.075 33.075 -0.675
14.325 35.325 1.725
12.225 35.325 1.125
12.675 35.625 -1.275
14.775 34.725 -0.225
14.775 34.725 1.575
14.625 35.025 1.725
14.175 35.475 3.225
12.375 32.775 0.225
12.375 35.475 1.125
14.175 32.775 0.525
14.175 35.475 1.725
12.375 35.475 -0.075
11.625 34.125 -0.525
14.925 34.125 0.675
11.625 34.125 5.775
11.625 34.125 0.975
13.425 35.775 1.725
14.925 33.975 0.225
13.575 32.475 0.525
13.575 35.775 0.825
14.925 34.425 0.375
14.775 34.875 -0.225
14.025 32.625 0.375
14.475 32.925 0.825
14.475 35.325 1.425
12.075 35.325 -0.675
12.825 35.775 3.225
11.625 34.575 1.425
11.625 33.675 -0.225
14.925 34.575 -0.075
11.625 33.675 0.075
11.625 34.575 0.675
12.225 32.775 0.225
12.225 35.475 1.125
12.225 32.775 -0.075
14.775 35.025 1.875
14.175 35.625 1.575
14.175 35.625 2.175
12.675 32.475 2.175
13.875 35.775 2.175
11.475 34.125 0.975
11.475 34.125 1.125
13.425 35.925 0.675
14.475 35.475 2.775
11.475 34.275 -0.225
14.475 35.475 1.875
11.925 35.325 0.075
14.025 32.475 -0.225
14.025 32.475 1.425
11.625 33.375 -3.975
13.575 32.325 0.525
13.575 32.325 1.725
15.075 34.425 0.675
11.475 34.425 0.525
11.775 35.175 0.525
12.225 32.625 0.675
12.225 32.625 1.875
12.225 32.625 0.225
15.075 34.575 1.575
11.475 34.575 -0.075
11.475 34.575 0.525
11.475 34.575 0.075
14.175 32.475 -0.075
14.925 35.025 1.575
12.675 32.325 2.175
12.675 32.325 -5.175
15.075 34.725 1.575
11.925 35.475 0.225
14.625 35.475 1.875
14.475 35.625 0.075
12.075 35.625 0.675
11.775 35.325 0.525
11.775 35.325 0.075
14.025 32.325 1.275
15.075 34.875 1.725
15.225 34.125 0.225
11.475 34.875 0.375
14.325 35.775 0.075
11.625 35.175 0.375
12.225 32.475 0.075
12.225 32.475 0.675
11.325 34.425 0.525
13.575 32.175 -0.225
14.175 32.325 0.075
15.075 35.025 1.425
11.475 33.225 0.075
11.475 35.025 0.225
11.925 35.625 0.525
11.925 32.625 -0.825
11.925 35.625 -0.225
11.775 35.475 0.675
11.775 35.475 0.375
11.325 33.525 0.975
11.325 33.525 1.125
11.625 35.325 0.225
14.325 35.925 2.025
12.225 32.325 0.075
11.475 33.075 -0.075
11.475 33.075 -0.525
14.025 32.175 1.125
11.175 34.275 0.075
15.375 33.975 -0.225
11.175 34.275 -0.225
11.175 34.425 -0.225
11.175 34.425 0.675
11.175 33.825 0.675
11.775 35.625 0.375
12.975 36.225 1.275
14.625 35.775 1.725
11.925 35.775 -0.075
11.625 32.775 -0.525
15.225 35.025 0.375
15.225 35.025 0.225
11.175 34.575 0.525
11.175 34.575 0.075
11.325 35.025 0.075
13.725 36.225 1.875
14.475 35.925 0.825
11.475 35.325 0.675
15.375 34.725 1.425
11.175 33.525 1.125
13.875 36.225 1.425
11.325 33.075 0.375
14.325 36.075 2.025
14.775 35.775 1.725
12.525 32.025 -4.875
14.025 36.225 2.025
12.525 32.025 -1.275
14.625 35.925 0.975
14.625 35.925 0.225
13.275 31.875 0.525
11.475 32.775 1.425
11.475 32.775 1.575
13.125 31.875 2.325
11.025 33.975 -0.075
11.025 34.275 -0.075
11.025 34.275 0.375
11.025 33.825 0.675
11.175 35.025 -0.075
15.375 35.025 1.725
14.475 36.075 0.825
12.075 36.075 -0.075
13.725 36.375 1.725
13.725 36.375 1.425
12.825 36.375 0.975
13.875 36.375 1.275
15.375 35.175 0.675
14.325 36.225 0.825
14.025 36.375 -0.225
11.325 32.775 -3.825
13.275 36.525 2.325
13.425 31.725 0.525
13.425 36.525 -5.475
10.875 33.975 0.225
15.675 33.975 0.225
10.875 34.275 0.375
10.875 34.275 0.225
12.975 31.725 0.675
12.975 31.725 0.375
12.975 36.525 1.425
10.875 33.825 0.075
15.675 33.825 0.375
11.175 32.925 0.825
14.475 36.225 0.975
12.375 36.375 -0.225
14.925 35.925 1.275
11.625 35.925 0.525
15.225 35.625 0.675
11.325 32.625 0.525
11.775 32.175 0.225
14.775 36.075 4.425
15.675 33.525 0.225
10.875 34.725 -5.325
14.325 36.375 0.825
15.375 35.475 0.825
11.925 32.025 0.375
14.025 36.525 1.275
15.675 34.875 1.725
10.875 33.375 0.375
10.875 33.375 0.975
10.875 33.375 -1.425
15.075 35.925 1.425
12.075 36.375 0.075
13.275 31.575 -0.075
11.025 32.925 0.975
13.425 36.675 1.575
13.125 31.575 0.825
10.875 33.225 1.275
15.675 35.025 0.375
13.575 36.675 -0.075
13.575 36.675 1.725
13.575 36.675 1.275
13.575 36.675 -3.375
12.975 36.675 1.575
12.975 31.575 0.075
11.175 32.625 0.525
11.775 32.025 -0.675
11.775 32.025 -0.075
11.775 32.025 0.225
15.825 33.675 0.375
12.825 31.575 0.075
13.875 36.675 1.275
13.875 36.675 0.675
14.325 36.525 0.525
14.325 36.525 0.825
12.225 31.725 -0.225
12.225 31.725 -0.825
10.725 33.525 0.375
11.925 31.875 0.225
11.025 32.775 1.725
15.075 36.075 3.375
11.475 32.175 -5.175
14.025 36.675 1.125
12.525 36.675 2.625
10.725 33.375 -1.575
10.725 33.375 1.875
10.725 33.375 0.825
10.725 33.375 0.675
11.175 32.475 0.375
11.175 32.475 0.525
11.175 32.475 1.575
15.375 35.775 1.125
10.875 32.925 -3.525
15.975 34.125 0.225
13.275 31.425 -0.075
14.175 36.675 0.825
13.125 31.425 -0.075
13.125 31.425 1.425
15.975 34.275 0.525
15.975 34.275 0.375
13.425 31.425 0.525
15.525 35.625 0.225
11.775 31.875 0.825
11.775 31.875 0.675
11.025 32.625 0.525
11.775 36.375 0.375
10.725 33.225 -1.425
10.725 33.225 0.225
10.725 33.225 1.425
13.125 36.825 1.725
13.725 36.825 1.275
11.925 31.725 0.225
15.675 35.475 0.075
15.675 35.475 1.425
10.875 32.775 0.975
14.325 36.675 0.975
15.825 35.175 0.675
10.725 33.075 0.825
11.325 32.175 -0.375
13.875 36.825 1.125
14.025 36.825 0.825
10.725 32.925 0.525
11.775 36.525 0.225
11.775 31.725 0.225
10.875 32.625 1.575
10.875 32.625 -2.625
10.875 32.625 1.125
10.575 33.225 1.875
13.275 31.275 0.375
13.275 31.275 -2.475
13.125 31.275 0.975
13.125 31.275 1.275
16.125 34.425 -0.675
12.975 31.275 1.125
11.175 32.175 -0.525
11.175 32.175 1.425
15.525 35.925 1.275
11.025 32.325 0.225
15.825 35.475 0.225
11.925 31.575 0.225
15.975 35.175 1.575
10.575 33.075 2.475
10.575 33.075 1.725
11.625 31.725 0.675
10.875 32.475 0.525
10.875 32.475 1.125
10.875 32.475 -2.475
12.675 31.275 0.375
13.875 36.975 2.175
12.675 36.975 0.525
10.425 33.375 0.675
14.025 31.275 2.025
10.575 32.925 0.675
10.575 32.925 0.225
10.575 35.325 4.575
11.775 36.675 2.025
11.175 32.025 -0.375
15.675 35.925 0.075
10.275 34.125 -5.925
13.275 31.125 0.975
10.275 33.975 -5.925
12.975 31.125 0.675
11.925 31.425 0.975
10.575 32.775 0.525
12.825 31.125 0.225
15.825 35.775 0.525
10.725 32.475 1.275
13.875 37.125 1.725
11.025 32.025 -0.525
11.775 31.425 0.825
16.275 34.875 -0.225
11.325 31.725 0.375
11.325 31.725 2.925
11.325 31.725 -0.075
14.025 37.125 2.175
12.525 37.125 1.725
10.275 34.875 -2.475
14.475 36.975 -1.275
16.125 35.325 1.575
15.675 36.075 0.225
11.475 36.675 0.525
10.725 32.325 1.275
11.475 31.575 0.375
10.275 33.225 5.175
13.275 37.275 0.825
13.275 30.975 0.975
10.125 33.975 -1.575
10.125 33.975 -0.225
11.925 31.275 2.625
12.975 30.975 0.675
13.575 30.975 -0.225
11.625 31.425 0.675
11.625 36.825 1.425
16.275 35.175 1.725
10.275 35.175 -2.475
15.525 36.375 0.225
10.125 34.575 -0.675
15.675 36.225 0.525
10.875 32.025 -0.375
15.675 36.225 0.975
10.875 32.025 0.525
15.675 36.225 1.275
11.325 31.575 0.225
10.125 33.375 0.975
10.575 32.325 1.575
10.575 32.325 1.275
11.475 31.425 -0.225
10.875 31.875 -0.225
10.275 32.775 1.125
13.275 37.425 0.525
15.825 36.225 0.675
11.175 31.575 1.575
10.725 32.025 0.525
9.975 34.425 -1.725
12.225 30.975 0.225
12.825 37.425 0.375
11.325 31.425 -0.225
11.325 31.425 0.825
11.325 31.425 0.225
11.325 31.425 0.675
15.975 36.075 0.825
12.675 37.425 1.575
10.275 32.625 1.125
9.975 34.875 3.225
15.825 36.375 0.375
10.725 31.875 0.675
11.175 31.425 2.325
15.975 36.225 -0.075
12.375 30.825 0.825
12.375 30.825 0.375
11.325 31.275 0.225
12.225 30.825 0.375
13.575 37.575 0.975
12.975 37.575 0.375
12.975 37.575 0.075
13.725 37.575 1.725
11.775 30.975 -0.225
16.425 35.625 -0.225
15.825 36.525 0.675
10.875 31.575 1.125
13.875 37.575 1.575
15.975 36.375 -0.075
10.575 31.875 0.675
12.525 30.675 0.975
12.525 30.675 0.525
12.525 30.675 0.825
12.525 30.675 1.125
11.175 31.275 0.075
11.175 31.275 0.675
11.625 30.975 0.075
16.425 35.775 -0.075
9.975 32.775 -3.075
9.975 35.475 1.425
12.375 37.575 2.775
12.375 37.575 0.525
11.325 31.125 0.225
15.825 36.675 0.525
12.225 37.575 0.975
15.975 36.525 -0.525
15.975 36.525 0.825
10.575 31.725 0.675
10.575 36.525 -0.975
13.575 37.725 0.975
15.675 36.825 2.025
9.975 35.625 1.125
9.975 32.625 0.825
13.725 37.725 1.125
10.425 31.875 0.675
12.675 30.525 1.125
12.075 30.675 1.425
14.475 37.575 -0.525
14.475 37.575 -0.675
16.275 36.225 0.375
12.525 30.525 0.525
14.925 37.425 1.275
9.975 32.475 0.975
11.325 30.975 0.825
9.825 35.475 1.425
10.125 32.175 0.675
11.925 37.575 1.275
12.375 30.525 0.675
10.575 36.675 -0.375
10.575 31.575 0.675
15.825 36.825 0.525
10.725 36.825 4.875
10.425 31.725 0.375
16.125 36.525 1.275
10.425 31.725 0.525
10.275 31.875 0.525
11.025 31.125 0.375
13.275 37.875 -0.075
13.275 37.875 1.125
12.225 30.525 1.425
15.075 37.425 1.125
13.575 37.875 0.975
13.575 37.875 -1.275
13.575 37.875 -0.675
12.975 37.875 0.675
9.825 35.625 1.275
11.175 30.975 0.525
10.125 32.025 -1.125
16.875 35.325 1.275
14.475 37.725 2.625
13.875 37.875 1.125
15.975 36.825 0.375
16.125 36.675 0.225
16.125 36.675 -0.075
16.125 36.675 -4.875
12.525 37.875 0.225
9.825 32.475 0.675
9.825 32.475 0.525
15.825 36.975 0.525
10.425 31.575 0.525
10.425 31.575 0.675
11.625 37.575 1.275
11.325 37.425 2.175
9.975 32.175 0.075
10.275 31.725 0.375
10.275 31.725 0.675
10.275 31.725 0.525
9.675 32.775 0.675
11.925 37.725 0.075
11.025 30.975 0.375
16.425 36.375 -0.225
9.825 32.325 0.825
12.225 30.375 0.675
13.275 38.025 1.275
16.875 35.625 2.475
14.775 37.725 -0.525
13.425 38.025 -0.375
13.575 38.025 1.425
13.575 38.025 0.825
11.175 30.825 -0.225
9.975 32.025 0.675
9.975 32.025 1.275
12.825 38.025 0.975
12.825 38.025 0.825
12.825 38.025 -1.275
12.825 38.025 1.425
10.425 31.425 0.675
10.425 31.425 -2.175
16.125 36.825 0.675
16.125 36.825 -0.525
16.125 36.825 0.975
16.275 36.675 -0.375
10.275 31.575 0.525
12.675 38.025 0.975
10.875 30.975 0.075
10.875 30.975 0.825
10.125 31.725 0.525
9.825 32.175 0.225
11.025 30.825 0.375
9.675 32.325 1.125
9.675 32.325 0.825
16.125 36.975 0.975
10.425 31.275 1.725
16.125 36.975 0.675
10.275 31.425 -2.775
10.275 31.425 0.675
16.275 36.825 1.125
16.275 36.825 -0.075
16.275 36.825 4.275
17.025 35.625 0.525
14.775 37.875 2.325
11.775 30.375 0.675
9.825 32.025 0.525
9.825 32.025 0.675
9.825 32.025 0.825
11.175 37.575 2.625
13.275 38.175 1.725
13.275 38.175 0.225
13.125 38.175 -0.825
10.125 31.575 0.675
10.125 31.575 0.975
10.125 31.575 2.775
10.125 31.575 0.525
13.575 38.175 0.375
12.975 38.175 0.525
13.575 38.175 1.425
13.575 38.175 0.225
13.725 38.175 0.225
12.075 30.225 0.525
12.075 38.025 0.075
9.975 31.725 -0.825
13.875 38.175 0.525
15.225 37.725 -0.675
12.675 30.075 2.025
11.325 37.725 1.575
11.025 30.675 0.375
11.025 30.675 0.225
9.825 31.875 0.525
12.525 30.075 2.175
9.225 33.375 1.425
15.525 37.575 0.675
14.625 38.025 -1.125
11.925 30.225 1.875
11.925 30.225 0.225
16.125 37.125 0.675
10.275 31.275 0.675
10.275 31.275 0.375
15.975 37.275 0.075
12.375 30.075 0.825
9.525 35.925 -1.725
9.675 32.025 0.675
11.175 37.725 2.625
9.975 31.575 0.525
11.775 30.225 1.575
13.275 38.325 0.975
13.275 38.325 1.575
12.975 38.325 -0.675
13.575 38.325 0.525
13.575 38.325 0.975
12.075 38.175 1.425
12.075 30.075 1.125
15.225 37.875 3.225
11.325 37.875 -0.825
9.525 36.075 -1.875
11.625 38.025 0.975
11.625 30.225 0.675
9.375 32.475 1.725
16.275 37.125 0.525
12.675 38.325 0.075
12.675 38.325 0.825
13.875 38.325 0.525
13.875 38.325 0.375
13.875 38.325 1.425
15.975 37.425 0.525
9.975 31.425 -0.375
9.975 31.425 0.975
9.975 31.425 0.525
9.975 31.425 -0.225
12.525 29.925 2.025
12.525 38.325 0.675
14.025 38.325 0.375
10.725 30.675 0.675
11.475 30.225 0.675
11.475 30.225 6.075
9.525 32.025 1.125
9.525 32.025 0.825
11.775 38.175 -0.225
11.775 38.175 0.075
11.775 38.175 1.575
12.225 29.925 1.125
16.275 37.275 0.675
16.275 37.275 0.225
16.275 37.275 0.375
10.275 30.975 0.675
16.425 37.125 0.675
16.425 37.125 0.375
13.125 38.475 1.425
13.125 38.475 -0.225
13.125 38.475 0.975
13.425 38.475 1.125
16.125 37.425 0.525
9.975 31.275 0.525
9.975 31.275 -5.475
13.575 38.475 1.125
9.375 32.175 0.975
12.075 38.325 0.825
12.075 38.325 1.575
9.525 31.875 0.975
9.525 31.875 1.125
8.925 34.575 -2.025
9.225 32.475 1.875
11.625 30.075 0.525
13.725 38.475 0.675
12.825 38.475 1.425
9.825 31.425 0.675
9.825 31.425 1.125
13.875 38.475 0.525
13.875 38.475 1.125
12.675 38.475 0.225
9.075 32.775 1.275
14.025 38.475 3.975
11.475 30.075 0.525
8.925 33.225 -0.525
16.425 37.275 1.425
16.275 37.425 -0.225
16.275 37.425 0.225
9.975 31.125 0.525
12.225 29.775 0.975
16.125 37.575 3.675
15.225 38.175 -0.825
11.325 30.075 0.675
11.325 30.075 0.525
9.675 31.425 1.275
9.675 31.425 -2.625
10.575 30.525 0.525
15.525 38.025 -0.525
13.425 38.625 0.975
13.425 38.625 1.125
13.425 38.625 0.675
13.125 38.625 1.875
9.375 31.875 0.675
8.775 34.275 -1.875
13.575 38.625 0.825
11.625 29.925 0.075
13.725 38.625 -0.225
12.825 38.625 1.275
9.525 31.575 0.975
13.875 38.625 0.225
13.875 38.625 -0.525
12.675 38.625 -0.225
8.775 33.525 2.025
15.375 38.175 -0.975
15.375 38.175 0.075
16.425 37.425 0.675
16.575 37.275 0.675
14.025 38.625 0.525
9.225 32.025 0.825
11.475 29.925 0.675
11.475 29.925 0.375
9.075 32.325 0.675
9.825 31.125 -0.675
9.825 31.125 0.525
16.725 37.125 0.375
16.275 37.575 -0.375
9.375 31.725 0.675
9.375 31.725 1.275
14.175 38.625 0.825
12.375 29.625 0.975
9.675 31.275 0.375
11.775 38.475 -1.125
9.525 31.425 1.125
10.575 30.375 0.225
10.575 30.375 0.675
10.575 30.375 0.525
11.325 29.925 0.375
11.325 29.925 0.225
15.225 38.325 -0.825
15.525 38.175 -0.675
11.625 29.775 0.225
11.625 29.775 0.375
15.825 38.025 -0.675
12.975 38.775 1.275
12.975 38.775 0.975
12.975 38.775 0.525
13.575 38.775 1.725
13.575 38.775 0.675
9.375 31.575 0.975
9.375 31.575 1.125
16.575 37.425 0.525
16.575 37.425 0.825
13.725 38.775 -1.725
9.825 30.975 0.525
16.725 37.275 0.675
16.725 37.275 0.525
17.925 34.575 1.125
16.425 37.575 2.775
16.275 37.725 -0.375
11.925 38.625 2.325
15.675 38.175 -0.975
8.925 32.325 1.575
8.925 32.325 1.725
10.875 30.075 0.225
10.875 30.075 1.425
11.475 29.775 -0.075
10.425 30.375 0.975
10.575 30.225 0.525
11.775 38.625 1.275
11.775 38.625 2.025
11.025 29.925 0.525
11.025 29.925 1.275
14.325 38.775 0.825
12.225 38.775 0.675
15.225 38.475 0.825
11.325 29.775 0.525
11.325 29.775 1.875
16.575 37.575 0.225
9.675 30.975 -0.675
16.425 37.725 -0.225
16.425 37.725 0.075
9.225 31.575 0.675
9.225 31.575 0.975
11.625 29.625 -0.225
13.125 38.925 1.125
13.125 38.925 0.975
13.425 38.925 1.575
14.475 38.775 0.825
12.075 38.775 2.175
16.275 37.875 -0.225
16.275 37.875 0.075
9.525 31.125 6.225
12.975 38.925 1.575
12.975 38.925 1.275
12.825 38.925 1.425
13.725 38.925 1.875
8.475 33.675 1.875
10.425 30.225 0.975
15.375 38.475 0.225
9.375 31.275 1.125
13.875 38.925 0.975
9.075 31.725 1.275
8.475 34.725 0.825
15.675 38.325 -0.825
8.775 32.325 1.875
15.075 38.625 -1.125
11.475 38.625 0.225
11.475 38.625 2.025
15.975 38.175 -0.525
10.575 30.075 0.525
9.825 30.675 0.825
16.725 37.575 1.275
16.725 37.575 -0.075
16.875 37.425 0.075
9.675 30.825 0.675
9.675 30.825 0.825
16.575 37.725 0.225
8.475 33.225 2.025
9.525 30.975 0.825
15.525 38.475 0.225
11.025 38.475 2.025
11.025 29.775 0.525
15.225 38.625 0.375
8.475 33.075 3.225
9.075 31.575 0.675
9.075 31.575 0.975
12.075 38.925 2.175
16.125 38.175 -0.825
16.125 38.175 0.375
10.425 30.075 0.975
9.225 31.275 1.575
12.975 39.075 0.525
11.175 38.625 2.325
15.375 38.625 0.375
11.175 38.625 0.225
8.925 31.725 1.425
15.675 38.475 -0.825
10.875 29.775 0.375
10.875 29.775 0.525
8.325 33.675 1.425
15.075 38.775 0.375
15.075 38.775 0.075
11.475 38.775 0.675
9.675 30.675 0.525
11.475 29.475 0.975
9.825 30.525 1.125
9.825 30.525 0.825
16.875 37.575 0.375
16.725 37.725 1.125
16.725 37.725 0.225
10.575 29.925 0.525
9.075 31.425 0.975
15.975 38.325 -0.525
10.575 38.325 0.525
16.575 37.875 -0.075
9.525 30.825 1.275
9.525 30.825 0.675
8.325 33.375 0.975
8.325 33.375 1.575
9.375 30.975 1.275
8.475 32.625 2.325
15.525 38.625 -1.125
11.025 38.625 -0.225
9.225 31.125 0.975
10.275 30.075 0.975
15.225 38.775 0.525
8.925 31.575 0.825
17.925 36.075 -0.225
14.325 39.075 2.025
9.075 31.275 0.525
17.475 36.975 -1.575
16.125 38.325 0.525
9.675 30.525 0.675
8.325 32.925 1.425
9.525 30.675 0.675
9.825 30.375 0.825
10.875 29.625 0.225
10.875 29.625 0.525
15.375 38.775 -3.675
8.175 34.275 1.275
13.425 39.225 0.225
13.425 39.225 1.575
16.575 38.025 -0.075
9.375 30.825 1.575
9.375 30.825 -2.775
13.575 39.225 1.275
8.925 31.425 0.375
8.925 31.425 0.975
8.925 31.425 1.425
15.975 38.475 0.675
13.725 39.225 -2.175
12.825 39.225 1.575
11.475 38.925 2.775
18.075 35.925 -0.225
16.425 38.175 0.075
9.075 31.125 1.425
9.075 31.125 0.975
16.275 38.325 -1.275
11.025 29.475 1.575
10.725 29.625 1.275
8.325 32.625 1.425
14.175 39.225 1.725
9.675 30.375 0.825
9.675 30.375 0.975
16.875 37.875 0.225
9.525 30.525 0.675
8.925 31.275 1.275
9.375 30.675 0.825
9.375 30.675 0.675
9.375 30.675 1.425
16.725 38.025 -0.375
11.625 39.075 -0.075
16.575 38.175 -0.225
9.975 30.075 0.525
10.875 38.775 0.075
15.375 38.925 -0.825
8.175 32.925 1.125
10.575 38.625 0.075
10.125 29.925 0.675
8.025 34.275 1.425
8.025 33.975 5.175
13.125 39.375 0.075
12.975 39.375 1.575
8.025 33.675 1.275
8.925 31.125 0.975
17.625 37.125 -1.875
11.025 38.925 1.575
15.525 38.925 -0.975
15.525 38.925 1.575
15.825 38.775 -0.975
10.725 29.475 0.975
9.525 30.375 0.675
12.525 39.375 0.225
9.675 30.225 0.825
16.875 38.025 -0.075
9.375 30.525 0.675
8.175 32.625 2.475
16.725 38.175 -0.225
16.725 38.175 -0.075
16.725 38.175 1.125
9.225 30.675 0.825
9.225 30.675 -5.325
9.225 30.675 0.675
11.325 39.075 1.875
10.425 29.625 0.225
9.975 29.925 0.525
9.975 29.925 0.225
15.675 38.925 -0.975
10.125 29.775 0.525
10.575 29.475 0.525
15.375 39.075 -0.825
15.375 39.075 0.675
8.025 32.925 1.425
13.275 39.525 0.075
13.275 39.525 1.875
8.175 32.325 1.875
9.375 30.375 0.825
16.875 38.175 1.125
13.875 39.525 1.875
7.875 33.525 1.725
7.875 33.525 1.275
9.825 29.925 0.975
9.075 30.675 0.375
11.025 29.175 0.075
15.525 39.075 0.075
15.525 39.075 1.575
14.025 39.525 1.725
12.525 39.525 -0.225
10.425 29.475 0.825
10.425 29.475 0.675
17.625 37.425 -2.325
8.925 30.825 1.425
16.575 38.475 -0.375
16.575 38.475 -0.675
8.175 32.175 1.875
8.175 36.075 -3.075
11.325 39.225 0.225
8.775 30.975 0.825
10.125 29.625 0.525
14.325 39.525 -1.125
12.225 28.725 1.425
15.675 39.075 0.075
11.625 28.875 -0.825
10.575 29.325 0.825
10.575 29.325 0.375
10.575 29.325 0.975
9.375 30.225 -0.975
9.375 30.225 -0.225
9.375 30.225 -0.375
11.175 39.225 0.525
15.375 39.225 -0.825
15.375 39.225 0.525
15.375 39.225 0.225
9.225 30.375 0.225
9.075 30.525 0.375
9.075 30.525 0.525
9.075 30.525 0.675
16.875 38.325 0.225
8.625 31.125 0.975
11.475 39.375 0.075
16.725 38.475 -0.675
16.725 38.475 -0.075
11.925 39.525 -0.075
15.825 39.075 -0.975
11.025 29.025 0.225
11.025 29.025 0.825
11.025 29.025 1.425
17.775 37.425 -2.025
16.575 38.625 -0.075
8.775 30.825 1.125
10.425 29.325 1.275
10.425 29.325 0.375
12.525 39.675 -0.225
15.225 39.375 0.225
15.225 39.375 -0.075
17.475 37.875 4.875
9.075 30.375 0.825
10.575 29.175 0.375
15.975 39.075 -0.825
11.625 39.525 -0.075
11.625 39.525 -0.225
8.925 30.525 1.275
8.925 30.525 0.375
16.875 38.475 0.075
16.875 38.475 -0.075
15.375 39.375 -0.975
15.375 39.375 0.225
8.025 32.025 2.175
10.275 29.325 0.525
10.275 29.325 1.275
8.775 30.675 0.825
16.725 38.625 -0.075
15.075 39.525 -0.825
11.475 39.525 1.875
11.475 39.525 -0.075
7.875 32.325 0.525
13.275 39.825 2.025
8.625 30.825 0.825
10.725 29.025 -0.675
10.725 29.025 0.525
13.425 39.825 1.875
13.425 39.825 1.725
18.825 35.475 -0.375
10.425 29.175 1.125
10.425 29.175 0.525
10.425 29.175 0.825
8.025 31.875 1.125
8.025 31.875 2.025
9.225 30.075 -0.375
9.075 30.225 0.375
16.425 38.925 -0.975
11.325 39.525 0.525
8.475 30.975 0.675
10.125 29.325 0.675
8.925 30.375 0.675
8.925 30.375 1.125
17.025 38.475 -0.075
11.775 28.575 1.275
12.525 39.825 0.225
17.775 37.725 -2.325
8.775 30.525 0.825
15.975 39.225 -0.675
10.875 28.875 0.975
10.875 28.875 1.275
10.275 29.175 0.825
10.275 29.175 0.675
10.275 29.175 1.125
8.325 31.125 0.975
9.825 29.475 0.825
8.625 30.675 1.875
8.625 30.675 1.125
8.625 30.675 1.425
7.725 32.475 0.525
15.375 39.525 -0.525
8.475 30.825 0.675
11.475 28.575 0.525
9.075 30.075 0.975
8.925 30.225 0.825
17.175 38.475 0.375
10.425 29.025 0.675
10.425 29.025 1.125
10.425 29.025 0.825
7.875 31.875 0.375
13.425 39.975 1.575
13.425 39.975 1.875
13.425 39.975 -0.225
10.125 29.175 0.675
16.425 39.075 -0.675
8.625 30.525 1.425
13.875 39.975 1.875
11.775 28.425 0.225
18.975 35.625 0.675
15.975 39.375 1.725
10.575 28.875 -0.525
10.575 28.875 1.275
15.675 39.525 -0.675
10.875 28.725 1.425
8.475 30.675 1.275
8.475 30.675 1.125
10.275 29.025 1.125
10.275 29.025 0.825
10.275 29.025 1.275
19.125 35.175 0.375
8.925 30.075 -0.075
9.975 29.175 1.425
8.325 30.825 0.675
8.325 30.825 1.125
8.775 30.225 2.175
8.775 30.225 0.825
10.725 28.725 1.725
19.125 35.325 -0.075
7.875 31.575 1.575
16.125 39.375 -0.675
16.125 39.375 -0.525
7.725 31.875 1.425
8.175 30.975 1.125
8.175 30.975 0.675
10.125 29.025 0.675
10.125 29.025 0.825
8.475 30.525 1.575
13.425 40.125 1.575
13.425 40.125 1.875
13.725 40.125 0.825
11.325 28.425 0.675
15.225 39.825 -1.725
13.875 40.125 1.725
15.975 39.525 -0.675
15.675 39.675 -0.675
8.925 29.925 0.675
10.275 28.875 0.525
8.775 30.075 1.725
8.775 30.075 0.675
14.175 40.125 0.375
8.625 30.225 0.525
9.375 29.475 0.675
8.175 30.825 1.275
9.975 29.025 0.825
9.975 29.025 0.975
11.625 39.975 1.125
11.625 39.975 0.975
9.525 29.325 0.375
9.525 29.325 0.675
10.425 28.725 0.525
15.825 39.675 -0.825
11.475 39.975 -4.575
11.475 39.975 0.975
8.325 30.525 1.125
11.475 28.275 -0.225
15.525 39.825 -0.825
15.525 39.825 -0.075
13.275 40.275 0.825
14.625 40.125 2.925
11.925 40.125 1.275
13.425 40.275 0.525
8.925 29.775 0.525
13.575 40.275 0.525
13.575 40.275 0.375
8.175 30.675 0.825
9.825 39.225 0.375
9.825 29.025 1.425
9.825 29.025 0.675
13.725 40.275 0.675
19.125 36.075 -0.825
8.625 30.075 0.675
8.625 30.075 1.575
16.275 39.525 -0.675
10.275 28.725 0.675
7.875 31.125 1.425
13.875 40.275 1.125
19.275 35.625 0.675
8.475 30.225 0.675
11.775 28.125 0.225
9.375 29.325 0.675
9.375 29.325 1.125
14.025 40.275 0.075
9.975 28.875 1.275
9.975 28.875 1.125
9.975 28.875 0.975
9.975 28.875 0.825
9.975 28.875 0.675
9.975 28.875 1.575
8.025 30.825 0.675
9.525 29.175 0.675
8.325 30.375 1.425
14.175 40.275 0.075
14.175 40.275 0.825
19.275 35.775 -0.225
11.625 40.125 0.525
16.125 39.675 -0.675
9.675 29.025 0.825
15.075 40.125 -0.225
8.625 29.925 0.975
15.525 39.975 0.375
15.525 39.975 -0.075
15.525 39.975 0.525
17.325 38.925 -0.675
8.475 30.075 0.975
9.825 28.875 0.975
9.825 28.875 0.825
8.325 30.225 0.675
13.575 40.425 -0.375
13.575 40.425 -0.675
18.825 37.125 -0.525
15.225 40.125 0.075
13.725 40.425 0.075
13.725 40.425 0.675
13.725 40.425 0.825
13.725 40.425 0.975
13.725 40.425 0.525
15.675 39.975 -0.825
10.875 28.275 -0.675
13.875 40.425 0.225
13.875 40.425 -0.825
13.875 40.425 0.525
9.975 28.725 1.125
17.025 39.225 0.225
9.525 29.025 0.675
9.525 29.025 0.525
14.025 40.425 0.225
14.025 40.425 1.575
14.025 40.425 0.075
14.025 40.425 1.875
15.375 40.125 -0.075
15.375 40.125 0.075
11.175 28.125 1.725
14.175 40.425 0.225
9.675 28.875 0.825
19.425 35.775 -0.675
8.475 29.925 0.675
14.325 40.425 0.225
9.225 29.175 1.125
11.475 40.275 0.975
9.825 28.725 0.675
15.525 40.125 -1.425
6.975 32.925 2.775
8.175 30.225 -1.575
17.175 39.225 -0.375
10.575 39.975 0.225
13.275 40.575 1.425
9.525 28.875 0.975
13.425 40.575 1.275
10.875 28.125 1.725
15.675 40.125 -0.825
13.725 40.575 1.425
13.725 40.575 1.125
8.775 29.475 -0.225
8.475 29.775 0.975
13.875 40.575 0.525
13.875 40.575 0.975
13.875 40.575 0.075
13.875 40.575 0.375
13.875 40.575 0.675
9.675 28.725 0.825
8.325 29.925 0.975
14.025 40.575 -0.825
14.025 40.575 -0.675
14.025 40.575 0.375
14.025 40.575 0.825
14.025 40.575 0.075
15.375 40.275 0.075
14.175 40.575 1.875
10.725 40.125 0.375
9.825 28.575 0.525
17.175 39.375 0.375
9.525 28.725 0.975
10.275 39.975 0.375
8.625 29.475 0.825
8.625 29.475 -0.225
8.925 29.175 0.675
8.325 29.775 0.975
8.175 29.925 0.675
17.475 39.225 -2.925
9.075 29.025 0.675
9.675 28.575 -0.225
9.675 28.575 0.975
9.675 28.575 -4.125
7.725 30.525 0.675
13.875 40.725 0.675
13.875 40.725 0.525
13.875 40.725 0.375
8.025 30.075 0.675
9.225 28.875 0.375
9.225 28.875 1.575
11.175 40.425 0.225
10.425 40.125 0.675
14.025 40.725 0.225
9.375 28.725 0.225
14.175 40.725 -0.225
14.175 40.725 0.375
14.175 40.725 0.225
9.825 28.425 0.525
8.475 29.475 0.825
14.325 40.725 -0.225
14.325 40.725 0.375
15.075 40.575 0.075
7.725 30.375 1.875
8.175 29.775 0.675
8.175 29.775 1.125
8.175 29.775 0.975
8.925 29.025 0.675
8.925 29.025 0.375
10.575 40.275 1.275
8.025 29.925 0.975
9.075 28.875 0.675
15.225 40.575 -2.925
15.225 40.575 0.975
9.675 28.425 0.825
13.275 40.875 -4.125
13.725 40.875 -0.375
13.875 40.875 -0.375
13.875 40.875 -0.225
11.175 27.675 0.825
7.725 30.225 0.675
19.725 36.225 1.575
14.025 40.875 1.875
14.025 40.875 0.225
8.325 29.475 0.825
8.175 29.625 0.525
8.175 29.625 1.125
8.175 29.625 0.975
8.775 29.025 1.125
14.175 40.875 0.225
8.025 29.775 0.375
8.025 29.775 0.675
9.525 28.425 0.975
7.575 30.375 4.875
17.025 39.825 0.525
14.325 40.875 0.525
14.325 40.875 0.975
11.025 40.575 0.225
9.075 28.725 0.525
14.475 40.875 0.525
14.475 40.875 0.825
16.875 39.975 0.975
15.225 40.725 -0.075
11.325 40.725 -0.075
8.475 29.175 -2.325
8.325 29.325 0.675
8.175 29.475 0.975
13.725 41.025 0.225
8.025 29.625 0.825
8.025 29.625 0.675
8.025 29.625 1.125
8.775 28.875 1.125
13.875 41.025 0.375
13.875 41.025 -0.525
15.375 40.725 -0.075
15.375 40.725 0.375
7.875 29.775 -0.525
10.725 40.575 0.375
14.025 41.025 -0.225
14.025 41.025 -1.125
14.025 41.025 0.525
17.025 39.975 -0.375
14.175 41.025 0.075
9.075 28.575 0.675
15.525 40.725 1.425
14.325 41.025 0.525
14.325 41.025 0.225
14.325 41.025 0.075
9.225 28.425 1.275
7.575 30.075 0.225
7.575 30.075 0.825
9.675 28.125 0.675
8.325 29.175 -3.225
12.075 41.025 1.275
8.175 29.325 0.375
8.175 29.325 0.525
8.175 29.325 2.025
8.025 29.475 0.825
8.025 29.475 1.275
8.025 29.475 -0.075
15.225 40.875 1.425
8.775 28.725 1.125
8.775 28.725 0.825
7.875 29.625 1.125
8.925 28.575 1.125
11.775 41.025 -0.825
15.375 40.875 -0.075
13.875 41.175 0.225
17.025 40.125 1.125
14.025 41.175 0.375
14.025 41.175 -0.975
14.175 41.175 0.525
8.175 29.175 0.525
7.425 30.075 0.525
9.225 28.275 1.125
9.225 28.275 0.975
9.225 28.275 1.275
7.875 29.475 0.825
7.875 29.475 0.675
7.875 29.475 -0.675
12.225 41.175 0.525
14.325 41.175 0.225
14.325 41.175 0.075
15.075 41.025 -0.525
8.775 28.575 0.825
12.075 41.175 -0.375
9.375 28.125 0.825
9.375 28.125 1.125
17.175 40.125 0.825
15.225 41.025 -3.075
7.575 29.775 0.225
11.925 41.175 1.275
19.725 37.275 -0.525
7.425 29.925 0.825
7.425 29.925 0.675
7.425 29.925 3.375
7.425 29.925 -3.375
9.075 28.275 1.725
9.525 27.975 0.825
15.375 41.025 0.075
15.375 41.025 0.525
8.325 28.875 -0.525
7.875 29.325 1.125
13.875 41.325 -0.075
9.225 28.125 1.125
11.625 41.175 0.825
7.725 29.475 0.075
7.725 29.475 0.375
9.675 27.825 0.525
9.675 27.825 2.625
14.175 41.325 -0.975
14.175 41.325 0.375
12.375 41.325 0.675
15.525 41.025 0.525
15.525 41.025 0.975
8.775 28.425 0.975
15.075 41.175 -0.075
11.475 41.175 0.825
9.375 27.975 0.975
9.375 27.975 0.825
17.175 40.275 0.675
7.425 29.775 0.375
15.225 41.175 0.225
15.225 41.175 0.075
7.275 29.925 2.175
7.275 29.925 0.675
9.075 28.125 1.425
9.075 28.125 1.125
9.075 28.125 1.275
14.625 41.325 -3.825
14.625 41.325 -0.825
6.075 32.625 1.425
11.775 41.325 1.575
15.375 41.175 0.075
15.375 41.175 1.275
9.975 27.525 0.675
11.625 41.325 2.325
11.625 41.325 1.575
12.525 41.475 0.825
11.025 41.175 0.825
17.175 40.425 0.225
9.375 27.825 0.675
9.375 27.825 0.525
11.475 41.325 1.125
14.325 41.475 0.525
8.175 28.725 -0.675
9.075 27.975 1.275
9.075 27.975 1.125
7.125 29.925 0.675
7.125 29.925 1.575
14.475 41.475 0.975
7.575 29.325 0.675
15.225 41.325 1.425
11.325 41.325 1.275
11.325 41.325 0.975
19.725 37.875 -1.275
10.425 41.025 1.575
9.225 27.825 0.825
9.225 27.825 0.225
7.275 29.625 0.225
7.275 29.625 0.375
7.275 29.625 2.475
11.175 41.325 -1.425
13.725 41.625 2.025
16.875 40.725 1.575
8.925 27.975 2.025
7.125 29.775 0.225
7.125 29.775 0.675
9.375 27.675 0.525
9.375 27.675 1.275
14.025 41.625 2.175
7.725 29.025 0.825
7.725 29.025 0.675
17.175 40.575 -0.375
15.525 41.325 -3.075
9.075 27.825 0.225
9.075 27.825 1.275
12.225 41.625 1.875
9.825 27.375 0.525
16.725 40.875 2.175
14.475 41.625 0.825
14.475 41.625 0.975
15.225 41.475 1.575
7.875 28.725 0.525
7.725 28.875 1.875
8.025 28.575 -1.575
15.375 41.475 0.675
9.975 27.225 0.825
14.775 41.625 1.425
11.775 41.625 1.725
7.575 29.025 0.825
7.575 29.025 2.175
16.875 40.875 1.725
12.975 41.775 0.375
12.975 41.775 0.975
8.925 27.825 0.975
6.975 29.775 0.975
6.975 29.775 0.375
13.725 41.775 0.525
12.825 41.775 -3.525
7.425 29.175 0.675
9.375 27.525 -0.225
13.875 41.775 0.975
11.625 41.625 0.975
14.025 41.775 0.975
14.025 41.775 0.225
12.525 41.775 1.875
11.025 41.475 0.525
9.075 27.675 0.675
14.175 41.775 0.375
12.375 41.775 1.725
11.475 41.625 1.125
8.775 27.825 1.425
7.725 28.725 1.875
7.425 29.025 0.825
8.925 27.675 0.675
8.925 27.675 0.225
8.925 27.675 0.825
6.825 29.775 1.125
15.375 41.625 0.975
9.375 27.375 0.075
8.475 27.975 -0.075
12.975 41.925 0.675
13.725 41.925 0.975
9.075 27.525 1.725
9.075 27.525 0.525
11.025 41.625 0.675
14.025 41.925 0.975
9.825 27.075 2.175
14.175 41.925 0.525
7.875 28.425 0.525
7.425 28.875 1.125
8.025 28.275 0.675
8.775 27.675 1.275
8.775 27.675 0.375
6.825 29.625 -0.675
14.325 41.925 -4.125
12.225 41.925 -2.625
8.925 27.525 1.125
8.925 27.525 0.825
6.675 29.775 2.025
14.625 41.925 -3.075
9.975 41.325 -0.975
10.725 41.625 1.725
15.375 41.775 -0.075
16.275 41.475 -3.675
9.075 27.375 1.425
6.825 29.475 1.125
6.825 29.475 0.825
6.825 29.475 1.425
13.425 42.075 1.875
13.425 42.075 0.975
13.575 42.075 0.825
7.425 28.725 6.675
7.875 28.275 0.225
7.875 28.275 0.525
7.875 28.275 0.975
13.725 42.075 0.975
13.725 42.075 0.825
13.725 42.075 1.125
13.725 42.075 0.525
13.725 42.075 0.675
15.975 41.625 -3.525
8.025 28.125 0.525
7.275 28.875 1.125
13.875 42.075 1.125
13.875 42.075 0.525
13.875 42.075 0.975
13.875 42.075 0.675
14.025 42.075 1.125
14.025 42.075 0.975
14.025 42.075 0.675
14.025 42.075 0.225
14.025 42.075 0.525
14.025 42.075 0.375
8.775 27.525 0.225
17.325 41.025 0.975
15.075 41.925 1.125
15.075 41.925 1.425
6.975 29.175 0.975
14.325 42.075 -3.375
14.325 42.075 0.975
14.325 42.075 0.525
14.325 42.075 0.375
12.225 42.075 1.425
15.225 41.925 1.275
15.225 41.925 1.425
6.825 29.325 1.275
14.475 42.075 1.575
17.175 41.175 0.975
7.425 28.575 1.575
14.625 42.075 1.275
14.625 42.075 -3.075
8.625 27.525 1.275
15.375 41.925 0.075
15.375 41.925 0.525
8.025 27.975 0.525
8.175 27.825 1.575
6.975 29.025 0.825
8.775 27.375 0.525
8.775 27.375 0.975
8.775 27.375 1.125
6.525 29.625 1.725
6.525 29.625 1.125
13.725 42.225 0.825
11.025 26.325 4.875
13.875 42.225 0.825
6.825 29.175 2.625
6.825 29.175 1.425
6.825 29.175 1.275
14.025 42.225 0.675
14.025 42.225 0.375
14.025 42.225 0.825
14.175 42.225 0.675
14.325 42.225 0.975
14.325 42.225 0.675
12.225 42.225 1.275
7.725 28.125 1.125
7.275 28.575 0.975
7.875 27.975 0.525
7.125 28.725 1.275
15.225 42.075 1.275
15.225 42.075 1.575
9.375 26.925 -1.125
12.075 42.225 1.875
12.075 42.225 1.725
14.475 42.225 0.675
17.175 41.325 1.275
6.525 29.475 1.275
6.525 29.475 1.125
8.625 27.375 0.375
8.025 27.825 0.375
11.925 42.225 1.875
6.825 29.025 3.075
15.375 42.075 0.075
11.775 42.225 -2.175
13.275 42.375 0.225
13.275 42.375 1.125
6.675 29.175 1.425
6.675 29.175 2.625
6.675 29.175 0.675
13.575 42.375 0.675
16.725 41.625 2.325
17.325 41.325 0.975
15.525 42.075 0.075
13.875 42.375 0.825
13.875 42.375 0.975
8.475 27.375 1.425
8.475 27.375 1.275
8.475 27.375 0.375
17.625 41.175 1.275
14.025 42.375 0.825
7.725 27.975 0.975
15.075 42.225 1.575
7.875 27.825 -0.225
14.175 42.375 0.525
10.425 41.925 -3.375
8.625 27.225 1.125
6.375 29.475 1.575
15.225 42.225 -0.525
15.225 42.225 -0.225
15.225 42.225 1.125
6.675 29.025 1.425
15.375 42.225 0.075
7.575 27.975 0.525
7.125 28.425 0.975
17.325 41.475 0.675
12.975 42.525 -3.675
12.975 42.525 -3.825
8.475 27.225 1.275
8.475 27.225 0.375
6.375 29.325 0.675
12.825 42.525 2.925
17.625 41.325 0.975
13.875 42.525 1.875
11.475 42.375 0.675
10.425 42.075 1.125
14.175 42.525 0.375
12.375 42.525 2.475
11.325 42.375 0.975
11.325 42.375 0.375
14.475 42.525 0.675
14.475 42.525 0.225
7.425 27.975 0.525
6.075 29.625 0.225
6.375 29.175 0.525
10.725 42.225 0.675
6.975 28.425 0.675
6.975 28.425 0.225
7.575 27.825 1.275
6.825 28.575 0.675
6.825 28.575 0.825
11.175 42.375 1.125
17.325 41.625 1.575
6.675 28.725 0.225
8.475 27.075 1.425
8.475 27.075 0.675
8.475 27.075 0.825
10.575 42.225 0.825
10.575 26.025 -0.225
17.625 41.475 0.825
17.625 41.475 0.525
8.025 27.375 0.675
13.575 42.675 -0.075
13.575 42.675 0.075
11.625 42.525 0.975
14.925 42.525 0.225
12.525 42.675 -3.225
15.075 42.525 2.025
11.475 42.525 1.125
7.125 28.125 -1.275
8.325 27.075 1.425
6.675 28.575 0.825
6.675 28.575 -0.975
6.675 28.575 0.975
14.475 42.675 0.675
6.525 28.725 0.975
6.525 28.725 -0.225
14.625 42.675 0.075
17.625 41.625 0.825
14.775 42.675 -0.075
14.775 42.675 0.375
14.775 42.675 0.525
17.925 41.475 0.825
17.925 41.475 0.375
13.575 42.825 0.375
7.425 27.675 0.675
13.725 42.825 0.525
17.175 41.925 1.875
6.675 28.425 0.825
13.875 42.825 0.825
14.025 42.825 0.975
8.325 26.925 -5.175
20.475 39.075 -2.325
17.775 41.625 1.125
14.325 42.825 0.675
6.225 28.875 0.675
6.675 28.275 0.525
7.425 27.525 0.375
7.425 27.525 0.675
7.425 27.525 0.825
14.775 42.825 -0.375
14.775 42.825 0.375
11.775 42.825 1.575
11.775 42.825 -4.725
6.525 28.425 0.825
6.525 28.425 3.975
6.375 28.575 0.075
6.375 28.575 0.525
6.375 28.575 0.975
12.975 42.975 -0.075
14.925 42.825 0.225
11.625 42.825 0.825
17.475 41.925 0.375
12.825 42.975 0.975
18.225 41.475 0.375
13.875 42.975 0.525
17.775 41.775 0.525
15.075 42.825 0.075
14.175 42.975 0.525
12.375 42.975 -0.075
6.075 28.875 0.525
14.325 42.975 0.825
14.325 42.975 2.025
14.325 42.975 -0.525
12.225 42.975 1.125
15.225 42.825 0.525
15.225 42.825 0.825
15.225 42.825 0.075
11.325 42.825 1.875
7.275 27.525 1.125
14.475 42.975 0.675
7.425 27.375 0.675
6.525 28.275 0.525
7.575 27.225 -0.225
6.375 28.425 0.375
6.375 28.425 0.825
14.625 42.975 0.075
6.225 28.575 1.725
6.225 28.575 0.375
6.225 28.575 1.125
13.425 43.125 0.825
13.725 43.125 -1.275
13.725 43.125 0.675
10.425 42.675 1.575
13.875 43.125 0.525
18.075 41.775 0.975
14.025 43.125 0.525
7.275 27.375 1.125
7.425 27.225 0.675
6.375 28.275 0.525
17.325 42.225 1.725
14.325 43.125 0.525
17.025 42.375 2.325
15.225 42.975 0.075
15.225 42.975 -0.075
6.225 28.425 1.575
6.225 28.425 0.825
14.475 43.125 0.525
14.475 43.125 0.675
6.075 28.575 0.375
15.375 42.975 0.225
14.625 43.125 0.375
8.325 26.475 1.275
5.925 28.725 0.375
14.775 43.125 0.375
17.475 42.225 0.075
15.525 42.975 0.825
15.525 42.975 0.375
6.375 28.125 1.425
13.425 43.275 0.375
8.025 26.625 0.975
18.075 41.925 0.975
7.425 27.075 0.675
6.225 28.275 0.525
15.075 43.125 1.275
15.075 43.125 -0.075
17.325 42.375 1.425
14.175 43.275 -2.925
15.225 43.125 0.075
15.825 42.975 0.225
18.825 41.475 2.025
14.475 43.275 1.125
8.325 26.325 1.275
7.125 27.225 0.975
7.125 27.225 1.425
11.925 43.275 1.425
10.575 42.975 0.825
7.275 27.075 1.575
17.475 42.375 0.825
17.775 42.225 1.725
17.775 42.225 0.825
16.875 42.675 2.475
15.525 43.125 1.425
15.525 43.125 0.825
7.425 26.925 0.675
15.525 43.125 0.525
7.425 26.925 -0.075
6.075 28.275 0.675
8.025 26.475 1.125
8.025 26.475 0.525
14.925 43.275 0.375
13.275 43.425 0.525
13.425 43.425 0.075
13.425 43.425 0.975
5.925 28.425 0.675
18.975 41.475 1.875
15.675 43.125 0.375
13.875 43.425 1.275
12.375 43.425 2.325
10.275 42.975 1.875
10.275 42.975 1.725
15.825 43.125 0.225
15.225 43.275 0.075
6.225 27.975 0.825
6.225 27.975 0.225
7.125 27.075 1.725
12.225 43.425 2.325
8.325 26.175 0.675
6.075 28.125 0.825
6.075 28.125 1.125
17.475 42.525 0.825
17.475 42.525 1.425
7.425 26.775 0.825
5.925 28.275 0.075
15.975 43.125 -0.375
17.775 42.375 0.825
15.525 43.275 1.275
6.825 27.225 -0.375
8.175 26.175 1.275
13.425 43.575 0.525
13.425 43.575 -0.075
6.975 27.075 0.825
15.675 43.275 1.725
17.325 42.675 -0.525
17.325 42.675 0.825
7.125 26.925 1.575
7.125 26.925 1.725
6.075 27.975 0.225
5.925 28.125 0.825
5.925 28.125 0.525
12.375 43.575 0.225
15.825 43.275 -0.075
15.825 43.275 0.825
14.325 43.575 -1.275
14.325 43.575 0.525
14.475 43.575 0.525
8.025 26.175 -0.675
15.975 43.275 0.225
18.975 41.775 1.725
7.575 26.475 1.725
7.575 26.475 2.475
14.625 43.575 0.375
6.825 27.075 0.675
6.825 27.075 0.375
11.025 43.425 3.525
11.775 43.575 1.275
5.925 27.975 2.775
5.925 27.975 0.675
17.625 42.675 -4.725
11.625 43.575 1.275
5.775 28.125 0.825
5.775 28.125 0.075
12.975 43.725 1.125
7.875 26.175 1.425
12.675 43.725 1.425
12.525 43.725 2.475
12.525 43.725 1.125
12.375 43.725 1.125
14.175 43.725 0.525
15.825 43.425 0.675
15.825 43.425 0.225
6.525 27.225 -0.525
5.175 28.875 0.675
14.325 43.725 0.525
14.325 43.725 0.375
7.575 26.325 1.875
17.475 42.825 0.975
17.475 42.825 1.125
6.825 26.925 0.675
4.875 29.325 -2.025
5.925 27.825 0.225
6.975 26.775 1.875
15.375 43.575 -1.575
15.975 43.425 -0.075
15.975 43.425 0.375
7.125 26.625 1.875
14.775 43.725 0.075
7.275 26.475 2.625
7.275 26.475 0.975
5.625 28.125 0.075
5.625 28.125 0.375
5.625 28.125 1.575
10.425 43.425 -0.225
17.625 42.825 1.875
17.325 42.975 0.825
7.875 26.025 1.125
6.675 26.925 1.125
13.875 43.875 -0.525
10.275 43.425 0.675
14.025 43.875 0.525
8.025 25.875 1.725
5.925 27.675 2.625
14.025 43.875 0.975
6.825 26.775 0.675
7.575 26.175 2.475
14.175 43.875 0.525
5.775 27.825 0.375
5.775 27.825 2.325
17.775 42.825 1.575
14.325 43.875 0.525
12.225 43.875 2.775
12.225 43.875 1.125
7.125 26.475 1.275
7.725 26.025 1.575
14.475 43.875 0.525
15.375 43.725 -1.725
15.975 43.575 0.225
14.625 43.875 -4.275
14.625 43.875 0.525
11.925 43.875 0.825
7.875 25.875 0.975
7.875 25.875 -2.175
7.875 25.875 1.125
17.625 42.975 1.575
14.775 43.875 2.175
14.775 43.875 0.525
7.425 26.175 1.275
5.325 28.275 1.125
5.925 27.525 -0.375
14.925 43.875 0.225
6.825 26.625 0.675
12.975 44.025 1.725
7.575 26.025 1.425
12.825 44.025 0.375
6.975 26.475 1.425
13.875 44.025 0.525
14.025 44.025 0.525
17.475 43.125 1.125
5.475 27.975 0.225
5.475 27.975 0.075
7.125 26.325 1.275
12.375 44.025 1.275
5.025 28.575 0.675
12.075 24.225 0.225
15.975 43.725 -0.975
5.925 27.375 1.425
6.525 26.775 1.275
7.875 25.725 1.125
14.625 44.025 0.375
7.425 26.025 1.875
7.425 26.025 1.275
5.175 28.275 1.125
17.625 43.125 1.425
17.625 43.125 1.275
17.625 43.125 1.125
6.825 26.475 0.825
5.625 27.675 1.275
5.625 27.675 2.175
14.775 44.025 0.375
5.475 27.825 1.125
5.475 27.825 1.425
6.975 26.325 1.125
14.925 44.025 0.075
14.925 44.025 0.225
13.425 44.175 1.125
5.325 27.975 0.975
7.125 26.175 2.175
13.575 44.175 1.125
13.575 44.175 0.675
13.575 44.175 0.825
16.275 43.725 -0.675
13.725 44.175 0.825
15.075 44.025 0.375
17.775 43.125 1.275
7.725 25.725 1.275
6.075 27.075 0.525
