# .PCD v0.7 - Point Cloud Data file format
VERSION 0.7
FIELDS x y z
SIZE 4 4 4
TYPE F F F
COUNT 1 1 1
WIDTH 2048
HEIGHT 1
VIEWPOINT 0 0 0 1 0 0 0
POINTS 2048
DATA ascii
-59.475 74.475 1.275
-59.475 74.325 1.875
-59.475 74.325 2.325
-59.625 74.475 0.975
-59.325 74.475 2.475
-59.475 74.625 2.475
-59.475 74.625 -1.275
-59.325 74.325 2.475
-59.325 74.325 3.075
-59.325 74.325 1.125
-59.625 74.325 2.625
-59.625 74.325 1.275
-59.625 74.625 0.225
-59.625 74.625 2.325
-59.625 74.625 0.525
-59.475 74.175 2.325
-59.475 74.175 2.475
-59.475 74.175 2.775
-59.475 74.175 1.725
-59.625 74.175 1.125
-59.325 74.775 2.025
-59.625 74.775 1.725
-59.625 74.775 2.175
-59.775 74.775 2.925
-59.775 74.775 2.475
-59.775 74.775 3.075
-59.175 74.775 1.725
-59.175 74.775 0.225
-59.175 74.775 2.025
-59.175 74.775 2.925
-59.475 74.025 2.025
-59.475 74.025 1.725
-59.475 74.025 2.925
-59.475 74.925 2.925
-59.325 74.025 1.725
-59.325 74.025 3.075
-59.925 74.325 3.225
-59.925 74.625 2.475
-59.925 74.625 2.775
-59.325 74.925 1.875
-59.175 74.025 2.475
-59.175 74.025 2.325
-59.925 74.175 2.325
-59.925 74.175 -0.975
-59.925 74.175 -0.075
-59.175 74.925 2.925
-59.175 74.925 1.725
-59.475 73.875 0.075
-59.475 73.875 2.625
-60.075 74.475 1.425
-59.475 75.075 1.875
-59.475 75.075 2.175
-59.625 73.875 0.525
-59.325 73.875 -0.225
-59.325 73.875 2.175
-59.625 73.875 2.625
-59.625 73.875 2.925
-59.325 73.875 1.725
-59.325 73.875 2.775
-58.875 74.325 3.075
-58.875 74.625 1.725
-58.875 74.625 2.175
-59.625 75.075 2.775
-59.325 75.075 1.875
-59.625 75.075 2.925
-59.325 75.075 2.025
-59.925 74.925 -0.825
-59.175 73.875 2.475
-58.875 74.175 2.775
-60.075 74.775 -0.675
-58.875 74.775 1.125
-59.175 75.075 0.975
-59.175 75.075 2.325
-59.175 75.075 1.875
-59.925 73.875 -0.075
-60.075 74.025 -0.375
-58.725 74.475 2.025
-58.725 74.475 1.725
-60.225 74.475 -0.525
-59.475 75.225 1.875
-58.875 74.925 0.375
-59.025 75.075 2.625
-59.025 75.075 1.275
-59.025 75.075 1.425
-59.325 75.225 1.275
-59.625 75.225 2.475
-58.725 74.625 1.125
-58.725 74.625 1.275
-59.775 73.725 3.525
-59.175 73.725 0.825
-59.175 73.725 1.575
-59.175 73.725 2.325
-59.175 75.225 2.025
-59.175 73.725 2.925
-60.225 74.775 -0.375
-58.875 73.875 2.175
-60.075 73.875 0.375
-60.075 73.875 1.125
-60.075 73.875 -0.075
-59.925 75.225 2.625
-59.925 73.725 0.375
-59.025 75.225 1.425
-60.225 74.925 0.225
-58.725 74.925 2.025
-59.025 73.725 2.625
-58.725 74.925 0.975
-59.025 73.725 2.475
-59.025 73.725 2.325
-59.025 73.725 0.375
-60.225 74.925 -0.375
-59.475 73.575 2.775
-59.475 73.575 0.225
-60.375 74.475 0.375
-58.575 74.475 1.725
-58.575 74.475 2.625
-58.575 74.475 0.525
-58.575 74.475 2.175
-59.475 75.375 1.725
-60.375 74.325 0.075
-58.575 74.325 2.625
-58.575 74.625 2.025
-58.575 74.625 1.725
-59.775 73.575 0.225
-59.775 73.575 0.375
-59.775 73.575 -0.075
-59.175 73.575 2.625
-59.175 73.575 2.925
-60.375 74.175 -1.125
-58.575 74.775 2.025
-59.775 75.375 2.175
-59.175 75.375 1.425
-59.175 75.375 1.275
-60.225 73.875 1.125
-58.725 73.875 2.325
-60.225 73.875 0.225
-60.075 73.725 -0.375
-58.875 75.225 2.025
-58.725 75.075 1.425
-58.725 75.075 2.475
-59.925 73.575 3.375
-60.375 74.025 0.675
-60.375 74.025 0.375
-59.025 73.575 -0.525
-59.025 73.575 2.325
-58.575 74.925 1.425
-58.575 74.925 1.725
-59.025 75.375 1.725
-59.025 75.375 1.875
-59.475 73.425 -0.675
-60.525 74.475 0.375
-58.425 74.475 1.275
-58.425 74.475 2.775
-58.425 74.475 1.425
-59.475 75.525 1.725
-59.325 73.425 2.625
-60.525 74.625 2.925
-60.225 75.225 2.475
-58.725 75.225 -0.825
-60.225 75.225 2.625
-58.425 74.325 0.675
-58.425 74.625 2.025
-59.325 75.525 1.575
-58.875 73.575 0.225
-58.875 73.575 2.475
-60.075 73.575 -0.225
-58.575 73.875 1.125
-60.375 73.875 -0.225
-60.375 73.875 -0.075
-60.375 73.875 0.975
-60.375 75.075 0.225
-60.375 75.075 2.625
-60.375 75.075 -0.225
-60.525 74.175 5.025
-60.525 74.175 -0.075
-59.775 73.425 3.825
-59.175 73.425 2.775
-59.175 73.425 3.225
-58.425 74.175 0.225
-58.425 74.775 2.025
-59.775 75.525 -0.225
-59.175 75.525 2.025
-59.925 73.425 -2.025
-58.425 74.925 1.575
-59.925 75.525 0.975
-58.725 73.575 2.475
-60.225 73.575 -0.225
-58.575 73.725 2.625
-58.575 73.725 2.475
-60.375 73.725 1.575
-58.725 75.375 2.025
-58.725 75.375 2.175
-59.475 73.275 0.075
-59.475 73.275 2.625
-60.675 74.475 1.125
-59.475 75.675 1.125
-59.475 75.675 1.425
-58.275 74.475 0.975
-58.275 74.475 0.825
-59.475 75.675 1.875
-58.275 74.475 1.575
-59.325 73.275 2.625
-60.525 73.875 0.675
-60.525 73.875 0.975
-60.675 74.625 2.775
-60.075 73.425 0.675
-58.875 73.425 2.475
-60.075 73.425 0.375
-58.275 74.325 2.775
-58.275 74.325 1.725
-58.275 74.325 2.475
-58.275 74.325 2.325
-58.275 74.325 1.125
-59.325 75.675 1.875
-59.625 75.675 1.425
-59.625 75.675 1.275
-58.275 74.625 2.025
-58.425 75.075 1.875
-58.425 75.075 2.625
-58.275 74.175 0.075
-58.275 74.175 1.725
-58.275 74.175 0.975
-59.775 75.675 1.425
-59.775 75.675 1.725
-59.775 75.675 2.925
-58.275 74.175 1.575
-59.175 75.675 1.275
-58.575 73.575 2.325
-59.925 73.275 -0.525
-60.675 74.025 0.375
-60.675 74.925 0.075
-60.675 74.925 2.775
-60.675 74.925 2.625
-58.275 74.025 2.025
-60.225 73.425 1.275
-58.725 73.425 2.625
-60.525 73.725 1.575
-58.725 73.425 2.775
-60.525 75.225 2.775
-60.525 73.725 1.425
-58.425 73.725 1.425
-58.875 73.275 2.925
-60.075 73.275 0.675
-60.675 73.875 0.675
-60.675 73.875 4.725
-60.675 73.875 1.125
-58.275 73.875 2.775
-58.275 73.875 1.875
-59.475 73.125 1.125
-60.825 74.475 0.225
-58.125 74.475 1.275
-60.825 74.475 4.125
-60.825 74.475 0.975
-60.825 74.475 0.525
-59.475 75.825 1.575
-59.625 73.125 -0.375
-59.325 73.125 -0.975
-59.625 73.125 -0.525
-59.625 73.125 0.375
-59.625 73.125 0.975
-59.625 73.125 1.125
-58.125 74.325 0.825
-58.125 74.325 1.425
-58.125 74.625 1.575
-60.825 74.625 1.725
-59.325 75.825 1.575
-59.625 75.825 0.975
-59.775 73.125 0.975
-59.775 73.125 4.275
-60.375 73.425 0.675
-58.425 73.575 2.325
-58.125 74.175 1.425
-60.825 74.175 1.575
-58.125 74.175 2.175
-60.525 75.375 3.675
-60.825 74.775 -0.375
-58.125 74.775 2.025
-58.125 74.775 2.175
-59.775 75.825 1.725
-59.775 75.825 0.975
-59.775 75.825 2.025
-59.775 75.825 2.175
-60.225 73.275 0.675
-60.225 73.275 1.125
-60.225 73.275 -0.225
-58.725 73.275 2.175
-58.725 73.275 2.475
-60.675 73.725 0.975
-60.675 73.725 0.675
-59.925 73.125 -0.225
-59.925 73.125 3.975
-59.025 73.125 -0.525
-59.025 73.125 -0.075
-59.025 73.125 2.625
-58.125 74.025 1.425
-58.125 74.025 2.025
-60.825 74.925 0.225
-59.925 75.825 1.725
-59.925 75.825 0.975
-59.925 75.825 2.025
-60.075 73.125 1.125
-60.075 73.125 0.675
-60.075 73.125 4.125
-60.825 73.875 1.275
-60.825 73.875 0.675
-58.125 73.875 1.575
-60.075 75.825 1.425
-60.075 75.825 1.725
-60.075 75.825 2.025
-60.525 73.425 0.675
-60.525 73.425 3.375
-58.425 73.425 1.725
-60.525 75.525 2.775
-60.525 75.525 2.475
-60.675 73.575 0.675
-57.975 74.475 2.025
-59.475 72.975 -0.825
-57.975 74.475 -0.375
-59.475 72.975 0.225
-60.975 74.475 0.975
-60.975 74.475 0.375
-57.975 74.325 2.175
-57.975 74.325 1.875
-60.975 74.325 2.925
-59.625 75.975 0.975
-59.625 72.975 -0.225
-59.625 72.975 1.575
-57.975 74.175 2.025
-57.975 74.175 1.425
-57.975 74.175 1.125
-59.775 72.975 -0.225
-59.775 72.975 1.575
-59.775 75.975 2.325
-59.775 72.975 2.025
-59.175 72.975 1.575
-58.725 73.125 2.175
-60.825 75.225 -0.225
-60.825 73.725 -0.375
-60.825 73.725 -0.225
-58.125 73.725 1.425
-60.975 74.025 -0.075
-60.975 74.025 1.275
-59.925 72.975 0.975
-59.925 72.975 -0.525
-59.925 72.975 0.675
-59.925 72.975 1.425
-59.925 75.975 2.325
-59.925 75.975 2.175
-59.025 75.975 -0.225
-59.025 72.975 -0.075
-58.425 73.275 2.925
-60.675 73.425 0.525
-60.675 73.425 1.125
-58.275 73.425 1.725
-60.525 75.675 3.525
-58.275 73.425 0.825
-60.675 75.525 -0.375
-60.675 75.525 -0.225
-60.675 75.525 2.925
-60.975 73.875 0.675
-60.975 73.875 -0.825
-60.075 75.975 2.175
-60.075 72.975 0.975
-57.975 75.075 2.625
-58.575 73.125 2.475
-58.575 73.125 2.625
-60.375 73.125 -0.075
-60.825 73.575 -0.075
-58.125 73.575 2.325
-57.825 74.475 2.175
-61.125 74.475 2.025
-59.475 76.125 2.175
-61.125 74.325 0.675
-61.125 74.325 -0.375
-61.125 74.325 1.425
-61.125 74.325 1.575
-61.125 74.325 0.975
-57.825 74.325 2.025
-59.775 72.825 -0.375
-59.775 72.825 -0.225
-57.825 74.175 2.025
-57.825 74.175 0.975
-61.125 74.175 0.375
-61.125 74.175 -0.225
-57.825 74.175 2.325
-60.225 72.975 1.125
-60.225 75.975 1.875
-57.975 75.225 3.075
-61.125 74.775 2.325
-58.275 75.675 1.425
-61.125 74.025 0.075
-61.125 74.025 -0.525
-60.825 73.425 3.825
-58.125 73.425 1.725
-61.125 74.925 -0.825
-60.525 75.825 2.775
-58.125 75.525 0.825
-60.975 73.575 -0.525
-60.975 73.575 -0.375
-60.975 73.575 -0.075
-58.575 72.975 2.625
-58.575 72.975 2.475
-60.375 72.975 1.125
-58.575 72.975 2.925
-58.875 72.825 0.225
-61.125 73.875 0.675
-61.125 73.875 0.825
-57.825 73.875 1.725
-61.125 75.075 -0.525
-60.075 76.125 2.475
-60.075 76.125 2.325
-59.475 72.675 1.125
-59.475 72.675 -0.525
-61.275 74.475 3.675
-61.275 74.475 1.125
-61.275 74.475 -0.225
-59.475 72.675 -0.075
-61.275 74.475 -0.375
-58.125 73.275 1.725
-58.125 73.275 1.425
-58.125 73.275 1.575
-61.275 74.325 2.625
-61.275 74.325 -0.675
-61.275 74.325 0.975
-59.625 72.675 2.775
-58.275 73.125 -0.075
-58.275 73.125 1.875
-60.825 75.675 2.475
-60.675 75.825 2.925
-61.125 75.225 -0.375
-61.125 73.725 -0.225
-61.125 73.725 4.125
-61.125 73.725 -0.375
-61.125 75.225 3.825
-57.825 73.725 1.425
-60.225 76.125 1.575
-60.225 76.125 2.025
-60.225 76.125 2.175
-60.225 76.125 1.275
-59.775 72.675 4.425
-61.275 74.175 -0.225
-61.275 74.775 2.625
-61.275 74.775 0.825
-57.675 74.175 1.575
-57.975 73.425 1.575
-57.975 73.425 2.025
-60.525 72.975 3.075
-60.975 73.425 -0.225
-60.975 73.425 -0.525
-58.425 75.975 1.575
-61.275 74.025 0.075
-61.275 74.025 -0.225
-61.275 74.925 -0.225
-61.275 74.925 2.625
-59.025 72.675 2.325
-57.675 74.025 2.175
-58.575 72.825 2.475
-60.375 72.825 -0.525
-57.825 73.575 1.875
-61.125 73.575 -0.225
-57.825 73.575 1.425
-61.125 75.375 -0.225
-60.375 76.125 2.175
-60.375 76.125 2.775
-61.275 73.875 -0.675
-60.075 72.675 0.225
-58.125 73.125 3.525
-60.825 75.825 2.325
-60.825 75.825 2.925
-60.675 72.975 2.175
-60.675 75.975 3.075
-58.275 72.975 -0.525
-58.275 72.975 -0.225
-60.975 75.675 2.925
-59.475 72.525 0.675
-58.725 72.675 1.125
-61.275 75.225 -0.225
-60.225 72.675 4.875
-60.225 76.275 2.025
-59.625 72.525 0.675
-59.325 72.525 1.275
-58.425 72.825 2.625
-61.425 74.625 1.275
-61.425 74.625 2.325
-61.425 74.625 0.825
-57.825 73.425 2.775
-57.825 73.425 1.725
-61.125 75.525 2.925
-59.775 72.525 0.675
-59.175 72.525 1.125
-59.175 72.525 0.375
-59.175 72.525 2.325
-59.175 72.525 3.975
-61.425 74.175 -0.075
-61.425 74.775 2.325
-61.425 74.775 0.525
-61.425 74.775 0.825
-59.925 72.525 -0.375
-59.925 72.525 -1.575
-59.025 72.525 1.125
-61.425 74.925 -0.675
-61.275 73.575 4.275
-58.575 72.675 1.125
-57.675 73.575 1.725
-61.275 75.375 -0.825
-57.975 73.125 1.425
-58.125 72.975 2.775
-60.825 72.975 2.775
-60.825 72.975 2.175
-60.825 75.975 3.525
-60.975 75.825 3.075
-60.075 72.525 0.075
-60.075 72.525 4.725
-60.075 72.525 -0.675
-58.875 72.525 1.125
-58.875 72.525 4.725
-60.675 72.825 2.325
-60.675 72.825 -0.075
-61.125 73.275 -2.925
-57.825 73.275 2.175
-57.825 73.275 3.075
-58.275 72.825 1.125
-57.525 73.875 1.275
-58.425 72.675 0.675
-57.675 73.425 1.725
-57.675 73.425 1.575
-61.425 75.225 0.975
-61.575 74.475 3.525
-61.575 74.475 -0.525
-61.575 74.475 -0.375
-59.625 72.375 -0.225
-59.325 72.375 0.675
-59.325 72.375 -1.425
-59.325 72.375 1.125
-61.575 74.325 -0.675
-61.575 74.325 -0.375
-61.575 74.625 0.825
-61.575 74.625 1.425
-59.775 72.375 -0.525
-59.175 72.375 0.225
-59.175 72.375 0.675
-59.175 72.375 0.975
-60.975 72.975 2.625
-60.975 75.975 3.075
-61.575 74.175 -0.225
-61.575 74.175 -0.825
-58.125 72.825 3.675
-58.125 72.825 1.875
-58.125 72.825 3.975
-57.825 73.125 1.575
-57.825 73.125 1.425
-57.825 73.125 1.725
-61.125 73.125 2.325
-57.825 75.825 3.225
-61.425 73.575 1.725
-59.925 72.375 -0.075
-59.025 72.375 4.575
-59.025 72.375 1.125
-59.025 72.375 0.675
-59.025 72.375 1.425
-61.425 75.375 2.025
-61.575 74.025 0.675
-61.575 74.025 -0.075
-58.575 76.425 4.425
-60.375 76.425 2.475
-60.375 76.425 2.775
-60.675 72.675 0.375
-57.675 73.275 2.175
-58.875 72.375 -0.675
-58.875 72.375 1.575
-61.575 73.875 -0.225
-61.575 75.075 3.825
-61.575 75.075 1.125
-60.525 72.525 3.375
-58.425 72.525 1.875
-58.425 72.525 0.675
-57.525 73.425 2.025
-57.975 72.825 2.775
-57.975 72.825 2.625
-57.975 72.825 2.325
-58.725 72.375 1.575
-58.725 72.375 -0.225
-61.575 75.225 0.825
-57.375 73.725 1.275
-60.225 76.575 0.225
-61.275 73.125 2.325
-58.125 72.675 2.325
-58.125 72.675 2.025
-57.675 73.125 2.025
-57.675 73.125 2.175
-57.675 73.125 3.075
-57.675 73.125 2.325
-59.475 72.225 -0.375
-60.825 76.275 3.375
-59.325 72.225 -0.525
-59.325 72.225 -0.075
-59.625 72.225 -0.375
-59.625 72.225 -0.075
-61.725 74.625 0.825
-59.775 72.225 -0.375
-61.725 74.175 -0.075
-61.725 74.175 0.225
-59.175 72.225 0.075
-59.175 72.225 0.825
-61.725 74.775 2.175
-58.575 72.375 2.775
-57.375 73.575 1.125
-61.575 73.575 -0.225
-60.375 76.575 2.925
-61.425 73.275 2.175
-61.425 73.275 2.025
-57.525 73.275 1.875
-57.525 73.275 2.325
-61.725 74.025 2.175
-59.925 72.225 -0.225
-61.725 73.875 -0.225
-60.075 72.225 -0.075
-61.725 75.075 1.425
-57.825 72.825 3.525
-61.125 76.125 3.225
-60.975 72.675 2.775
-60.975 72.675 3.375
-57.675 75.975 0.675
-57.675 72.975 1.725
-60.975 76.275 3.375
-60.975 76.275 3.075
-60.525 72.375 2.175
-60.525 72.375 2.475
-58.125 72.525 2.175
-60.825 72.525 1.725
-61.425 73.125 2.475
-57.525 73.125 1.875
-57.525 73.125 1.575
-57.525 73.125 1.725
-61.725 73.725 3.375
-61.725 75.225 0.825
-61.725 73.725 -0.225
-59.475 72.075 -0.525
-61.875 74.475 2.775
-59.625 72.075 2.025
-61.875 74.625 0.225
-61.875 74.625 0.825
-59.325 76.875 1.125
-59.175 72.075 3.675
-59.175 72.075 -0.075
-58.275 72.375 0.375
-61.875 74.175 0.225
-60.675 76.575 2.025
-58.575 72.225 0.975
-60.375 72.225 2.325
-60.375 76.725 0.525
-61.725 75.375 -0.225
-61.275 72.825 2.925
-61.125 72.675 2.475
-57.825 72.675 1.725
-57.825 72.675 2.025
-57.825 72.675 2.775
-57.675 72.825 2.325
-57.675 72.825 2.175
-57.975 72.525 2.625
-57.525 72.975 1.425
-57.525 72.975 1.275
-57.525 72.975 1.725
-57.525 72.975 2.025
-57.525 72.975 2.775
-57.525 72.975 2.625
-60.075 72.075 2.325
-60.075 72.075 3.825
-61.875 73.875 2.325
-61.875 75.075 0.825
-61.875 75.075 1.425
-60.525 76.725 0.675
-61.725 73.425 3.525
-58.425 72.225 2.475
-58.125 72.375 3.075
-61.575 75.825 -0.675
-60.225 72.075 3.975
-61.875 75.225 0.825
-61.875 75.225 0.525
-61.875 75.225 1.275
-61.275 72.675 3.225
-57.675 72.675 1.875
-57.675 72.675 1.725
-61.275 76.275 2.325
-57.225 73.275 1.125
-61.725 75.675 -0.375
-61.125 72.525 3.225
-57.525 72.825 2.775
-57.525 72.825 2.175
-57.525 72.825 1.575
-62.025 74.325 2.775
-62.025 74.325 3.975
-59.325 71.925 4.275
-59.325 71.925 0.975
-59.625 71.925 5.025
-59.625 71.925 -0.375
-59.625 71.925 2.175
-61.125 76.425 3.375
-62.025 74.175 3.075
-62.025 74.175 2.925
-62.025 74.175 4.275
-62.025 74.175 0.525
-59.175 71.925 0.825
-62.025 74.775 0.225
-57.975 72.375 2.325
-57.975 72.375 2.025
-61.575 75.975 2.775
-62.025 74.025 3.225
-62.025 74.025 2.175
-59.925 71.925 2.475
-59.025 71.925 0.825
-59.025 71.925 0.975
-62.025 74.925 -0.525
-62.025 73.875 3.225
-58.875 71.925 0.825
-58.875 71.925 1.275
-57.075 73.425 1.425
-57.075 73.425 1.125
-61.875 75.525 3.225
-60.525 76.875 2.175
-57.225 73.125 2.775
-61.275 72.525 2.175
-57.675 72.525 1.725
-61.425 72.675 3.375
-57.525 72.675 1.725
-62.025 75.225 1.275
-62.025 75.225 0.825
-62.025 75.225 0.525
-58.725 71.925 0.525
-58.725 71.925 0.825
-60.225 71.925 3.825
-57.825 72.375 2.025
-57.825 72.375 2.775
-57.375 72.825 1.275
-57.375 72.825 1.425
-57.375 72.825 1.875
-57.375 72.825 1.575
-61.125 76.575 4.125
-61.875 75.675 3.375
-61.875 75.675 -0.225
-59.475 71.775 0.075
-59.475 71.775 -0.375
-62.175 74.475 2.175
-59.625 71.775 0.525
-59.625 71.775 -0.525
-62.025 73.575 2.775
-62.175 74.325 3.675
-62.175 74.625 -0.375
-60.375 71.925 3.825
-62.025 75.375 1.275
-62.025 75.375 3.675
-62.025 75.375 0.975
-57.225 72.975 1.425
-61.725 75.975 3.075
-60.975 72.225 2.325
-59.775 71.775 -0.525
-59.175 71.775 -0.375
-62.175 74.775 0.075
-62.175 74.775 2.475
-62.175 74.775 -0.075
-62.175 74.925 0.375
-62.175 74.925 4.275
-58.125 72.075 -0.075
-60.825 72.075 1.725
-57.075 73.125 2.175
-61.875 75.825 -0.375
-61.875 75.825 0.375
-62.025 73.425 3.225
-58.425 71.925 -0.075
-61.425 76.425 3.225
-62.025 75.525 3.825
-60.075 71.775 3.975
-57.375 72.675 2.325
-57.375 72.675 1.575
-57.375 72.675 1.875
-57.375 72.675 3.075
-61.575 72.675 2.025
-57.225 72.825 2.325
-57.225 72.825 2.175
-57.225 72.825 -2.325
-57.225 72.825 1.125
-57.825 72.225 2.475
-57.825 72.225 1.875
-58.725 71.775 0.825
-62.175 75.225 0.825
-60.975 72.075 3.375
-60.975 72.075 2.925
-60.975 72.075 3.225
-57.975 72.075 4.425
-57.975 72.075 2.175
-61.875 75.975 2.475
-61.875 75.975 2.775
-61.875 75.975 2.925
-62.175 75.375 1.275
-62.175 75.375 2.625
-62.175 75.375 2.775
-62.325 74.475 2.625
-59.325 71.625 -0.075
-61.425 72.375 4.425
-57.375 72.525 1.575
-61.575 72.525 2.025
-57.525 72.375 0.975
-57.525 72.375 1.575
-62.325 74.175 3.075
-62.325 74.175 2.325
-62.325 74.175 3.525
-62.325 74.775 2.025
-61.575 76.425 2.475
-61.725 72.675 3.975
-61.275 72.225 2.925
-61.275 72.225 2.325
-57.675 72.225 2.775
-62.025 73.125 2.175
-62.025 73.125 2.775
-58.125 71.925 3.525
-62.025 75.825 -0.525
-62.325 74.925 2.475
-62.325 74.925 -0.375
-60.825 77.025 2.325
-62.175 75.525 2.925
-60.525 77.175 1.125
-57.825 72.075 2.175
-57.825 72.075 2.475
-62.325 73.875 2.925
-62.325 75.225 0.825
-62.325 75.225 -0.075
-62.325 75.225 2.625
-58.275 71.775 -0.075
-58.275 71.775 1.275
-62.175 75.675 2.925
-57.975 71.925 3.075
-57.975 71.925 0.225
-60.975 71.925 0.225
-62.025 72.975 2.175
-56.925 75.975 -1.125
-61.575 72.375 1.275
-57.375 72.375 2.175
-57.375 72.375 1.575
-61.575 72.375 0.375
-57.225 72.525 1.575
-57.225 72.525 1.875
-57.225 72.525 1.725
-57.225 72.525 2.475
-57.225 72.525 2.325
-61.725 76.425 3.675
-58.575 71.625 3.825
-62.325 73.575 3.075
-61.275 72.075 2.325
-57.675 72.075 2.775
-57.075 72.675 3.525
-57.075 72.675 1.575
-62.475 74.475 2.925
-62.475 74.475 2.325
-61.275 76.875 3.525
-61.275 76.875 2.775
-61.875 76.275 3.675
-62.475 74.325 3.225
-62.475 74.625 2.025
-62.475 74.175 3.225
-62.475 74.175 2.925
-62.475 74.175 -1.125
-59.175 71.475 2.925
-59.175 71.475 0.075
-62.475 74.775 2.475
-62.475 74.775 2.175
-58.125 71.775 2.925
-58.125 71.775 1.125
-62.175 73.125 1.875
-60.825 77.175 2.175
-59.925 71.475 3.375
-59.925 71.475 1.425
-59.025 71.475 4.725
-61.125 71.925 3.675
-61.125 71.925 2.325
-62.025 76.125 2.475
-62.325 75.525 2.775
-58.875 71.475 0.675
-57.225 72.375 3.075
-57.225 72.375 1.575
-57.375 72.225 1.575
-57.375 72.225 2.925
-61.575 76.725 2.625
-57.975 71.775 1.125
-62.175 75.975 2.475
-62.175 75.975 -0.675
-60.975 77.175 2.475
-57.075 72.525 1.575
-57.075 72.525 1.725
-57.075 72.525 6.225
-60.675 71.625 3.375
-60.675 71.625 3.225
-58.275 71.625 1.125
-58.275 71.625 0.825
-62.325 73.275 1.575
-62.475 75.225 0.825
-62.475 73.725 2.925
-62.475 73.725 2.775
-60.225 71.475 0.075
-58.725 71.475 -0.075
-58.725 71.475 -0.225
-61.425 76.875 2.475
-62.325 75.675 2.775
-60.675 77.325 -2.475
-62.025 72.675 2.175
-57.675 71.925 3.225
-62.025 76.275 2.625
-62.025 76.275 -1.125
-62.475 73.575 2.325
-62.475 73.575 2.925
-56.475 73.575 3.525
-60.375 71.475 3.375
-62.475 75.375 2.625
-62.475 75.375 3.375
-58.125 71.625 1.125
-58.125 71.625 1.575
-58.125 71.625 1.725
-58.125 71.625 2.925
-60.825 71.625 1.575
-60.825 71.625 3.375
-62.625 74.325 2.625
-62.325 73.125 2.325
-62.325 73.125 2.775
-62.325 73.125 2.625
-60.825 77.325 3.075
-57.825 71.775 1.275
-59.175 71.325 1.875
-62.175 76.125 2.325
-62.625 74.775 1.875
-62.475 73.425 2.775
-62.475 73.425 3.675
-59.025 71.325 0.525
-62.625 74.025 2.325
-62.625 74.025 2.625
-62.625 74.925 -0.375
-61.725 76.725 3.375
-57.225 72.225 2.625
-57.375 72.075 -1.575
-57.075 72.375 2.625
-57.075 72.375 2.025
-61.875 72.375 2.025
-57.075 72.375 1.725
-61.875 72.375 1.575
-61.875 76.575 2.625
-58.875 71.325 5.175
-58.875 71.325 0.225
-62.625 73.875 1.275
-62.625 73.875 2.325
-62.625 75.075 -0.225
-62.025 72.525 3.675
-62.025 72.525 2.175
-56.925 72.525 1.575
-56.925 72.525 2.625
-57.525 71.925 1.725
-57.525 71.925 3.225
-57.525 71.925 2.625
-57.525 71.925 2.475
-61.425 77.025 2.625
-57.975 71.625 3.075
-57.975 71.625 2.625
-57.975 71.625 2.175
-60.975 71.625 1.725
-62.325 72.975 1.875
-62.325 72.975 2.475
-62.325 75.975 -0.525
-62.325 75.975 2.625
-60.975 77.325 2.175
-56.475 73.275 4.725
-62.475 73.275 1.875
-62.475 75.675 0.075
-62.475 75.675 2.625
-58.725 71.325 4.575
-62.625 75.225 3.225
-62.625 75.225 3.075
-62.625 75.225 2.325
-62.625 73.725 2.325
-62.625 73.725 1.725
-62.175 72.675 2.325
-61.275 77.175 2.475
-62.625 73.575 2.325
-62.625 73.575 2.175
-62.625 75.375 0.375
-62.625 75.375 2.175
-61.875 72.225 -0.675
-57.075 72.225 1.425
-60.825 71.475 1.425
-60.825 71.475 2.175
-62.475 75.825 2.775
-62.475 75.825 3.075
-61.725 76.875 2.625
-61.125 71.625 3.375
-61.125 77.325 2.325
-62.025 72.375 1.725
-62.025 72.375 2.325
-59.325 71.175 2.625
-57.375 71.925 -0.375
-56.925 72.375 1.875
-59.775 71.175 2.775
-59.175 71.175 2.775
-62.775 74.775 -0.525
-62.775 74.775 0.825
-62.625 75.525 -0.825
-62.175 72.525 1.275
-57.525 71.775 3.225
-57.525 71.775 1.875
-56.775 72.525 2.925
-62.775 74.025 2.325
-59.925 71.175 3.075
-62.775 74.925 2.025
-59.025 71.175 1.875
-61.425 77.175 2.325
-62.775 73.875 2.625
-58.875 71.175 -0.225
-62.775 75.075 -0.075
-60.975 77.475 2.475
-60.975 77.475 2.325
-62.475 72.975 2.475
-62.475 72.975 2.175
-60.975 71.475 1.575
-62.475 75.975 2.775
-62.475 75.975 -0.375
-57.975 71.475 3.075
-60.675 71.325 3.075
-62.625 73.275 2.625
-62.625 73.275 1.275
-62.625 75.675 2.625
-62.325 72.675 1.125
-60.675 77.625 5.025
-62.325 76.275 2.775
-60.225 71.175 3.525
-57.075 72.075 3.075
-57.075 72.075 -0.825
-62.025 76.725 2.025
-62.025 76.725 3.075
-57.225 71.925 1.275
-62.025 72.225 3.075
-56.925 72.225 1.725
-56.925 72.225 1.875
-61.725 77.025 2.625
-57.375 71.775 2.475
-62.775 73.575 1.575
-56.775 72.375 2.775
-61.575 77.175 2.475
-61.125 71.475 -3.525
-62.475 76.125 0.675
-60.825 71.325 3.075
-60.825 71.325 3.375
-60.825 71.325 1.425
-62.625 73.125 1.425
-62.625 73.125 2.625
-62.625 73.125 2.775
-62.625 75.825 -0.525
-62.625 75.825 2.775
-60.825 77.625 0.975
-60.825 77.625 1.425
-62.925 74.475 2.775
-61.425 71.625 2.175
-59.175 71.025 -4.575
-59.175 71.025 2.775
-62.925 74.175 2.175
-62.775 73.425 2.775
-58.425 71.175 0.075
-62.775 75.525 0.075
-62.775 75.525 3.525
-59.025 71.025 4.875
-62.925 74.025 2.325
-60.975 71.325 2.475
-60.975 71.325 2.925
-60.975 71.325 1.875
-57.975 71.325 4.125
-62.625 75.975 -0.075
-62.625 75.975 0.825
-62.475 72.675 2.025
-62.475 72.675 1.425
-58.875 71.025 4.425
-60.075 71.025 2.625
-60.075 71.025 3.375
-60.075 71.025 2.475
-62.925 73.875 1.725
-62.925 73.875 1.575
-62.925 75.075 2.175
-56.925 72.075 1.575
-56.925 72.075 1.125
-56.925 72.075 1.875
-56.925 72.075 1.425
-62.025 76.875 3.075
-62.025 76.875 2.325
-62.025 76.875 4.275
-62.775 73.275 0.675
-62.775 75.675 -0.525
-62.775 75.675 2.625
-57.225 71.775 2.925
-57.225 71.775 1.875
-62.175 76.725 -0.225
-56.775 72.225 1.725
-56.775 72.225 1.875
-62.925 73.725 2.025
-62.925 73.725 1.725
-62.925 73.725 2.325
-57.375 71.625 1.875
-56.625 72.375 2.325
-61.575 77.325 2.325
-61.125 71.325 1.575
-60.375 71.025 3.525
-58.575 71.025 2.325
-62.925 73.575 1.425
-62.775 73.125 1.425
-62.775 73.125 0.825
-62.775 73.125 2.775
-62.925 75.375 2.025
-62.925 75.375 -0.075
-60.825 71.175 2.925
-58.125 71.175 0.075
-58.125 71.175 -0.225
-60.825 77.775 2.925
-61.425 77.475 1.875
-61.425 77.475 2.775
-61.425 71.475 2.325
-59.325 70.875 2.475
-59.625 70.875 2.925
-63.075 74.325 4.125
-60.525 71.025 2.325
-62.925 73.425 1.275
-62.025 77.025 2.625
-57.075 71.775 3.375
-56.775 72.075 1.425
-56.775 72.075 1.725
-56.775 72.075 2.025
-56.775 72.075 1.575
-62.775 75.975 0.675
-60.975 71.175 2.325
-60.975 71.175 1.875
-62.775 72.975 1.425
-57.675 71.325 3.825
-63.075 74.025 1.725
-62.625 76.275 0.675
-62.625 76.275 0.375
-62.625 76.275 1.125
-57.225 71.625 1.575
-57.225 71.625 2.325
-61.725 71.625 0.975
-62.325 72.225 1.725
-56.625 72.225 2.175
-56.625 72.225 2.775
-56.625 72.225 1.875
-58.875 70.875 2.625
-58.875 70.875 0.675
-58.875 70.875 0.375
-60.075 70.875 3.375
-63.075 73.875 1.875
-63.075 73.875 -0.075
-63.075 73.875 1.725
-60.675 71.025 3.075
-60.675 71.025 2.775
-58.275 71.025 0.075
-62.925 73.275 0.975
-62.925 73.275 1.125
-62.925 75.675 2.325
-56.475 72.375 2.925
-56.475 72.375 2.475
-61.575 77.475 1.725
-62.475 76.575 2.175
-62.475 76.575 2.325
-58.725 70.875 3.225
-63.075 73.725 2.025
-63.075 73.725 1.725
-63.075 73.725 1.125
-63.075 73.725 1.875
-62.775 72.825 1.875
-61.125 71.175 1.875
-62.775 76.125 0.675
-62.775 76.125 -0.075
-60.825 71.025 2.175
-60.825 71.025 2.475
-58.125 71.025 -0.075
-58.125 71.025 1.575
-62.925 73.125 1.425
-62.625 76.425 0.975
-61.425 77.625 2.475
-61.425 77.625 1.875
-58.575 70.875 0.375
-58.575 70.875 -0.525
-60.375 70.875 3.075
-60.375 70.875 2.025
-60.375 70.875 2.475
-63.075 73.575 1.725
-63.075 73.575 1.575
-63.075 73.575 2.475
-63.075 75.375 2.325
-63.075 75.375 2.775
-56.925 71.775 2.025
-56.775 71.925 1.425
-62.175 77.025 2.175
-57.075 71.625 3.225
-57.075 71.625 1.125
-56.625 72.075 2.025
-56.625 72.075 1.575
-56.625 72.075 1.725
-56.625 72.075 1.875
-62.325 76.875 2.025
-60.525 70.875 3.225
-60.525 70.875 -0.675
-58.425 70.875 0.525
-58.425 70.875 -0.225
-58.425 70.875 1.125
-56.475 72.225 2.625
-62.475 76.725 -0.225
-62.475 72.225 1.725
-63.075 73.425 2.325
-63.075 75.525 2.475
-63.075 75.525 -2.475
-63.225 74.325 2.025
-59.625 70.725 3.075
-59.625 70.725 2.625
-62.775 76.275 1.275
-60.975 71.025 1.875
-57.975 71.025 -0.225
-63.225 74.175 1.575
-63.225 74.175 2.175
-59.775 70.725 2.625
-55.725 74.775 1.575
-63.225 74.775 3.225
-63.225 74.775 3.375
-63.225 74.025 1.275
-63.225 74.025 1.875
-63.225 74.025 2.175
-59.925 70.725 2.025
-55.725 74.925 3.375
-61.575 71.325 0.525
-62.625 76.575 0.825
-60.675 70.875 2.175
-60.675 70.875 2.025
-58.275 70.875 -0.225
-58.275 70.875 5.025
-58.275 70.875 0.975
-63.075 73.275 0.075
-63.075 73.275 2.475
-63.075 75.675 -0.375
-63.075 75.675 2.775
-63.225 73.875 2.025
-58.875 70.725 0.375
-58.875 70.725 3.075
-58.875 70.725 2.775
-60.075 70.725 2.475
-63.225 75.075 -2.025
-62.175 71.775 2.025
-56.775 71.775 2.025
-62.175 77.175 2.925
-62.175 77.175 2.175
-56.925 71.625 3.075
-56.925 71.625 2.475
-56.925 71.625 3.225
-62.925 76.125 0.675
-62.925 76.125 -0.075
-56.625 71.925 2.175
-56.625 71.925 1.425
-62.325 71.925 1.425
-63.225 73.725 2.475
-63.225 73.725 1.575
-63.225 73.725 1.725
-58.725 70.725 -0.375
-58.725 70.725 2.775
-60.225 70.725 2.925
-62.025 77.325 1.725
-61.425 71.175 -0.225
-57.525 71.175 -0.825
-57.525 71.175 1.125
-56.475 72.075 2.025
-57.075 71.475 2.175
-58.125 70.875 0.975
-58.125 70.875 1.425
-58.125 70.875 0.675
-58.125 70.875 1.575
-58.125 70.875 -0.375
-60.825 70.875 2.925
-63.075 75.825 -0.675
-63.225 75.375 2.325
-57.225 71.325 3.225
-57.225 71.325 3.075
-62.625 76.725 2.625
-62.925 72.675 2.175
-58.425 70.725 1.575
-63.225 75.525 3.075
-59.475 70.575 2.025
-57.975 70.875 -0.225
-57.975 70.875 0.975
-57.975 70.875 -0.075
-63.075 72.975 0.675
-63.075 75.975 -3.375
-63.075 75.975 2.325
-63.075 75.975 2.625
-59.625 70.575 2.625
-59.325 70.575 2.625
-59.625 70.575 2.025
-63.375 74.325 1.425
-55.575 74.625 1.575
-59.175 70.575 2.625
-63.375 74.175 2.175
-63.375 74.175 1.425
-57.375 71.175 -0.825
-57.375 71.175 -0.975
-63.375 74.775 1.275
-63.375 74.775 2.925
-59.925 70.575 2.775
-59.025 70.575 2.625
-59.025 70.575 1.125
-56.625 71.775 2.175
-56.625 71.775 1.125
-56.775 71.625 1.875
-56.775 71.625 0.375
-56.775 71.625 3.075
-62.175 77.325 2.175
-56.475 71.925 1.425
-56.475 71.925 1.575
-60.675 70.725 2.625
-60.675 70.725 0.225
-58.275 70.725 3.225
-58.275 70.725 -2.325
-56.925 71.475 2.325
-60.075 70.575 2.925
-58.875 70.575 2.925
-60.075 70.575 1.275
-63.375 73.875 1.275
-63.375 73.875 2.025
-63.375 75.075 2.475
-63.375 75.075 1.125
-56.325 72.075 2.925
-56.325 72.075 0.075
-56.325 72.075 2.625
-57.825 70.875 -0.375
-63.075 76.125 0.825
-61.875 77.625 1.875
-57.525 71.025 1.125
-62.925 76.425 2.325
-58.725 70.575 2.625
-58.725 70.575 1.425
-63.375 73.725 2.325
-63.375 73.725 1.875
-63.375 73.725 1.275
-63.375 75.225 1.125
-63.375 75.225 2.475
-63.375 75.225 1.575
-63.375 75.225 2.175
-58.125 70.725 1.125
-63.225 75.825 2.625
-62.775 76.725 -0.825
-57.225 71.175 1.125
-61.725 77.775 1.725
-60.375 70.575 1.575
-60.375 70.575 2.175
-58.575 70.575 3.825
-58.575 70.575 1.725
-58.575 70.575 -0.375
-63.375 73.575 0.525
-63.375 73.575 1.125
-63.375 75.375 -0.525
-57.675 70.875 0.525
-63.075 76.275 -0.225
-56.625 71.625 0.675
-56.625 71.625 2.775
-62.325 77.325 -0.675
-56.775 71.475 3.225
-56.775 71.475 0.675
-62.475 77.175 2.325
-60.525 70.575 2.175
-60.525 70.575 1.875
-57.375 71.025 1.425
-57.375 71.025 1.575
-57.375 71.025 0.675
-57.375 71.025 1.125
-62.925 72.375 4.425
-63.375 73.425 0.075
-63.225 75.975 2.175
-63.225 75.975 0.525
-57.975 70.725 -0.225
-55.725 72.975 2.325
-62.925 76.575 1.575
-63.375 75.525 2.175
-63.375 75.525 1.875
-63.525 74.475 2.025
-63.525 74.475 2.475
-63.525 74.475 0.675
-59.475 70.425 2.625
-59.475 70.425 3.225
-59.475 70.425 3.825
-56.925 71.325 3.225
-56.325 71.925 1.875
-56.325 71.925 1.575
-56.325 71.925 3.075
-63.525 74.325 1.575
-63.525 74.625 2.775
-62.025 77.625 2.025
-59.775 70.425 2.925
-59.775 70.425 2.775
-63.525 74.775 2.925
-63.525 74.025 1.875
-59.025 70.425 2.925
-59.025 70.425 2.625
-60.675 70.575 1.725
-57.075 71.175 1.125
-62.775 76.875 2.775
-62.775 76.875 2.325
-62.775 76.875 -0.075
-63.525 75.075 -0.675
-55.725 72.825 2.625
-63.225 76.125 1.875
-63.525 75.225 2.325
-63.525 75.225 1.725
-63.525 75.225 0.825
-63.525 73.725 1.275
-58.725 70.425 -0.075
-60.225 70.425 3.075
-58.125 70.575 -0.225
-60.825 70.575 1.725
-63.375 75.825 2.625
-56.475 71.625 1.725
-56.475 71.625 2.175
-56.475 71.625 1.425
-62.475 77.325 3.225
-62.475 77.325 2.325
-56.325 71.775 1.425
-56.775 71.325 3.075
-63.525 73.575 0.675
-60.375 70.425 6.375
-60.375 70.425 2.775
-60.375 70.425 2.475
-60.375 70.425 2.625
-60.375 70.425 2.325
-60.375 70.425 1.725
-58.575 70.425 2.475
-63.525 75.375 1.575
-63.225 72.675 0.825
-57.675 70.725 -0.525
-57.675 70.725 2.925
-63.225 76.275 -0.975
-63.225 76.275 0.675
-63.225 76.275 0.375
-63.225 76.275 -0.225
-56.175 71.925 3.225
-62.775 77.025 0.075
-63.375 75.975 2.775
-58.425 70.425 4.125
-58.425 70.425 3.075
-63.525 75.525 2.175
-63.525 75.525 -0.075
-63.525 75.525 1.725
-59.475 70.275 2.925
-63.675 74.475 1.875
-59.625 70.275 2.925
-59.625 70.275 2.775
-63.675 74.325 1.725
-63.675 74.625 1.725
-63.675 74.625 2.775
-62.925 76.875 -0.825
-59.775 70.275 3.075
-63.675 74.175 1.575
-63.675 74.775 2.625
-59.925 70.275 2.775
-63.525 73.275 5.175
-63.675 74.025 1.725
-60.675 70.425 2.775
-58.275 70.425 1.725
-63.225 76.425 2.775
-57.825 70.575 2.475
-55.575 72.825 1.875
-63.675 73.875 0.375
-63.675 75.075 2.325
-56.475 71.475 2.175
-56.475 71.475 2.475
-56.475 71.475 1.425
-56.625 71.325 2.175
-56.325 71.625 1.425
-62.625 77.325 2.925
-62.625 77.325 2.625
-56.175 71.775 1.725
-56.175 71.775 2.325
-60.225 70.275 2.625
-63.675 75.225 2.925
-63.675 73.725 2.775
-58.125 70.425 0.675
-62.925 77.025 -0.675
-63.375 76.275 1.125
-63.375 76.275 0.675
-63.225 76.575 2.775
-63.525 75.975 2.775
-63.525 75.975 2.625
-58.425 70.275 2.325
-58.425 70.275 2.475
-63.675 75.525 -0.825
-63.675 75.525 1.725
-56.475 71.325 2.025
-56.325 71.475 3.225
-56.325 71.475 1.875
-56.325 71.475 2.475
-62.625 77.475 2.625
-62.475 77.625 2.475
-63.825 74.325 2.775
-62.775 71.625 -1.725
-56.625 71.175 3.375
-62.325 71.175 4.425
-63.375 76.425 0.825
-63.375 76.425 -0.825
-63.825 74.175 2.775
-63.825 74.175 0.825
-63.825 74.175 1.575
-63.825 74.775 2.775
-62.325 77.775 2.475
-60.675 70.275 2.625
-63.675 73.275 1.875
-63.675 75.675 1.725
-59.925 70.125 2.325
-59.925 70.125 2.775
-63.525 76.125 1.875
-62.925 71.775 3.375
-56.025 71.775 2.325
-62.925 77.175 2.325
-60.075 70.125 2.025
-60.075 70.125 1.275
-60.075 70.125 2.625
-58.875 70.125 1.875
-63.825 73.875 1.125
-63.825 73.875 2.325
-63.825 75.075 2.775
-62.025 70.875 2.625
-63.675 75.825 0.225
-63.675 75.825 -0.825
-55.875 71.925 4.125
-63.825 75.225 2.925
-63.375 76.575 -0.675
-63.525 76.275 0.375
-63.525 76.275 0.675
-63.525 76.275 1.875
-55.425 72.675 -1.275
-60.375 70.125 2.325
-60.375 70.125 2.175
-63.825 75.375 -0.075
-61.875 70.725 2.175
-63.225 76.875 -0.525
-56.325 71.325 2.475
-63.675 75.975 2.925
-62.775 77.475 2.775
-56.475 71.175 0.975
-56.475 71.175 0.675
-56.475 71.175 3.225
-56.175 71.475 1.725
-56.175 71.475 2.925
-56.175 71.475 2.325
-56.175 71.475 2.475
-56.175 71.475 2.175
-62.475 77.775 2.175
-58.425 70.125 2.925
-58.425 70.125 2.625
-58.425 70.125 1.875
-57.525 70.425 3.375
-55.875 71.775 3.225
-56.775 70.875 2.625
-63.975 74.475 2.475
-63.975 74.475 2.025
-63.975 74.475 2.175
-63.075 77.175 -0.075
-62.175 78.075 2.325
-63.375 76.725 2.625
-63.375 72.225 4.125
-63.975 74.625 2.925
-59.625 69.975 2.325
-59.325 69.975 3.375
-59.325 69.975 2.025
-61.725 78.375 2.025
-61.725 78.375 2.475
-63.975 74.175 1.875
-59.775 69.975 -1.875
-57.825 70.275 -0.075
-63.675 76.125 2.475
-63.975 74.025 2.025
-63.975 74.025 1.275
-59.925 69.975 0.975
-59.925 69.975 2.175
-59.025 78.975 1.425
-55.725 71.925 3.375
-63.225 77.025 1.875
-63.225 77.025 -0.375
-63.975 75.075 3.525
-63.825 75.825 -0.675
-63.825 75.825 3.225
-56.325 71.175 1.725
-56.325 71.175 2.325
-56.325 71.175 2.175
-56.175 71.325 1.725
-56.175 71.325 2.475
-57.375 70.425 3.225
-60.225 69.975 1.575
-63.975 75.225 2.925
-57.675 70.275 1.575
-62.925 77.475 1.425
-56.025 71.475 1.725
-56.025 71.475 3.075
-56.025 71.475 2.475
-57.075 70.575 2.475
-63.375 76.875 0.825
-55.875 71.625 2.175
-55.875 71.625 2.775
-63.075 77.325 2.025
-63.075 77.325 -0.375
-63.075 77.325 -0.525
-57.975 70.125 1.125
-60.525 69.975 1.575
-60.525 69.975 0.525
-60.525 69.975 2.775
-63.975 73.425 2.475
-58.425 69.975 2.475
-63.225 77.175 -0.525
-63.525 76.725 -0.225
-63.525 76.725 -0.075
-63.525 76.725 2.775
-59.475 69.825 1.875
-64.125 74.475 1.725
-64.125 74.475 2.025
-64.125 74.475 1.425
-59.625 69.825 3.075
-57.825 70.125 1.125
-64.125 74.325 0.825
-64.125 74.325 1.425
-64.125 74.625 1.725
-64.125 74.625 1.425
-64.125 74.625 2.325
-63.975 75.675 -0.375
-63.975 75.675 2.475
-59.775 69.825 1.875
-62.025 70.575 2.325
-59.175 69.825 3.225
-64.125 74.175 1.575
-64.125 74.175 1.725
-64.125 74.175 1.875
-63.375 77.025 0.825
-63.375 77.025 0.525
-63.375 77.025 1.275
-56.175 71.175 1.575
-56.175 71.175 2.025
-62.775 77.775 2.025
-56.325 71.025 1.575
-59.925 69.825 2.625
-56.025 71.325 1.575
-56.025 71.325 1.275
-56.025 71.325 2.025
-56.025 71.325 2.175
-56.025 71.325 2.325
-56.025 71.325 2.475
-55.875 71.475 2.925
-55.875 71.475 2.325
-64.125 75.075 3.075
-64.125 75.075 3.375
-63.675 76.575 0.225
-63.675 76.575 -0.525
-63.675 76.575 -0.225
-63.525 76.875 2.625
-63.525 76.875 0.825
-61.875 78.525 2.175
-58.725 69.825 3.825
-64.125 75.225 3.675
-60.375 69.825 1.725
-60.375 69.825 2.775
-56.775 70.575 1.425
-63.375 77.175 0.225
-57.225 70.275 3.525
-57.525 70.125 0.975
-57.525 70.125 1.575
-57.525 70.125 1.425
-57.525 70.125 0.675
-63.825 76.425 2.325
-56.025 71.175 1.575
-56.025 71.175 2.475
-56.025 71.175 3.225
-56.025 71.175 1.875
-62.775 77.925 2.775
-62.925 77.775 2.175
-55.875 71.325 2.775
-55.875 71.325 2.025
-55.875 71.325 2.475
-63.075 77.625 2.775
-55.425 71.925 2.775
-63.525 77.025 2.475
-63.525 77.025 -0.225
-63.525 77.025 1.275
-62.025 78.525 1.875
-57.825 69.975 -0.225
-59.475 69.675 1.875
-59.475 69.675 1.725
-59.475 69.675 2.025
-64.275 74.475 2.175
-58.275 69.825 2.175
-58.275 69.825 2.625
-59.625 69.675 1.725
-59.625 69.675 1.875
-59.625 69.675 2.625
-64.275 74.325 0.975
-64.275 74.325 1.875
-64.275 74.625 0.975
-59.775 69.675 2.775
-59.775 69.675 2.625
-59.175 69.675 3.675
-64.275 74.175 2.175
-64.275 74.775 3.375
-59.925 69.675 2.625
-64.275 74.925 3.375
-62.325 70.575 2.925
-57.375 70.125 -1.425
-57.375 70.125 0.975
-63.825 76.575 -0.525
-58.875 69.675 2.925
-60.075 69.675 2.025
-57.675 69.975 0.075
-57.675 69.975 0.975
-60.225 69.675 2.775
-64.275 73.725 2.025
-56.025 71.025 2.775
-56.025 71.025 2.625
-56.025 71.025 2.925
-56.025 71.025 2.475
-62.925 77.925 2.025
-62.925 77.925 -0.525
-62.925 77.925 2.175
-55.875 71.175 2.775
-55.875 71.175 1.575
-63.075 77.775 0.375
-64.125 72.975 1.875
-64.125 72.975 2.475
-63.825 76.725 2.475
-63.825 76.725 2.625
-63.225 77.625 -2.025
-61.725 78.825 1.275
-61.725 78.825 1.875
-63.975 72.525 3.375
-57.525 69.975 -0.375
-57.525 69.975 -0.225
-57.525 69.975 1.575
-63.975 76.425 -3.225
-63.975 76.425 3.075
-58.425 69.675 3.525
-63.675 77.025 0.825
-63.375 77.475 -0.225
-57.825 69.825 1.125
-64.125 76.125 2.175
-58.275 69.675 0.075
-58.275 69.675 2.625
-58.275 69.675 2.775
-58.275 69.675 2.925
-59.625 69.525 1.875
-59.325 69.525 1.875
-64.425 74.325 1.125
-64.425 74.625 2.925
-63.525 77.325 2.775
-59.775 69.525 2.175
-59.775 69.525 1.725
-59.175 69.525 3.375
-64.425 74.175 2.775
-64.425 74.175 2.175
-64.425 74.775 0.225
-57.375 69.975 1.125
-57.375 69.975 1.575
-63.975 76.575 -0.825
-59.925 69.525 2.625
-60.075 69.525 2.475
-58.875 69.525 3.075
-55.875 71.025 2.025
-55.875 71.025 1.875
-55.875 71.025 3.075
-55.875 71.025 2.175
-55.875 71.025 2.925
-57.675 69.825 1.125
-56.025 70.875 2.925
-58.125 69.675 2.775
-58.125 69.675 2.625
-64.125 76.275 3.375
-63.075 77.925 1.875
-62.925 78.075 3.525
-56.775 70.275 -0.675
-63.675 77.175 2.775
-63.675 77.175 1.425
-62.175 78.675 2.175
-62.175 78.675 1.425
-56.175 70.725 2.775
-64.425 75.225 3.975
-56.325 70.575 2.925
-55.575 71.325 1.125
-63.975 76.725 2.925
-57.225 69.975 3.075
-63.975 76.725 -0.975
-61.725 78.975 0.975
-55.425 71.475 0.975
-57.525 69.825 0.375
-57.525 69.825 0.225
-57.525 69.825 0.975
-64.125 76.425 -0.975
-64.125 76.425 4.575
-63.825 77.025 0.825
-63.825 77.025 -1.425
-56.625 70.275 0.375
-57.825 69.675 2.925
-63.675 77.325 2.625
-64.275 76.125 3.825
-55.875 70.875 1.425
-63.075 78.075 -0.525
-58.275 69.525 3.525
-55.725 71.025 2.925
-55.725 71.025 1.425
-55.725 71.025 1.725
-55.725 71.025 1.575
-59.475 69.375 2.925
-59.475 69.375 2.175
-57.075 69.975 -0.375
-64.575 74.475 1.575
-63.975 76.875 2.175
-57.375 69.825 1.425
-57.375 69.825 0.975
-57.375 69.825 0.675
-59.325 69.375 0.525
-59.625 69.375 1.575
-59.625 69.375 -0.525
-59.625 69.375 2.025
-64.125 72.375 3.225
-64.575 74.325 2.175
-64.575 74.325 1.725
-64.575 74.625 0.225
-64.575 74.625 0.825
-64.575 74.625 2.625
-64.575 74.625 1.575
-64.125 76.575 3.825
-64.125 76.575 4.425
-59.775 69.375 1.575
-59.175 69.375 -2.775
-55.575 71.175 2.775
-55.575 71.175 1.125
-55.575 71.175 3.225
-64.575 74.175 2.625
-59.925 69.375 3.075
-56.775 70.125 -0.525
-64.575 74.925 0.225
-64.575 74.925 3.375
-64.275 76.275 2.775
-58.125 69.525 3.525
-58.125 69.525 0.525
-58.125 69.525 2.625
-58.125 69.525 2.475
-60.075 69.375 1.425
-64.575 75.075 3.375
-64.575 75.075 3.525
-55.275 71.475 1.425
-57.225 69.825 0.975
-57.225 69.825 0.075
-64.125 76.725 2.925
-62.025 78.975 1.575
-63.975 77.025 2.175
-63.975 77.025 0.825
-64.575 73.575 1.875
-55.725 70.875 1.425
-63.075 78.225 2.775
-63.075 78.225 2.625
-55.575 71.025 1.275
-56.025 70.575 2.625
-55.425 71.175 1.425
-57.075 69.825 -0.525
-60.675 69.375 2.325
-64.575 73.275 0.225
-64.275 76.575 3.675
-62.175 78.975 2.175
-63.975 77.175 2.925
-63.975 77.175 0.825
-56.325 70.275 -0.525
-64.725 74.475 1.875
-59.475 69.225 1.875
-64.725 74.325 1.725
-64.725 74.625 2.625
-64.725 74.625 1.725
-59.625 69.225 2.475
-59.625 69.225 1.275
-59.625 69.225 3.075
-64.725 74.775 0.975
-59.775 69.225 1.875
-59.175 69.225 2.175
-57.675 69.525 0.225
-57.675 69.525 0.075
-64.725 74.025 3.225
-58.125 69.375 0.375
-64.725 75.075 3.525
-56.475 70.125 0.975
-56.475 70.125 1.875
-58.875 69.225 3.375
-58.875 69.225 3.075
-58.875 69.225 2.925
-63.825 77.475 3.375
-63.825 77.475 -0.225
-57.225 69.675 1.125
-57.225 69.675 -0.675
-55.725 70.725 2.775
-55.725 70.725 2.325
-55.725 70.725 2.025
-63.225 78.225 2.775
-63.225 78.225 3.225
-54.225 73.725 3.225
-64.125 77.025 3.375
-55.575 70.875 2.175
-55.575 70.875 0.675
-55.575 70.875 2.025
-55.875 70.575 3.675
-63.075 78.375 3.375
-64.575 75.975 -1.575
-57.525 69.525 -0.075
-55.425 71.025 2.775
-63.525 77.925 3.525
-64.725 75.375 3.675
-58.575 69.225 3.525
-62.325 78.975 1.125
-62.325 78.975 2.175
-62.325 78.975 1.275
-58.425 69.225 3.075
-57.825 69.375 0.975
-57.075 69.675 0.375
-57.075 69.675 -0.075
-61.875 79.275 1.425
-55.125 71.325 2.625
-62.625 78.825 2.775
-64.125 77.175 2.925
-64.725 75.675 3.375
-59.325 69.075 2.475
-64.875 74.325 4.125
-64.875 74.325 3.825
-64.875 74.625 0.375
-64.875 74.625 2.475
-64.875 74.625 2.025
-59.775 69.075 2.325
-59.775 69.075 1.425
-59.775 69.075 1.575
-57.675 69.375 0.225
-64.875 74.775 1.125
-64.875 74.775 1.875
-64.875 74.775 2.475
-56.475 69.975 3.075
-56.475 69.975 0.825
-56.475 69.975 0.525
-55.725 70.575 2.475
-55.725 70.575 2.775
-55.725 70.575 2.625
-55.575 70.725 1.575
-55.575 70.725 1.875
-63.225 78.375 -0.375
-59.025 69.075 2.025
-55.875 70.425 3.075
-55.875 70.425 1.725
-64.875 74.925 2.475
-63.525 78.075 -0.675
-63.075 78.525 3.525
-63.075 78.525 2.925
-63.075 78.525 2.025
-60.075 69.075 -0.975
-64.875 75.075 -0.225
-64.875 75.075 2.625
-64.875 75.075 3.075
-64.275 77.025 -0.825
-64.425 76.725 2.775
-56.625 69.825 3.225
-62.325 79.125 2.175
-64.575 72.525 1.425
-55.125 71.175 3.075
-57.975 69.225 0.525
-54.975 71.325 -0.525
-56.325 69.975 0.825
-57.075 69.525 3.375
-61.875 79.425 2.475
-57.825 69.225 -0.375
-57.825 69.225 3.675
-56.775 69.675 -0.675
-56.775 69.675 -0.225
-64.275 77.175 0.525
-64.275 77.175 1.575
-55.575 70.575 1.575
-55.575 70.575 2.025
-55.575 70.575 2.325
-55.575 70.575 1.875
-55.575 70.575 1.275
-64.575 72.375 1.725
-63.375 78.375 2.625
-64.575 76.575 0.225
-55.725 70.425 2.175
-55.425 70.725 1.725
-55.425 70.725 0.975
-55.425 70.725 1.425
-60.675 69.075 1.425
-58.275 69.075 -0.225
-55.275 70.875 2.475
-63.075 78.675 3.075
-64.125 77.475 -0.525
-59.475 68.925 2.625
-59.475 68.925 3.075
-59.475 68.925 2.325
-59.475 68.925 2.925
-65.025 74.475 1.875
-65.025 74.475 1.725
-56.025 70.125 3.375
-59.325 68.925 2.325
-65.025 74.625 1.575
-65.025 74.625 3.825
-59.175 68.925 2.475
-65.025 74.175 2.325
-65.025 74.775 1.275
-65.025 74.775 1.425
-64.875 75.825 3.075
-56.925 69.525 -0.375
-56.925 69.525 -0.525
-59.025 68.925 2.025
-59.025 68.925 2.325
-59.025 68.925 2.475
-62.025 79.425 1.425
-64.425 77.025 2.175
-57.225 69.375 1.575
-64.575 76.725 3.225
-56.175 69.975 0.825
-63.975 77.775 -0.225
-58.875 68.925 2.325
-64.275 77.325 2.925
-64.275 77.325 -0.525
-64.275 77.325 0.525
-58.725 68.925 2.775
-65.025 75.225 -0.375
-57.975 69.075 -0.375
-56.325 69.825 1.275
-56.325 69.825 1.425
-58.575 68.925 3.375
-58.575 68.925 3.075
-55.425 70.575 2.775
-55.425 70.575 2.475
-55.575 70.425 2.025
-65.025 75.375 -0.825
-65.025 75.375 -0.375
-63.375 78.525 2.625
-63.225 78.675 3.075
-55.275 70.725 1.275
-55.275 70.725 0.975
-55.275 70.725 1.575
-64.575 76.875 0.075
-64.575 76.875 3.075
-56.775 69.525 -0.525
-56.775 69.525 0.375
-64.425 77.175 2.175
-64.425 77.175 3.375
-62.175 79.425 1.425
-57.825 69.075 3.525
-63.825 78.075 3.075
-63.825 78.075 0.075
-58.425 68.925 2.925
-64.725 76.575 0.375
