# .PCD v0.7 - Point Cloud Data file format
VERSION 0.7
FIELDS x y z
SIZE 4 4 4
TYPE F F F
COUNT 1 1 1
WIDTH 2048
HEIGHT 1
VIEWPOINT 0 0 0 1 0 0 0
POINTS 2048
DATA ascii
-25.425 120.975 2.475
-25.425 120.975 3.975
-25.275 121.125 0.375
-25.125 120.825 1.125
-25.125 121.125 0.975
-25.425 121.125 1.425
-25.275 120.675 -0.225
-24.975 120.975 2.025
-25.275 121.275 0.975
-25.275 121.275 2.625
-24.975 120.825 1.875
-24.975 120.825 1.575
-25.125 120.675 4.425
-25.125 120.675 -0.375
-25.575 120.825 -0.375
-25.575 120.825 -0.225
-25.425 120.675 3.975
-25.425 120.675 0.075
-24.975 121.125 2.025
-24.975 121.125 2.775
-25.125 121.275 -0.225
-25.425 121.275 2.625
-25.425 121.275 0.975
-25.425 121.275 2.475
-25.575 120.675 -0.225
-25.575 120.675 3.975
-24.975 121.275 -0.525
-25.275 120.525 -0.075
-25.725 120.975 2.475
-25.275 121.425 1.125
-25.725 120.975 2.325
-24.825 120.825 0.225
-25.725 120.825 2.325
-25.125 121.425 1.275
-25.425 121.425 0.975
-25.425 121.425 0.675
-25.425 121.425 0.075
-25.425 121.425 2.925
-24.825 120.675 0.375
-24.825 121.275 3.675
-25.275 120.375 2.025
-24.675 120.975 3.075
-25.125 120.375 0.075
-24.675 120.825 3.825
-25.125 121.575 1.125
-25.125 121.575 2.775
-25.125 121.575 3.375
-25.425 121.575 -0.075
-25.725 120.525 3.375
-25.725 121.425 2.325
-25.575 120.375 2.175
-24.675 120.675 -0.075
-24.675 120.675 0.225
-25.875 120.675 2.475
-24.675 121.275 -0.225
-24.975 121.575 0.825
-24.975 121.575 3.525
-24.975 121.575 0.675
-24.675 120.525 0.225
-24.675 120.525 0.375
-25.875 120.525 2.475
-25.725 120.375 2.025
-26.025 120.975 -1.575
-24.825 121.575 0.825
-24.825 121.575 0.675
-25.125 121.725 0.825
-24.975 121.725 0.825
-24.975 121.725 -0.225
-24.525 120.675 0.225
-24.975 120.225 0.525
-25.575 120.225 3.225
-26.025 121.275 -1.125
-25.875 120.375 -0.375
-24.675 121.575 -0.375
-26.025 120.525 -0.075
-24.825 121.725 0.975
-24.825 120.225 0.075
-25.725 121.725 1.275
-25.275 120.075 -0.225
-24.375 120.975 -0.075
-25.275 121.875 2.775
-25.275 121.875 3.225
-25.275 121.875 0.825
-25.275 121.875 0.525
-24.375 120.825 0.225
-26.175 121.125 -1.725
-25.125 121.875 0.825
-24.975 120.075 -2.775
-25.575 120.075 1.575
-26.175 121.275 2.625
-26.175 121.275 -0.675
-26.175 121.275 0.975
-26.025 120.375 1.725
-26.025 120.375 1.275
-26.025 120.375 2.925
-25.875 120.225 2.925
-25.875 120.225 -0.225
-24.825 120.075 3.075
-24.825 120.075 0.075
-24.375 120.525 2.775
-25.725 120.075 3.225
-26.175 120.525 1.425
-26.175 120.525 0.975
-24.375 121.425 1.275
-24.375 121.425 -0.075
-24.225 120.975 -0.225
-26.325 120.975 -0.525
-25.275 122.025 2.325
-25.275 122.025 2.775
-25.425 119.925 2.475
-25.425 119.925 2.325
-24.225 121.125 -0.075
-26.025 120.225 1.275
-26.025 121.725 -0.375
-24.525 121.725 -0.375
-24.525 120.225 -0.225
-24.525 121.725 1.875
-24.675 120.075 2.775
-25.875 120.075 2.475
-24.375 120.375 0.075
-24.375 120.375 0.375
-26.175 120.375 1.275
-26.175 120.375 2.925
-24.225 120.675 0.375
-25.575 119.925 -2.325
-25.575 119.925 1.275
-25.575 119.925 0.825
-24.225 121.275 2.175
-26.325 121.275 2.775
-24.975 122.025 0.525
-26.325 120.525 1.275
-24.225 121.425 -0.075
-25.725 122.025 1.275
-24.525 120.075 -0.225
-26.025 120.075 1.275
-24.375 121.725 -0.675
-26.475 120.975 1.875
-25.425 119.775 2.625
-24.675 119.925 0.675
-26.325 120.375 1.725
-26.325 120.375 2.775
-25.875 119.925 2.325
-24.075 121.125 2.025
-24.225 121.575 1.725
-25.125 122.175 1.125
-25.875 122.025 4.275
-25.575 119.775 0.675
-25.575 119.775 0.975
-25.575 119.775 2.475
-24.075 121.275 2.475
-24.075 121.275 -0.075
-24.975 122.175 0.525
-24.075 121.275 2.325
-24.975 122.175 3.525
-25.725 119.775 -0.375
-25.725 119.775 1.275
-25.725 119.775 2.175
-24.075 120.525 0.825
-24.075 121.425 3.075
-24.075 121.425 0.825
-24.525 119.925 0.975
-24.525 119.925 2.325
-24.225 120.225 0.525
-24.525 119.925 -0.225
-26.025 122.025 -0.375
-24.525 122.025 2.025
-24.675 119.775 0.975
-24.675 119.775 1.875
-25.875 119.775 2.775
-25.875 119.775 2.025
-25.875 119.775 2.925
-24.075 120.375 2.175
-26.475 120.375 2.925
-24.675 122.175 0.075
-24.675 122.175 2.325
-24.075 121.575 2.625
-24.075 121.575 2.325
-25.425 119.625 -5.025
-23.925 120.825 2.625
-23.925 120.825 2.175
-25.125 122.325 3.225
-24.225 120.075 1.275
-24.975 119.625 1.875
-24.975 119.625 1.725
-24.975 119.625 1.575
-23.925 120.675 0.675
-26.175 119.925 2.325
-24.975 122.325 2.925
-24.975 122.325 1.125
-24.975 122.325 0.525
-24.525 119.775 -0.225
-24.075 121.725 1.575
-24.075 120.225 0.825
-26.475 120.225 3.825
-26.025 122.175 3.225
-24.525 122.175 1.875
-24.525 122.175 2.475
-26.025 122.175 -0.375
-24.825 119.625 1.425
-23.925 121.425 0.375
-24.675 119.625 1.275
-24.675 119.625 -0.525
-25.875 119.625 2.925
-26.625 120.375 3.225
-23.925 121.575 0.675
-25.875 122.325 -0.375
-24.225 119.925 1.875
-24.375 119.775 1.125
-26.175 119.775 2.175
-24.075 120.075 2.025
-24.075 120.075 0.975
-24.075 121.875 2.475
-26.475 121.875 0.375
-23.775 120.825 1.275
-23.775 120.825 0.675
-23.775 121.125 1.725
-23.775 120.675 0.225
-24.975 122.475 -0.225
-24.975 122.475 1.125
-24.975 122.475 0.675
-26.775 121.275 -0.225
-24.525 119.625 0.825
-26.025 122.325 2.625
-23.775 120.525 0.375
-24.825 119.475 1.725
-24.825 119.475 1.425
-25.725 119.475 2.325
-25.725 119.475 1.725
-25.725 119.475 2.625
-25.725 122.475 1.125
-25.725 122.475 -0.525
-24.225 119.775 1.425
-26.325 119.775 2.475
-24.075 119.925 1.875
-23.775 120.375 0.525
-26.775 120.375 3.075
-24.675 119.475 0.375
-24.675 122.475 -0.375
-24.675 119.475 1.275
-24.675 122.475 -0.075
-24.675 119.475 1.425
-24.675 122.475 3.075
-24.675 119.475 1.125
-26.175 122.325 3.075
-26.175 122.325 4.275
-25.275 119.325 1.875
-23.625 120.975 0.825
-25.275 122.625 0.075
-23.625 120.825 2.475
-25.125 122.625 0.675
-25.425 122.625 0.075
-24.975 119.325 -2.475
-23.625 120.675 1.125
-26.025 119.475 2.475
-26.775 121.725 2.175
-23.775 120.225 0.675
-26.025 122.475 3.225
-23.775 121.725 2.475
-23.625 121.275 1.125
-26.925 120.675 3.525
-24.975 122.625 4.125
-24.975 122.625 -0.075
-24.975 122.625 0.675
-24.975 122.625 -1.125
-25.575 122.625 1.725
-25.575 122.625 0.075
-24.075 119.775 2.325
-24.075 122.175 -0.375
-26.475 122.175 -0.525
-25.725 119.325 2.625
-25.725 119.325 1.725
-25.725 119.325 2.025
-24.225 119.625 1.575
-23.625 120.525 1.425
-26.325 119.625 2.625
-23.925 119.925 2.925
-23.625 121.425 1.875
-24.225 122.325 2.325
-24.225 122.325 0.375
-23.925 122.025 2.625
-25.725 122.625 1.575
-25.725 122.625 1.125
-26.625 122.025 -1.125
-24.375 122.475 2.025
-24.675 119.325 1.425
-24.675 119.325 0.975
-24.675 119.325 1.125
-25.875 119.325 2.325
-25.875 119.325 0.975
-25.875 119.325 1.875
-25.875 119.325 1.725
-25.875 119.325 2.475
-23.625 121.575 1.725
-24.675 122.625 -0.375
-25.875 122.625 1.275
-25.875 122.625 0.825
-23.475 120.975 0.975
-25.275 122.775 -0.375
-24.075 119.625 0.375
-25.125 119.175 0.375
-25.125 119.175 0.975
-23.475 121.125 2.025
-23.925 122.175 2.325
-23.925 122.175 0.075
-27.075 121.125 0.825
-26.475 122.325 -0.375
-25.125 122.775 0.375
-25.425 122.775 -0.225
-24.525 119.325 0.525
-23.475 121.275 2.175
-25.575 122.775 1.725
-23.775 122.025 1.275
-25.725 119.175 2.775
-25.725 119.175 2.175
-23.475 121.425 0.675
-23.475 121.425 2.025
-23.475 121.425 2.775
-23.475 121.425 3.225
-25.725 119.175 1.875
-24.375 122.625 -0.225
-24.675 119.175 1.275
-24.675 119.175 1.725
-24.675 122.775 0.075
-25.875 122.775 0.675
-25.875 122.775 1.125
-25.875 122.775 -0.225
-23.925 122.325 2.325
-24.075 122.475 4.275
-23.775 122.175 0.075
-26.475 119.475 2.625
-23.775 122.175 2.775
-26.475 122.475 -0.975
-26.025 119.175 3.525
-24.525 119.175 1.125
-26.025 119.175 0.975
-26.025 119.175 1.275
-26.025 119.175 1.575
-24.525 119.175 0.675
-26.025 119.175 2.475
-26.025 119.175 3.075
-27.075 120.225 0.675
-25.275 122.925 3.375
-24.525 122.775 -3.525
-26.025 122.775 0.825
-25.125 119.025 1.575
-25.425 119.025 2.475
-25.425 119.025 1.725
-25.425 119.025 2.925
-26.325 119.325 1.875
-23.625 119.925 2.625
-27.225 120.825 3.525
-25.125 122.925 1.125
-25.125 122.925 -0.075
-25.125 122.925 2.325
-25.125 122.925 0.675
-25.125 122.925 -0.225
-24.225 122.625 -0.225
-24.975 119.025 1.125
-25.575 119.025 2.325
-23.325 120.675 2.775
-23.325 121.275 2.025
-23.325 121.275 2.175
-24.975 122.925 0.975
-24.975 122.925 -1.275
-24.975 122.925 1.425
-27.225 121.275 0.225
-23.325 121.425 2.325
-25.725 122.925 1.125
-27.225 121.425 3.375
-26.175 119.175 1.875
-26.175 119.175 2.025
-27.075 121.875 3.375
-27.075 121.875 1.725
-24.375 122.775 3.075
-23.925 119.475 -1.275
-25.875 119.025 2.475
-25.875 119.025 2.175
-23.625 122.175 2.775
-23.625 122.175 2.475
-23.325 121.575 1.275
-24.225 119.175 4.425
-24.225 119.175 1.575
-27.075 122.025 3.375
-27.075 122.025 1.725
-24.525 119.025 1.725
-23.325 121.725 3.075
-23.325 121.725 0.675
-23.325 121.725 1.575
-24.525 122.925 -0.225
-24.525 122.925 2.925
-25.125 118.875 1.575
-25.425 118.875 1.575
-25.125 123.075 1.725
-25.125 123.075 -0.375
-24.975 118.875 1.125
-25.575 118.875 2.775
-25.575 118.875 1.725
-25.575 118.875 2.175
-23.775 122.475 2.325
-24.975 123.075 0.975
-24.975 123.075 -0.825
-26.925 119.625 0.975
-26.925 119.625 1.275
-26.175 119.025 1.425
-26.175 119.025 2.025
-24.825 118.875 0.525
-25.725 118.875 1.725
-23.175 121.425 2.325
-23.325 121.875 1.425
-24.375 122.925 -0.225
-23.325 121.875 1.275
-27.225 121.875 0.975
-27.225 121.875 1.275
-24.825 123.075 1.575
-25.725 123.075 1.125
-26.475 119.175 2.625
-27.075 122.175 1.725
-25.875 118.875 2.175
-27.375 120.375 0.075
-23.175 121.575 0.675
-23.175 121.575 2.475
-27.375 121.575 3.075
-24.675 123.075 0.075
-24.675 123.075 1.575
-24.225 122.925 -0.825
-23.325 122.025 2.925
-23.175 121.725 0.525
-23.625 122.475 4.125
-27.375 121.725 2.625
-26.925 119.475 1.275
-23.775 122.625 2.175
-24.525 123.075 0.825
-27.075 119.625 1.275
-25.275 118.725 0.375
-23.475 122.325 4.275
-27.075 122.325 0.225
-23.925 122.775 0.075
-27.525 120.825 4.125
-25.125 123.225 0.375
-25.125 118.725 1.425
-25.125 118.725 1.275
-25.425 118.725 1.425
-25.425 118.725 2.775
-25.425 118.725 2.475
-23.025 121.125 3.075
-27.525 120.675 3.075
-24.975 123.225 0.975
-25.575 118.725 2.925
-25.575 118.725 1.875
-25.575 118.725 2.325
-27.525 121.275 0.375
-27.525 121.275 0.225
-26.175 118.875 1.725
-26.175 118.875 2.025
-23.175 121.875 0.975
-23.175 121.875 1.425
-23.175 121.875 2.925
-27.375 121.875 1.425
-24.375 123.075 0.825
-26.475 119.025 1.725
-26.475 119.025 2.925
-23.325 122.175 2.775
-24.075 122.925 -0.075
-24.075 122.925 -0.675
-27.225 122.175 2.925
-27.225 122.175 3.075
-24.825 123.225 1.125
-24.825 123.225 -0.825
-25.725 123.225 1.275
-25.725 118.725 2.025
-25.725 118.725 1.725
-24.675 118.725 1.275
-24.675 123.225 0.975
-24.675 123.225 0.675
-25.875 123.225 0.225
-25.875 118.725 1.725
-25.875 118.725 1.575
-25.875 123.225 4.125
-23.025 121.575 3.075
-26.925 119.325 1.275
-23.625 122.625 2.475
-26.775 119.175 2.175
-27.075 122.475 -2.925
-27.075 119.475 1.275
-26.775 122.775 2.475
-27.375 122.025 1.275
-23.025 121.725 2.625
-24.525 123.225 1.425
-23.025 121.725 1.725
-23.925 122.925 0.375
-23.925 122.925 -0.075
-23.925 122.925 -0.375
-26.625 122.925 2.325
-22.875 120.975 2.175
-25.275 123.375 -0.225
-25.275 123.375 1.275
-25.125 118.575 0.975
-25.125 118.575 2.175
-25.425 118.575 2.925
-27.675 121.125 2.325
-25.575 118.575 1.725
-25.575 118.575 1.425
-25.575 118.575 1.575
-27.375 122.175 1.275
-27.375 122.175 1.425
-24.975 123.375 1.125
-24.075 123.075 0.075
-24.375 118.725 1.425
-24.375 123.225 -0.225
-24.375 123.225 0.825
-23.025 121.875 1.275
-23.025 121.875 0.975
-23.025 121.875 1.125
-25.725 118.575 2.025
-26.925 119.175 1.275
-27.075 122.625 2.475
-27.075 122.625 2.925
-27.075 122.625 2.175
-24.825 123.375 0.375
-24.825 123.375 0.525
-24.825 123.375 -0.075
-23.325 122.475 2.625
-27.225 119.475 1.725
-27.225 119.475 1.575
-25.875 118.575 1.575
-27.675 120.375 -0.975
-27.675 121.575 2.175
-27.675 121.575 2.475
-24.675 123.375 0.975
-25.875 123.375 0.375
-24.225 123.225 -0.225
-24.225 123.225 -0.075
-26.325 118.725 2.025
-26.325 123.225 3.075
-26.325 118.725 1.575
-27.525 122.025 1.575
-23.025 122.025 1.125
-23.025 122.025 0.975
-27.525 122.025 1.875
-26.625 118.875 -0.375
-23.175 122.325 2.775
-23.175 122.325 0.825
-27.375 122.325 1.275
-23.925 123.075 -0.525
-26.025 118.575 0.225
-26.025 118.575 1.275
-26.025 118.575 2.325
-26.025 118.575 1.875
-27.075 122.775 1.725
-27.075 122.775 1.425
-22.725 120.975 1.875
-25.275 118.425 2.175
-26.475 118.725 1.125
-23.025 122.175 1.125
-26.475 123.225 -0.375
-27.525 122.175 1.125
-27.525 122.175 2.025
-26.925 119.025 1.425
-27.225 119.325 -0.375
-27.225 119.325 1.725
-25.125 118.425 1.275
-25.125 118.425 0.525
-27.825 120.825 3.675
-23.625 122.925 2.475
-23.325 122.625 2.625
-27.225 122.625 1.725
-25.125 123.525 1.725
-25.425 123.525 -0.225
-26.175 118.575 0.975
-26.175 118.575 1.275
-22.875 121.875 2.625
-22.875 121.875 1.575
-22.875 121.875 2.475
-27.675 121.875 1.725
-24.375 123.375 -0.375
-24.375 123.375 0.825
-24.375 123.375 1.275
-24.375 123.375 1.425
-25.575 118.425 1.575
-26.775 118.875 2.025
-27.375 122.475 1.725
-27.375 122.475 1.425
-23.775 123.075 -0.525
-24.825 118.425 1.275
-22.725 121.425 1.725
-22.725 121.425 1.875
-25.725 118.425 2.475
-25.725 118.425 2.325
-25.725 118.425 -0.075
-27.825 121.425 0.825
-27.825 121.425 0.675
-24.825 123.525 1.125
-25.875 118.425 3.525
-25.875 118.425 1.875
-25.875 118.425 2.775
-25.875 118.425 1.725
-27.825 121.575 0.975
-22.875 122.025 0.975
-27.675 122.025 1.425
-27.675 122.025 1.575
-27.525 119.625 3.375
-23.925 123.225 -0.075
-26.625 118.725 0.975
-27.525 122.325 2.325
-26.025 118.425 0.075
-26.025 118.425 2.175
-26.025 118.425 4.275
-24.525 123.525 0.375
-24.525 123.525 0.975
-26.925 118.875 3.075
-27.375 122.625 0.375
-27.375 122.625 2.625
-23.625 123.075 -0.825
-26.925 123.075 2.175
-26.475 118.575 0.975
-22.875 122.175 3.075
-22.875 122.175 3.375
-24.075 123.375 -0.075
-24.075 123.375 0.525
-25.275 118.275 1.275
-25.275 118.275 0.225
-25.275 118.275 2.175
-25.275 123.675 0.225
-27.975 120.975 3.825
-25.125 118.275 1.875
-25.425 118.275 1.425
-26.775 123.225 2.325
-26.775 123.225 2.475
-26.775 123.225 1.125
-27.525 122.475 0.375
-23.025 122.475 0.825
-27.825 121.875 1.125
-25.125 123.675 1.725
-25.425 123.675 0.225
-25.425 123.675 0.825
-24.375 123.525 0.675
-24.375 123.525 0.075
-24.375 123.525 0.825
-24.375 123.525 1.575
-25.575 118.275 0.225
-25.575 123.675 0.075
-27.975 121.275 1.725
-27.975 121.275 1.575
-25.725 118.275 0.675
-24.825 123.675 -0.075
-27.975 121.425 1.875
-26.625 118.575 2.775
-22.875 122.325 1.125
-23.925 123.375 -0.225
-23.925 123.375 0.075
-26.325 118.425 1.275
-26.325 118.425 1.875
-23.325 122.925 -0.375
-27.225 122.925 4.125
-24.225 123.525 0.825
-27.375 119.175 -0.525
-24.675 123.675 0.225
-24.675 123.675 3.225
-25.875 123.675 5.475
-23.475 123.075 2.775
-23.175 122.775 -0.075
-27.075 123.075 2.775
-27.075 123.075 1.125
-27.525 119.325 -0.675
-26.925 123.225 1.125
-24.525 123.675 0.375
-26.025 123.675 2.925
-24.525 123.675 0.975
-26.475 118.425 2.475
-26.475 118.425 1.575
-22.725 122.175 0.525
-22.725 122.175 0.975
-26.475 118.425 2.775
-27.825 122.175 3.225
-24.075 123.525 -0.225
-24.075 123.525 3.375
-26.475 123.525 1.125
-26.775 123.375 -0.525
-23.775 123.375 -0.075
-23.775 123.375 -0.225
-26.175 118.275 3.075
-24.375 123.675 0.525
-25.275 123.825 -0.225
-25.125 118.125 0.225
-28.125 121.125 1.125
-28.125 121.125 0.825
-25.125 123.825 0.075
-25.425 123.825 0.975
-25.425 123.825 0.225
-25.575 118.125 1.275
-25.575 118.125 1.425
-28.125 120.675 2.025
-28.125 120.675 2.325
-23.325 123.075 0.375
-23.325 123.075 0.225
-25.575 123.825 0.075
-23.475 123.225 -0.525
-23.475 123.225 0.525
-27.075 123.225 2.175
-27.075 118.725 -0.225
-27.525 122.775 4.275
-25.725 118.125 2.325
-25.725 118.125 1.425
-25.725 118.125 2.625
-25.725 118.125 2.025
-23.925 118.425 -0.375
-26.625 118.425 1.575
-26.625 118.425 0.975
-26.625 118.425 2.625
-26.625 118.425 0.075
-28.125 120.525 2.925
-22.725 122.325 0.075
-22.725 122.325 0.975
-22.725 122.325 1.125
-22.725 122.325 2.025
-23.925 123.525 0.975
-23.925 123.525 -0.075
-23.925 123.525 0.525
-23.925 123.525 0.375
-26.625 123.525 0.525
-26.625 123.525 1.575
-26.625 123.525 1.275
-26.625 123.525 1.125
-26.325 118.275 1.875
-26.325 118.275 1.575
-24.225 123.675 0.825
-26.925 118.575 -0.525
-26.925 118.575 1.725
-23.625 123.375 1.125
-23.625 123.375 -0.675
-27.675 122.625 1.575
-27.675 122.625 2.475
-28.125 121.725 -0.375
-26.475 118.275 -1.275
-27.975 119.775 0.225
-22.575 122.175 2.775
-22.575 122.175 1.725
-22.575 122.175 2.475
-22.575 122.175 0.975
-24.075 123.675 0.975
-26.475 123.675 -0.525
-26.475 123.675 0.225
-27.975 122.175 -0.225
-22.725 122.475 1.125
-27.825 119.475 -0.225
-23.775 123.525 1.275
-26.775 123.525 1.575
-27.375 118.875 -2.175
-27.525 119.025 0.075
-27.525 122.925 1.575
-23.025 122.925 -0.225
-26.175 118.125 1.875
-26.175 118.125 1.425
-26.175 118.125 1.575
-24.375 123.825 0.975
-24.375 123.825 0.525
-24.375 123.825 -0.375
-28.275 120.975 1.875
-25.275 117.975 2.475
-23.475 123.375 2.325
-27.675 122.775 -0.675
-27.675 122.775 1.725
-27.675 122.775 0.675
-28.275 121.125 1.275
-28.275 120.675 -0.375
-25.575 117.975 0.525
-25.575 117.975 1.725
-28.275 121.275 1.275
-26.625 118.275 2.625
-26.625 118.275 0.225
-23.925 123.675 0.975
-26.625 123.675 0.225
-26.625 123.675 1.425
-22.575 122.325 0.825
-24.825 123.975 0.375
-28.275 121.425 1.275
-25.725 117.975 2.325
-26.325 118.125 0.825
-26.325 118.125 2.025
-26.325 118.125 0.975
-26.925 118.425 -0.675
-26.925 118.425 1.125
-22.425 122.025 2.175
-27.825 122.625 1.575
-27.825 122.625 1.125
-24.225 123.825 0.675
-26.325 123.825 2.175
-26.325 123.825 2.325
-26.325 123.825 0.825
-23.625 123.525 1.125
-26.925 123.525 0.975
-26.925 123.525 2.175
-26.925 123.525 1.575
-28.275 120.375 2.175
-25.875 117.975 1.725
-25.875 117.975 1.575
-27.525 123.075 1.725
-23.025 123.075 3.075
-26.775 118.275 -0.075
-22.575 122.475 1.125
-26.775 123.675 1.275
-26.775 123.675 1.425
-23.775 123.675 1.425
-27.975 122.475 1.425
-27.975 122.475 1.725
-27.975 119.475 3.825
-26.475 118.125 0.525
-24.525 123.975 -0.075
-24.525 123.975 2.175
-22.275 121.725 2.475
-22.275 121.725 2.025
-26.025 117.975 1.725
-22.875 122.925 2.025
-28.125 122.175 1.125
-27.675 122.925 1.725
-23.325 123.375 3.675
-27.225 123.375 1.425
-24.075 123.825 -1.425
-26.475 123.825 -2.775
-26.475 123.825 0.825
-26.475 123.825 1.725
-27.825 119.175 -0.375
-27.825 119.175 -0.225
-27.825 122.775 1.575
-27.075 123.525 1.575
-24.375 123.975 -0.225
-24.375 123.975 0.225
-26.175 123.975 -2.325
-26.175 117.975 1.275
-26.175 117.975 2.925
-28.275 121.875 3.075
-25.275 124.125 -0.675
-26.625 118.125 2.475
-28.125 119.625 0.225
-22.425 122.325 2.475
-28.425 121.125 3.225
-28.425 121.125 2.775
-28.425 121.125 3.525
-28.125 122.325 0.375
-28.125 122.325 2.325
-23.925 123.825 -0.075
-26.625 123.825 2.775
-25.575 117.825 0.525
-23.625 123.675 0.225
-23.625 123.675 0.975
-28.425 121.275 -0.975
-27.975 122.625 1.725
-28.275 119.925 -0.375
-26.325 117.975 1.575
-26.325 117.975 1.275
-26.325 117.975 3.225
-26.325 117.975 3.375
-26.325 117.975 1.725
-27.525 123.225 2.325
-27.525 123.225 1.875
-27.525 123.225 1.575
-23.025 123.225 2.925
-27.525 118.725 -0.525
-28.425 120.525 1.725
-24.825 124.125 -0.075
-24.825 124.125 -0.225
-25.725 124.125 3.075
-25.725 124.125 1.125
-27.675 118.875 -1.275
-27.675 118.875 -0.225
-22.875 123.075 3.375
-22.875 123.075 2.175
-22.875 123.075 2.025
-22.875 123.075 2.925
-27.375 123.375 2.475
-27.375 123.375 2.175
-27.675 123.075 3.075
-27.675 123.075 3.225
-25.875 117.825 0.525
-28.425 120.375 1.575
-28.425 121.575 1.275
-24.675 124.125 -0.675
-27.825 119.025 -0.675
-27.225 118.425 0.225
-27.825 122.925 2.025
-27.825 122.925 1.875
-27.825 122.925 1.725
-23.325 123.525 0.075
-23.325 123.525 0.675
-27.225 123.525 1.425
-27.225 123.525 0.375
-22.425 122.475 -0.075
-23.775 123.825 0.975
-23.775 123.825 1.575
-26.475 117.975 1.425
-26.475 117.975 2.325
-26.475 117.975 0.525
-22.275 122.175 2.175
-22.275 122.175 2.325
-26.475 123.975 -1.875
-26.475 123.975 1.725
-28.275 122.175 2.325
-26.025 117.825 1.725
-26.025 117.825 1.875
-26.025 117.825 0.525
-26.025 117.825 2.025
-26.025 117.825 2.175
-22.125 121.725 2.025
-28.425 120.225 1.425
-28.425 120.225 -0.075
-26.025 124.125 2.175
-24.525 124.125 -0.675
-24.525 124.125 -0.225
-23.475 123.675 0.075
-23.475 123.675 -0.075
-27.975 122.775 1.725
-26.175 117.825 1.725
-26.175 117.825 1.425
-28.425 120.075 0.975
-28.425 120.075 2.025
-28.425 120.075 -0.075
-28.425 121.875 1.725
-28.425 121.875 2.625
-28.425 121.875 1.875
-26.175 124.125 1.125
-26.175 124.125 1.275
-28.275 119.625 3.675
-28.275 119.625 -0.375
-26.625 117.975 2.325
-26.625 117.975 3.225
-26.625 117.975 -0.225
-26.625 123.975 2.625
-27.675 123.225 3.225
-27.675 123.225 1.575
-28.275 122.325 1.575
-22.275 122.325 2.325
-22.275 122.325 2.025
-23.025 123.375 0.075
-27.525 123.375 1.425
-27.525 123.375 2.175
-28.125 119.325 3.975
-22.425 122.625 1.425
-22.425 122.625 0.975
-28.125 122.625 1.875
-28.125 122.625 2.025
-28.125 122.625 -0.225
-23.175 118.425 4.425
-27.825 118.875 -1.425
-25.125 117.675 1.425
-25.425 117.675 0.975
-22.725 123.075 2.625
-27.825 123.075 -0.375
-27.825 123.075 2.025
-23.175 123.525 1.425
-27.375 123.525 -0.225
-27.375 123.525 2.475
-25.425 124.275 0.225
-25.575 117.675 0.675
-25.575 124.275 3.075
-26.325 117.825 1.725
-26.325 117.825 1.875
-28.425 119.925 -0.375
-24.225 124.125 -0.075
-26.325 124.125 0.975
-28.425 122.025 1.725
-28.425 122.025 2.025
-27.225 118.275 0.375
-27.975 119.025 -0.075
-27.975 119.025 -0.525
-27.975 119.025 -0.225
-25.725 117.675 1.875
-25.725 117.675 1.725
-28.575 120.525 2.325
-28.575 120.525 1.575
-28.575 121.425 0.825
-22.575 122.925 2.625
-22.575 122.925 -0.825
-27.225 123.675 -0.825
-27.975 122.925 1.725
-24.825 124.275 -0.225
-24.825 124.275 -0.075
-23.775 123.975 0.975
-26.775 117.975 -0.375
-26.775 117.975 1.275
-22.275 122.475 2.775
-28.275 122.475 1.575
-28.275 122.475 1.875
-28.275 122.475 2.175
-25.875 124.275 1.275
-26.475 117.825 1.575
-28.425 119.775 -0.075
-28.425 122.175 1.725
-22.425 122.775 2.175
-22.425 122.775 0.525
-22.425 122.775 1.275
-22.425 122.775 1.425
-23.475 123.825 0.975
-26.475 124.125 1.125
-28.125 122.775 2.025
-27.075 123.825 0.975
-27.075 123.825 0.675
-26.025 117.675 2.175
-26.025 117.675 1.725
-28.575 120.225 0.975
-24.525 124.275 -0.525
-26.025 124.275 2.175
-26.025 124.275 0.975
-26.025 124.275 1.125
-22.875 123.375 -0.525
-22.875 123.375 3.375
-22.875 123.375 3.075
-22.725 123.225 -0.225
-22.725 123.225 1.875
-22.725 123.225 3.525
-27.825 118.725 0.225
-27.525 123.525 1.575
-23.025 123.525 0.375
-26.175 117.675 2.775
-26.175 117.675 2.475
-28.575 120.075 1.875
-28.575 120.075 0.675
-28.575 120.075 1.125
-27.975 118.875 -0.375
-21.975 121.875 2.325
-23.175 123.675 -0.525
-27.375 123.675 2.625
-27.375 123.675 -0.075
-27.375 123.675 2.025
-27.375 123.675 1.425
-22.575 123.075 0.975
-27.975 123.075 1.875
-24.375 124.275 1.425
-26.175 124.275 2.325
-26.175 124.275 0.975
-26.175 124.275 2.475
-26.175 124.275 1.125
-28.275 119.325 -0.225
-23.625 123.975 1.575
-23.625 123.975 1.425
-26.925 123.975 1.575
-26.925 123.975 2.325
-26.925 123.975 1.125
-26.925 117.975 -0.375
-22.275 122.625 1.725
-22.275 122.625 1.125
-22.275 122.625 1.275
-22.275 122.625 1.425
-28.275 122.625 1.725
-26.625 117.825 0.975
-26.625 117.825 1.575
-26.625 117.825 -1.125
-26.625 117.825 0.525
-26.625 117.825 1.275
-26.625 117.825 -3.225
-22.125 122.325 2.775
-28.725 120.975 -0.225
-25.275 124.425 -0.375
-25.275 124.425 1.125
-22.425 122.925 -1.125
-22.425 122.925 1.125
-28.725 120.825 0.225
-28.725 120.825 -0.075
-28.125 122.925 1.725
-27.225 123.825 1.725
-27.225 123.825 3.675
-24.975 117.525 1.875
-25.575 117.525 2.025
-26.325 117.675 1.575
-21.975 122.025 0.825
-28.725 120.675 0.375
-25.575 124.425 2.025
-26.325 124.275 2.925
-25.725 117.525 0.525
-28.725 120.525 0.225
-28.725 120.525 1.125
-26.775 117.825 2.325
-26.775 117.825 2.475
-22.125 122.475 1.425
-22.125 122.475 2.175
-22.125 122.475 2.025
-22.125 122.475 1.875
-22.125 122.475 2.325
-28.425 122.475 1.575
-26.775 124.125 2.625
-23.475 123.975 0.225
-23.475 123.975 0.675
-23.475 123.975 0.975
-22.275 122.775 1.275
-22.275 122.775 1.425
-25.875 117.525 2.775
-28.725 120.375 2.175
-28.725 120.375 0.975
-28.725 120.375 0.225
-22.725 123.375 0.525
-22.725 123.375 1.575
-28.725 121.575 -0.075
-28.725 121.575 1.575
-22.875 123.525 0.375
-22.875 123.525 3.675
-27.675 123.525 -0.375
-26.475 117.675 1.275
-28.575 122.175 1.875
-22.575 123.225 1.125
-27.525 123.675 2.925
-27.525 123.675 2.475
-27.525 123.675 3.075
-27.975 123.225 1.725
-27.975 118.725 1.125
-27.975 118.725 -1.125
-26.025 117.525 1.575
-26.025 117.525 2.025
-26.025 124.425 1.125
-24.525 124.425 3.525
-28.725 120.225 0.975
-28.725 120.225 2.025
-28.725 120.225 -0.075
-28.725 120.225 0.075
-28.725 121.725 1.725
-28.125 118.875 -0.225
-22.425 123.075 -1.125
-23.175 123.825 -0.075
-27.375 123.825 2.775
-27.375 123.825 2.475
-22.125 122.625 2.025
-23.625 124.125 2.325
-26.925 124.125 1.875
-26.925 124.125 2.625
-26.175 117.525 2.175
-26.625 117.675 1.275
-21.975 122.325 2.175
-28.725 120.075 2.025
-24.375 124.425 2.475
-24.375 124.425 -0.225
-26.175 124.425 2.475
-26.175 124.425 2.025
-26.175 124.425 2.625
-26.175 124.425 2.775
-28.575 122.325 1.725
-28.725 121.875 1.725
-26.625 124.275 3.075
-23.325 123.975 -0.225
-23.325 123.975 1.125
-23.325 123.975 3.075
-22.275 122.925 1.725
-22.275 122.925 2.025
-22.275 122.925 1.275
-27.225 123.975 1.875
-27.225 123.975 2.325
-28.275 122.925 1.575
-25.275 117.375 1.725
-25.275 117.375 1.875
-28.875 120.975 -0.675
-25.425 124.575 2.175
-25.425 124.575 3.525
-24.225 124.425 0.525
-28.725 119.925 1.875
-28.725 119.925 1.425
-26.325 124.425 2.025
-28.725 122.025 1.575
-28.725 122.025 1.875
-27.975 118.575 -1.425
-22.875 123.675 -0.075
-22.875 123.675 3.675
-28.875 120.675 1.125
-22.575 123.375 3.675
-26.775 117.675 1.125
-26.775 117.675 0.825
-28.575 119.475 0.525
-28.575 122.475 1.725
-28.575 122.475 0.975
-28.575 119.475 0.825
-26.775 124.275 2.175
-26.775 124.275 2.625
-26.775 124.275 -0.525
-26.775 124.275 1.875
-28.875 120.525 2.175
-22.125 122.775 1.575
-22.125 122.775 1.425
-28.425 122.775 1.725
-24.825 124.575 0.225
-25.725 124.575 3.675
-22.425 123.225 0.975
-28.125 118.725 -1.275
-28.125 118.725 0.675
-28.125 118.725 0.975
-28.875 120.375 3.225
-28.875 121.575 2.325
-28.875 121.575 1.575
-28.875 121.575 1.875
-24.675 124.575 0.525
-25.875 124.575 1.275
-26.475 117.525 2.325
-26.475 117.525 1.275
-26.475 117.525 1.575
-28.725 119.775 2.025
-28.725 119.775 2.325
-28.725 122.175 1.575
-23.175 123.975 1.425
-27.375 123.975 2.175
-27.375 123.975 2.325
-22.275 123.075 0.525
-26.025 117.375 2.625
-28.875 121.725 2.025
-28.875 121.725 1.575
-24.525 124.575 2.625
-23.625 124.275 0.525
-26.625 117.525 0.525
-23.325 117.825 -2.925
-28.425 119.025 -0.525
-22.125 122.925 1.575
-28.725 119.625 1.425
-28.725 119.625 1.275
-28.725 119.625 0.825
-26.625 124.425 1.875
-28.725 122.325 1.575
-28.725 122.325 0.975
-27.225 124.125 2.475
-27.225 124.125 2.175
-28.875 120.075 2.025
-28.875 120.075 3.375
-26.175 124.575 1.575
-26.175 124.575 1.425
-27.825 118.275 -0.375
-22.725 123.675 0.075
-27.825 123.675 2.775
-28.125 118.575 0.975
-22.425 123.375 3.825
-27.675 123.825 0.075
-27.525 117.975 -0.375
-27.525 117.975 0.675
-27.525 123.975 2.625
-25.275 124.725 3.075
-29.025 120.975 0.375
-29.025 120.975 2.025
-21.675 122.025 2.325
-29.025 120.825 2.775
-29.025 120.825 0.075
-25.425 124.725 2.025
-28.575 119.175 1.575
-21.975 122.775 2.175
-21.975 122.775 2.325
-23.475 124.275 2.025
-27.075 124.275 2.475
-27.075 124.275 2.175
-26.775 117.525 1.725
-26.775 117.525 3.675
-26.775 117.525 1.575
-29.025 120.675 1.875
-25.575 124.725 1.125
-25.575 124.725 0.975
-25.575 117.225 1.725
-29.025 121.275 1.425
-28.725 119.475 0.975
-28.725 119.475 2.325
-26.775 124.425 1.425
-28.725 122.475 1.425
-28.725 122.475 1.575
-29.025 120.525 2.175
-25.725 124.725 1.875
-29.025 121.425 -0.525
-29.025 121.425 1.725
-28.425 118.875 -0.675
-28.425 118.875 -0.075
-23.175 124.125 0.525
-28.425 123.075 1.425
-26.475 117.375 1.875
-28.875 119.775 0.825
-28.875 119.775 1.875
-28.875 119.775 3.675
-28.875 122.175 2.475
-28.875 122.175 1.875
-28.875 122.175 1.725
-27.975 118.275 -0.525
-22.575 123.675 0.075
-22.575 123.675 3.225
-28.125 118.425 0.975
-26.025 124.725 1.275
-26.025 124.725 1.425
-29.025 121.725 1.575
-24.525 117.225 -2.475
-26.925 124.425 1.725
-27.825 123.825 1.125
-27.825 123.825 2.025
-21.975 122.925 1.425
-21.975 122.925 2.175
-28.575 122.925 4.875
-22.275 118.575 3.825
-28.275 118.575 1.425
-28.275 118.575 1.575
-22.875 123.975 0.825
-26.625 117.375 2.175
-26.625 124.575 2.475
-26.625 124.575 2.025
-26.175 124.725 1.875
-26.175 124.725 3.075
-29.025 121.875 1.875
-22.125 123.225 1.425
-22.125 123.225 1.875
-22.125 123.225 1.725
-28.425 123.225 1.275
-27.525 124.125 2.625
-23.025 124.125 3.675
-28.725 119.175 2.175
-21.825 122.775 1.575
-21.825 122.775 1.875
-21.825 122.775 2.325
-29.025 119.925 0.825
-26.325 117.225 2.025
-26.325 117.225 2.175
-26.775 117.375 1.575
-26.775 117.375 -0.975
-26.775 117.375 3.675
-29.175 120.975 3.225
-26.775 124.575 1.575
-26.775 124.575 1.425
-25.425 124.875 0.675
-25.425 124.875 0.825
-29.175 120.675 3.825
-21.975 123.075 2.325
-21.975 123.075 0.525
-29.175 121.275 1.575
-25.575 124.875 0.975
-23.175 124.275 0.075
-28.125 118.275 1.125
-22.425 123.675 3.825
-29.175 120.525 0.375
-24.825 124.875 3.225
-22.575 123.825 2.025
-22.575 123.825 0.225
-27.975 123.825 1.425
-22.725 123.975 3.825
-27.825 123.975 1.725
-26.475 117.225 2.025
-26.475 117.225 2.625
-29.025 122.175 1.425
-25.875 117.075 1.575
-29.175 121.575 1.425
-29.175 121.575 1.725
-26.925 117.375 0.375
-28.425 118.575 0.375
-22.875 124.125 -0.075
-22.875 124.125 0.525
-22.875 124.125 0.075
-27.675 124.125 2.175
-27.225 117.525 1.125
-21.825 122.925 1.875
-21.825 122.925 1.725
-29.175 120.225 0.825
-26.025 124.875 2.625
-26.025 124.875 -1.575
-26.625 117.225 2.775
-26.625 117.225 1.725
-26.625 117.225 1.275
-26.625 124.725 1.725
-21.975 123.225 1.425
-21.975 123.225 2.025
-27.525 117.675 -0.375
-27.525 117.675 0.675
-26.175 124.875 1.725
-26.175 124.875 4.875
-27.075 117.375 0.375
-23.475 124.575 0.375
-27.075 124.575 2.325
-28.125 118.125 -0.225
-22.425 123.825 0.075
-27.975 117.975 -0.225
-26.775 124.725 1.725
-26.775 117.225 1.275
-26.775 117.225 -0.075
-29.175 119.925 -0.075
-23.175 124.425 0.075
-21.825 123.075 1.875
-29.175 122.025 2.325
-25.275 125.025 2.625
-25.275 125.025 3.075
-28.425 118.425 0.975
-28.425 118.425 0.375
-28.425 118.425 3.225
-29.325 120.825 3.075
-22.725 124.125 0.225
-25.125 125.025 3.075
-25.125 125.025 2.925
-29.325 120.675 1.725
-29.325 120.675 -0.825
-29.325 121.275 1.425
-25.575 125.025 0.975
-25.575 125.025 2.175
-25.725 116.925 1.425
-29.325 120.525 2.175
-29.325 121.425 1.575
-25.725 125.025 1.275
-25.725 125.025 0.975
-25.725 125.025 -1.725
-26.475 117.075 2.175
-26.475 117.075 2.325
-21.975 123.375 2.175
-21.975 123.375 2.025
-21.975 123.375 1.575
-21.975 123.375 1.425
-21.975 123.375 1.875
-22.875 124.275 -0.075
-22.875 124.275 0.675
-27.225 117.375 0.975
-21.675 122.925 1.575
-24.675 125.025 2.025
-25.875 125.025 1.275
-26.925 124.725 1.875
-26.925 117.225 1.125
-26.925 117.225 0.075
-21.825 123.225 1.275
-27.525 124.425 1.575
-28.725 118.725 0.525
-26.025 125.025 4.125
-26.025 125.025 1.725
-26.625 117.075 2.175
-26.625 117.075 1.725
-29.175 119.625 -0.525
-29.175 122.325 1.725
-28.275 118.125 0.075
-22.425 123.975 0.075
-28.125 117.975 1.275
-28.425 118.275 0.375
-28.425 118.275 0.825
-27.975 117.825 -0.375
-29.325 120.075 -0.075
-29.325 121.875 1.425
-24.375 125.025 2.475
-26.175 125.025 3.675
-27.075 117.225 1.125
-27.075 117.225 1.275
-27.375 117.375 0.825
-28.875 118.875 1.575
-21.975 123.525 2.325
-22.725 124.275 0.225
-22.725 124.275 0.375
-29.175 122.475 1.575
-26.325 116.925 2.325
-29.325 122.025 1.425
-26.325 125.025 2.175
-29.475 120.975 1.425
-29.475 120.975 1.725
-29.475 120.975 3.075
-29.475 120.975 1.875
-22.875 124.425 0.825
-21.825 123.375 1.275
-21.825 123.375 -1.425
-29.475 120.825 1.725
-25.125 125.175 3.075
-25.125 125.175 0.975
-24.975 125.175 3.825
-29.475 120.675 1.575
-29.475 121.275 1.275
-29.475 121.275 1.575
-26.475 116.925 3.375
-25.725 125.175 1.275
-29.475 121.425 1.575
-24.075 125.025 2.925
-27.225 117.225 0.375
-26.925 117.075 0.675
-26.925 117.075 3.675
-23.625 124.875 2.625
-26.925 124.875 3.225
-28.275 117.975 2.325
-29.475 120.375 0.375
-25.875 125.175 3.075
-25.875 125.175 3.825
-29.475 121.575 1.575
-27.525 117.375 -0.225
-21.675 123.225 2.325
-21.675 123.225 0.975
-21.675 123.225 1.875
-28.875 118.725 0.525
-28.875 118.725 2.625
-27.525 124.575 1.275
-28.425 118.125 0.525
-28.425 118.125 0.225
-28.425 118.125 0.375
-22.575 124.275 0.225
-26.025 116.775 1.275
-26.025 125.175 3.225
-29.475 120.225 0.075
-26.625 116.925 2.025
-26.625 116.925 3.075
-27.825 117.525 1.575
-22.725 124.425 0.675
-21.825 123.525 1.725
-21.825 123.525 2.175
-21.825 123.525 1.575
-27.075 117.075 0.675
-26.175 125.175 4.275
-26.175 125.175 3.975
-23.175 124.725 3.075
-27.375 117.225 2.775
-21.525 123.075 1.725
-21.525 123.075 1.875
-26.775 116.925 1.875
-26.775 116.925 1.275
-29.325 122.475 2.925
-26.775 125.025 3.075
-21.675 123.375 1.725
-21.675 123.375 1.575
-21.675 123.375 0.825
-22.875 124.575 -0.075
-26.325 125.175 2.175
-29.625 120.975 2.625
-29.625 120.975 2.775
-22.275 124.125 1.275
-25.275 125.325 2.625
-29.625 120.825 1.425
-25.125 125.325 1.875
-27.225 117.075 0.975
-27.225 117.075 1.425
-28.575 118.125 0.525
-28.575 118.125 0.825
-21.375 122.925 1.875
-21.375 122.925 2.025
-29.625 120.675 1.575
-29.625 121.275 1.125
-21.975 123.825 2.325
-27.225 124.875 1.125
-24.975 125.325 1.725
-21.075 122.175 0.675
-24.075 125.175 2.775
-26.925 116.925 0.975
-26.925 116.925 2.025
-26.925 116.925 0.825
-21.525 123.225 1.875
-21.525 123.225 1.725
-29.625 120.525 1.575
-25.725 125.325 3.075
-25.725 125.325 3.375
-28.725 118.275 0.825
-22.575 124.425 1.725
-29.625 120.375 1.425
-29.625 121.575 0.825
-29.625 121.575 0.675
-25.875 125.325 2.775
-25.875 125.325 2.175
-25.875 125.325 1.725
-26.625 116.775 1.425
-27.825 117.375 0.825
-28.875 118.425 3.225
-21.675 123.525 2.175
-22.725 124.575 0.675
-22.725 124.575 1.275
-29.625 120.225 1.425
-24.525 125.325 3.075
-21.375 123.075 1.725
-27.075 116.925 0.825
-27.075 116.925 1.275
-27.075 116.925 2.025
-26.175 116.625 1.275
-29.625 120.075 0.225
-29.025 118.575 1.275
-27.675 117.225 0.825
-22.125 124.125 0.225
-22.125 124.125 2.025
-26.775 116.775 1.725
-26.775 116.775 0.975
-28.275 117.675 -0.075
-28.575 117.975 -0.225
-28.575 117.975 0.375
-22.275 124.275 -0.225
-22.275 124.275 1.275
-28.725 118.125 0.825
-28.725 118.125 0.525
-27.225 116.925 2.625
-27.225 116.925 0.975
-28.875 118.275 3.225
-21.675 123.675 1.575
-27.525 117.075 1.125
-21.375 123.225 1.575
-29.775 120.825 1.575
-29.775 120.825 1.275
-25.425 125.475 2.775
-29.775 121.125 2.325
-25.125 125.475 2.925
-23.025 124.875 -0.075
-23.025 124.875 3.525
-25.575 125.475 2.625
-25.575 125.475 2.475
-29.775 121.275 0.975
-26.925 116.775 1.875
-26.925 116.775 1.725
-26.925 116.775 2.025
-26.925 116.775 0.975
-29.775 121.425 0.375
-25.725 125.475 2.025
-22.725 124.725 0.675
-21.525 123.525 2.025
-21.525 123.525 1.575
-29.775 120.375 0.525
-24.675 125.475 2.775
-24.675 125.475 3.075
-29.625 119.625 3.825
-28.575 117.825 -0.075
-28.575 117.825 0.375
-29.775 120.225 1.425
-26.025 125.475 2.925
-26.025 125.475 3.375
-24.525 125.475 1.125
-21.975 124.125 2.025
-22.125 124.275 1.275
-23.175 125.025 2.925
-27.075 116.775 2.475
-27.075 116.775 0.675
-28.725 117.975 0.825
-22.275 124.425 1.125
-29.175 118.575 -0.075
-29.175 118.575 -0.525
-21.375 123.375 1.425
-21.375 123.375 2.475
-28.125 117.375 -0.225
-28.875 118.125 1.275
-21.675 123.825 1.875
-21.675 123.825 2.025
-21.675 123.825 2.175
-22.425 124.575 1.725
-26.775 116.625 0.975
-29.625 119.475 1.725
-29.625 119.475 4.125
-29.025 118.275 0.975
-29.025 118.275 3.225
-29.775 119.925 1.575
-26.325 116.475 1.425
-27.225 116.775 0.525
-27.225 116.775 2.475
-27.525 116.925 0.525
-27.525 116.925 1.425
-27.525 116.925 3.525
-25.275 125.625 2.475
-26.925 116.625 1.575
-26.925 116.625 2.775
-20.925 122.625 -3.975
-29.625 122.625 4.125
-29.775 119.775 1.725
-29.775 119.775 3.825
-26.475 125.475 3.375
-22.725 124.875 0.675
-21.375 123.525 1.575
-21.375 123.525 1.125
-21.375 123.525 2.025
-28.725 117.825 0.975
-28.725 117.825 0.825
-22.125 124.425 1.275
-29.925 120.525 0.675
-21.825 124.125 1.875
-21.825 124.125 1.275
-28.275 117.375 -0.075
-28.875 117.975 1.275
-28.875 117.975 -0.825
-22.275 124.575 -0.375
-22.275 124.575 1.125
-29.925 121.575 1.875
-25.875 125.625 2.775
-26.625 116.475 1.725
-27.075 116.625 1.425
-29.325 118.575 -0.375
-29.325 118.575 -0.225
-27.675 116.925 0.525
-27.075 125.325 0.525
-22.425 124.725 1.575
-22.425 124.725 3.375
-29.925 120.225 1.575
-21.525 123.825 0.675
-26.025 125.625 3.225
-21.375 123.675 2.325
-21.375 123.675 1.425
-21.375 123.675 1.275
-29.475 118.725 -3.075
-27.225 116.625 1.425
-27.225 116.625 2.175
-28.575 117.525 -0.375
-21.975 124.425 0.525
-28.725 117.675 0.375
-28.725 117.675 0.825
-21.825 124.275 2.025
-21.825 124.275 2.925
-21.675 124.125 1.875
-22.125 124.575 1.125
-21.225 123.525 1.575
-26.925 116.475 1.425
-25.275 116.175 1.275
-25.275 125.775 3.225
-22.275 124.725 0.825
-22.275 124.725 1.125
-22.275 124.725 1.725
-28.275 117.225 -1.725
-28.275 117.225 -0.225
-21.525 123.975 1.725
-21.525 123.975 1.875
-30.075 120.675 0.975
-25.725 125.775 2.625
-28.125 117.075 -0.225
-27.375 116.625 1.275
-27.375 116.625 2.175
-27.375 116.625 0.375
-29.175 118.125 2.175
-20.925 123.075 0.675
-21.375 123.825 1.425
-21.375 123.825 -1.125
-21.375 123.825 0.375
-21.375 123.825 1.725
-27.675 116.775 1.125
-27.675 116.775 0.375
-21.075 123.375 1.575
-21.075 123.375 1.725
-29.925 119.625 1.575
-27.075 116.475 1.875
-27.075 116.475 1.425
-27.075 116.475 0.825
-24.525 125.775 1.575
-29.325 118.275 -0.225
-21.225 123.675 0.225
-21.225 123.675 2.475
-27.975 116.925 0.075
-27.975 116.925 0.675
-28.725 117.525 0.375
-28.725 117.525 0.825
-28.575 117.375 0.075
-28.875 117.675 0.825
-30.075 120.075 1.875
-21.975 124.575 2.475
-24.375 125.775 2.775
-26.175 125.775 3.525
-26.175 125.775 3.075
-26.775 116.325 1.725
-29.025 117.825 1.275
-22.125 124.725 3.975
-22.125 124.725 1.275
-22.125 124.725 1.125
-21.525 124.125 1.875
-27.225 116.475 1.575
-30.075 119.925 1.425
-29.475 118.425 -0.675
-29.475 118.425 -0.225
-29.475 118.425 0.075
-21.375 123.975 1.725
-21.375 123.975 2.025
-22.275 124.875 1.575
-26.925 116.325 0.675
-26.475 125.775 2.475
-30.225 120.975 0.825
-29.325 118.125 -0.525
-21.225 123.825 1.125
-25.125 125.925 2.025
-25.425 125.925 1.575
-28.125 125.025 2.325
-30.225 120.675 0.975
-27.675 116.625 0.825
-27.675 116.625 2.025
-28.875 117.525 0.075
-28.875 117.525 0.375
-28.725 117.375 0.375
-21.825 124.575 3.375
-27.975 116.775 0.375
-29.475 118.275 0.225
-29.475 118.275 1.425
-22.575 125.175 0.975
-22.575 125.175 -0.375
-29.025 117.675 2.175
-30.225 120.225 0.375
-28.425 117.075 -0.525
-29.175 117.825 -0.225
-21.375 124.125 -0.525
-21.375 124.125 1.875
-21.375 124.125 2.025
-22.125 124.875 1.125
-30.075 119.475 3.825
-30.075 119.475 1.275
-30.075 119.475 0.825
-27.525 116.475 0.525
-27.525 125.475 0.525
-30.225 120.075 1.125
-30.225 120.075 1.425
-24.375 125.925 1.725
-26.175 125.925 3.375
-21.225 123.975 1.575
-21.225 123.975 -0.825
-21.225 123.975 2.625
-28.275 116.925 -0.975
-28.275 116.925 0.225
-29.325 117.975 2.775
-22.275 125.025 2.775
-27.225 116.325 1.875
-27.825 116.625 1.875
-27.825 116.625 0.075
-29.625 118.425 1.725
-28.125 116.775 0.825
-29.475 118.125 -0.075
-29.475 118.125 -0.225
-22.425 125.175 -0.375
-21.075 123.825 1.575
-21.075 123.825 2.025
-21.075 123.825 2.775
-21.075 123.825 2.175
-21.075 123.825 1.425
-21.825 124.725 2.475
-28.725 117.225 0.075
-29.775 118.575 2.025
-29.775 118.575 4.875
-29.775 118.575 1.875
-27.675 116.475 0.525
-27.375 116.325 1.275
-29.925 118.875 0.825
-28.575 117.075 0.375
-29.175 117.675 2.475
-21.975 124.875 1.275
-21.975 124.875 0.825
-21.375 124.275 2.175
-29.625 118.275 1.575
-29.625 118.275 -0.225
-25.725 126.075 2.025
-27.975 125.325 1.875
-28.275 116.775 0.525
-28.275 116.775 -0.825
-28.275 116.775 0.675
-29.475 117.975 -0.675
-27.525 116.325 1.275
-27.525 116.325 2.325
-27.525 116.325 2.025
-29.925 118.725 0.675
-29.775 118.425 -0.525
-27.825 116.475 1.725
-27.825 116.475 0.825
-27.825 116.475 2.175
-24.375 126.075 2.025
-27.225 116.175 1.725
-27.225 116.175 1.575
-28.875 117.225 -0.375
-28.125 116.625 3.525
-28.125 116.625 0.675
-20.925 123.825 1.875
-30.375 119.925 1.575
-21.825 124.875 2.325
-21.225 124.275 1.275
-21.225 124.275 3.975
-27.675 116.325 1.275
-26.475 115.875 2.475
-26.475 115.875 1.875
-27.375 116.175 1.275
-29.775 118.275 2.775
-27.975 116.475 0.825
-27.975 116.475 2.175
-28.425 116.775 2.625
-21.075 124.125 2.775
-23.475 125.925 2.775
-30.375 119.625 1.125
-26.625 126.075 -1.575
-28.275 116.625 0.675
-22.275 125.325 3.975
-27.525 116.175 2.175
-27.825 116.325 0.525
-27.825 116.325 2.325
-27.825 116.325 0.975
-26.025 126.225 3.075
-29.925 118.425 1.875
-22.725 125.625 1.125
-28.875 117.075 0.225
-29.175 117.375 0.375
-21.675 124.875 0.075
-21.375 124.575 0.075
-30.375 122.475 3.225
-29.325 117.525 -0.375
-28.725 116.925 -0.075
-29.775 118.125 -0.225
-22.425 125.475 0.975
-28.125 116.475 -0.675
-28.125 116.475 2.475
-20.775 123.825 1.725
-21.975 125.175 3.525
-21.075 124.275 1.875
-30.525 119.925 1.725
-30.525 119.925 1.875
-26.325 126.225 -1.425
-30.075 118.575 2.175
-27.675 116.175 1.125
-28.425 116.625 0.825
-20.925 124.125 1.575
-22.125 125.325 -0.225
-22.125 125.325 1.575
-27.375 116.025 1.575
-27.375 116.025 2.025
-20.625 123.675 -0.675
-22.575 125.625 0.975
-30.525 119.775 1.875
-20.775 123.975 2.775
-30.375 119.175 2.325
-23.475 126.075 2.925
-29.025 117.075 0.375
-21.375 124.725 -0.375
-29.175 117.225 0.075
-29.325 117.375 -0.075
-30.075 118.425 2.025
-21.075 124.425 2.925
-21.075 124.425 1.575
-22.725 125.775 0.975
-29.925 118.125 -0.525
-22.425 125.625 0.675
-28.575 116.625 0.675
-29.625 117.675 -0.225
-23.325 126.075 3.975
-22.125 125.475 -1.425
-20.775 124.125 2.025
-20.775 124.125 2.625
-27.675 116.025 2.175
-27.675 116.025 0.075
-30.075 118.275 -0.225
-30.075 118.275 1.725
-22.575 125.775 1.425
-22.575 125.775 0.975
-27.375 115.875 1.725
-29.175 117.075 0.075
-30.375 118.875 2.925
-30.375 118.875 3.225
-29.025 116.925 0.075
-29.025 116.925 -0.375
-29.325 117.225 -0.375
-28.875 116.775 0.375
-29.475 117.375 0.525
-30.675 119.775 2.175
-30.675 119.775 1.875
-21.075 124.575 3.075
-21.075 124.575 0.375
-21.075 124.575 2.925
-21.075 124.575 2.025
-20.625 123.975 1.425
-29.925 117.975 -0.075
-29.625 117.525 -1.125
-29.625 117.525 1.275
-28.725 116.625 -0.825
-20.925 124.425 1.575
-20.925 124.425 1.425
-20.925 124.425 1.725
-27.825 116.025 0.975
-27.825 116.025 2.775
-27.825 116.025 1.725
-27.825 116.025 2.475
-22.725 125.925 0.975
-20.325 123.525 2.175
-21.975 125.475 0.075
-21.975 125.475 4.275
-28.575 116.475 0.525
-20.775 124.275 2.025
-30.075 118.125 2.475
-30.075 118.125 -0.075
-30.075 118.125 -0.375
-30.825 120.375 3.375
-20.475 123.825 3.075
-30.825 120.225 1.725
-28.425 116.325 2.775
-29.325 117.075 0.075
-29.325 117.075 0.225
-30.825 120.075 1.875
-29.175 116.925 0.375
-29.025 116.775 -0.375
-29.025 116.775 1.575
-29.025 116.775 -0.525
-21.075 124.725 1.875
-27.675 115.875 0.975
-27.975 116.025 2.625
-27.975 116.025 2.475
-27.975 116.025 0.975
-27.975 116.025 2.325
-27.975 116.025 0.675
-22.575 125.925 1.425
-30.675 119.325 1.125
-30.825 119.925 2.025
-28.275 116.175 0.225
-20.475 123.975 3.075
-20.475 123.975 1.575
-30.075 117.975 -1.275
-20.775 124.425 2.475
-20.775 124.425 1.875
-20.775 124.425 1.725
-30.825 119.775 1.875
-21.975 125.625 4.125
-22.725 126.075 0.975
-28.125 116.025 0.525
-28.125 116.025 0.375
-30.825 119.625 1.575
-30.825 119.625 0.225
-30.825 119.625 1.875
-30.225 118.125 2.325
-23.925 126.525 2.325
-29.325 116.925 -0.375
-29.175 116.775 0.375
-29.175 116.775 0.825
-29.175 116.775 -0.225
-29.175 116.775 0.975
-24.675 126.675 3.525
-24.675 126.675 3.225
-21.075 124.875 2.175
-30.075 117.825 0.675
-28.425 116.175 0.075
-29.775 117.375 0.225
-29.775 117.375 -0.075
-20.775 124.575 1.875
-27.975 115.875 2.775
-30.975 120.075 1.425
-22.575 126.075 1.575
-22.875 126.225 0.975
-27.675 115.725 2.175
-27.675 115.725 2.625
-27.675 115.725 2.475
-20.025 123.375 0.375
-30.225 117.975 -0.525
-28.725 116.325 0.225
-30.825 119.325 0.975
-20.625 124.425 1.875
-20.625 124.425 1.725
-20.625 124.425 1.125
-23.625 126.525 3.825
-30.975 119.925 1.575
-30.975 119.925 1.425
-30.075 117.675 1.575
-30.975 119.775 1.425
-20.475 124.275 1.875
-20.475 124.275 1.575
-29.325 116.775 0.375
-29.475 116.925 -0.375
-21.075 125.025 2.325
-30.525 118.425 2.625
-28.125 115.875 3.225
-28.125 115.875 0.675
-29.175 116.625 0.375
-29.175 116.625 0.075
-29.175 125.325 -0.525
-29.175 125.325 -0.825
-19.875 123.225 0.375
-30.675 118.725 1.725
-29.025 116.475 -0.225
-29.775 117.225 0.225
-29.775 117.225 0.525
-30.975 119.625 0.375
-30.975 119.625 1.425
-28.425 116.025 0.825
-30.225 117.825 -0.225
-24.825 126.825 2.475
-29.925 117.375 -0.075
-20.625 124.575 2.625
-30.825 119.025 2.325
-26.775 115.275 1.575
-30.975 119.475 1.125
-30.975 119.475 1.425
-30.975 119.475 -0.225
-30.975 119.475 2.025
-27.975 115.725 1.275
-30.075 117.525 -0.225
-28.275 115.875 0.825
-22.275 126.075 3.825
-30.825 118.875 1.725
-30.825 118.875 2.325
