# .PCD v0.7 - Point Cloud Data file format
VERSION 0.7
FIELDS x y z
SIZE 4 4 4
TYPE F F F
COUNT 1 1 1
WIDTH 2048
HEIGHT 1
VIEWPOINT 0 0 0 1 0 0 0
POINTS 2048
DATA ascii
-5.775 53.475 0.225
-5.775 53.625 0.075
-5.775 53.625 0.225
-5.775 53.325 0.075
-5.925 53.475 0.225
-5.625 53.475 0.375
-5.625 53.475 0.075
-5.925 53.325 0.675
-5.925 53.325 -0.075
-5.925 53.325 0.075
-5.625 53.625 0.375
-5.625 53.625 1.125
-5.625 53.325 0.225
-5.625 53.625 0.825
-5.625 53.325 -0.225
-5.625 53.325 0.375
-5.625 53.625 0.525
-5.625 53.625 -0.075
-5.775 53.775 -0.075
-5.475 53.475 0.975
-5.625 53.775 -0.525
-5.625 53.775 0.225
-6.075 53.325 0.075
-6.075 53.325 0.675
-5.475 53.625 0.525
-5.925 53.175 0.225
-5.925 53.175 -0.075
-5.625 53.175 -0.525
-5.625 53.175 0.225
-6.075 53.175 -0.075
-6.075 53.175 0.375
-5.475 53.175 -0.375
-5.775 53.925 0.075
-5.625 53.925 0.075
-5.625 53.925 0.225
-5.925 53.025 0.375
-5.925 53.025 -0.825
-5.925 53.025 0.225
-5.625 53.025 -1.725
-5.475 53.925 -0.075
-5.475 53.925 0.225
-5.325 53.775 0.375
-5.325 53.775 0.525
-6.225 53.175 0.075
-5.475 53.025 0.075
-5.175 53.475 0.675
-5.175 53.325 -0.975
-5.175 53.625 -0.075
-5.625 54.075 2.325
-5.625 54.075 -0.075
-5.325 53.925 1.575
-5.325 53.025 -0.975
-5.325 53.025 -1.275
-6.075 52.875 0.375
-5.475 54.075 0.075
-5.175 53.175 -0.675
-5.175 53.175 1.125
-5.775 54.225 -0.075
-5.775 54.225 0.225
-5.025 53.475 -0.225
-6.225 52.875 0.375
-6.375 53.025 -3.375
-5.025 53.325 -0.525
-5.025 53.625 0.675
-5.925 52.725 -0.675
-5.925 52.725 5.325
-5.625 54.225 -0.225
-5.625 54.225 -0.075
-6.075 52.725 0.075
-6.075 52.725 -0.075
-5.475 54.225 -0.225
-5.475 54.225 0.075
-5.475 54.225 0.825
-6.375 52.875 0.225
-5.175 54.075 0.525
-5.025 53.925 0.525
-6.225 52.725 -0.075
-5.325 52.725 -0.375
-5.325 54.225 0.075
-5.325 52.725 -0.075
-4.875 53.475 -0.075
-5.925 52.575 -0.825
-5.925 52.575 2.025
-5.925 54.375 0.525
-5.925 54.375 0.825
-5.625 54.375 -0.075
-5.625 54.375 0.075
-5.625 54.375 0.675
-4.875 53.325 -0.225
-4.875 53.325 0.225
-6.075 52.575 -0.675
-6.075 52.575 0.375
-6.075 54.375 1.275
-6.075 54.375 -0.975
-5.475 54.375 -0.075
-5.475 54.375 1.575
-5.475 54.375 0.075
-5.475 54.375 0.525
-5.475 52.575 -1.275
-4.875 53.775 -0.225
-4.875 53.175 -0.225
-4.875 53.175 0.375
-4.875 53.175 -2.925
-5.175 54.225 0.675
-5.175 52.725 -0.075
-5.025 54.075 0.975
-5.025 54.075 0.675
-6.225 52.575 0.375
-6.225 52.575 0.075
-5.325 52.575 0.225
-5.325 52.575 -0.225
-5.325 54.375 0.975
-5.325 54.375 0.375
-4.875 53.025 0.375
-5.775 54.525 0.825
-4.725 53.475 0.375
-5.025 54.225 0.675
-5.025 54.225 0.525
-4.725 53.325 -0.825
-4.725 53.625 0.375
-5.925 52.425 0.825
-5.925 52.425 1.125
-5.925 52.425 -1.425
-6.375 52.575 -0.075
-6.375 52.575 0.075
-5.175 52.575 -0.225
-4.725 53.775 0.225
-4.725 53.775 0.375
-4.725 53.925 -0.225
-4.725 53.025 -0.225
-6.225 52.425 0.375
-6.225 52.425 0.075
-5.325 52.425 0.375
-4.875 54.225 2.025
-5.775 54.675 0.375
-5.775 52.275 -1.725
-5.775 52.275 -0.075
-5.625 54.675 0.225
-4.725 52.875 -0.225
-4.725 54.075 -0.375
-4.725 54.075 -0.075
-6.375 52.425 -0.225
-6.375 52.425 0.075
-6.375 52.425 -0.075
-5.175 52.425 -0.225
-5.475 54.675 0.075
-4.575 53.775 -0.225
-4.575 53.775 0.525
-4.575 53.175 0.675
-4.575 53.175 -5.475
-6.075 52.275 -0.675
-5.325 54.675 0.675
-4.575 53.925 -0.225
-6.225 52.275 0.225
-4.725 54.225 -4.875
-5.175 54.675 -0.225
-4.575 54.075 -0.075
-4.575 52.875 -0.375
-6.375 52.275 0.225
-5.175 52.275 -0.525
-5.175 52.275 0.525
-5.175 52.275 -0.225
-4.425 53.475 -0.225
-4.425 53.625 -0.225
-4.725 54.375 -0.825
-4.725 54.375 -0.375
-4.725 54.375 -0.975
-5.025 54.675 -0.975
-6.975 54.225 0.975
-6.525 52.275 -0.375
-5.025 52.275 1.725
-5.025 52.275 1.575
-6.225 52.125 -0.375
-6.225 54.825 -0.225
-5.325 52.125 0.225
-5.325 54.825 1.125
-5.325 54.825 -0.225
-6.375 52.125 0.375
-6.375 52.125 -0.225
-5.175 54.825 -0.225
-4.725 52.425 -1.725
-6.675 54.675 -2.175
-4.875 54.675 -0.975
-4.575 54.375 -0.675
-4.275 53.475 -0.375
-4.275 53.325 0.075
-4.275 53.325 -0.375
-5.625 51.975 -0.075
-5.925 54.975 0.975
-5.625 54.975 -6.075
-5.925 51.975 0.525
-5.475 54.975 -0.075
-5.475 51.975 -0.075
-5.025 52.125 -0.375
-5.025 52.125 -0.225
-6.225 51.975 0.825
-6.225 51.975 0.075
-5.325 54.975 0.225
-5.325 54.975 -0.075
-5.325 54.975 0.525
-6.375 51.975 -0.675
-6.375 51.975 0.225
-5.175 54.975 0.225
-5.175 54.975 0.075
-5.175 54.975 0.375
-4.275 54.075 0.525
-4.425 54.375 -0.675
-4.875 54.825 -1.125
-5.775 55.125 -0.075
-5.775 55.125 0.375
-5.775 51.825 0.225
-5.775 51.825 -0.375
-5.625 51.825 -1.425
-5.625 51.825 -0.075
-5.925 51.825 0.525
-5.925 55.125 0.375
-4.125 53.625 2.025
-5.475 55.125 0.075
-5.475 55.125 0.225
-5.475 55.125 0.375
-4.275 54.225 0.675
-6.525 51.975 -0.525
-4.275 54.225 0.225
-5.025 54.975 0.075
-6.525 51.975 -5.625
-4.425 54.525 -0.225
-5.325 55.125 0.225
-4.725 54.825 -0.825
-4.725 52.125 1.875
-6.675 51.975 -4.725
-4.875 51.975 2.325
-4.875 54.975 -0.075
-4.875 54.975 1.425
-6.375 51.825 0.075
-6.375 55.125 -0.375
-5.175 51.825 -1.425
-5.175 55.125 0.225
-5.775 55.275 0.375
-5.775 55.275 0.975
-4.425 54.675 -0.225
-4.425 54.675 -0.525
-7.125 52.275 -4.425
-5.625 51.675 -0.225
-5.625 51.675 0.375
-5.475 51.675 -0.225
-4.275 54.525 0.225
-4.275 54.525 0.375
-4.275 54.525 -0.225
-6.225 55.275 0.525
-5.325 55.275 0.225
-5.325 55.275 -4.275
-4.125 54.375 -0.225
-6.375 55.275 -0.075
-3.975 52.875 0.075
-3.975 54.075 -0.525
-3.975 54.075 -0.675
-4.425 54.825 -0.375
-4.425 52.125 2.325
-4.275 54.675 -0.225
-4.275 54.675 -0.075
-4.275 52.275 2.475
-3.975 52.725 -0.225
-6.525 51.675 0.075
-6.525 51.675 0.225
-5.625 55.425 -2.475
-4.725 55.125 1.425
-3.825 53.325 0.225
-4.125 52.425 0.225
-5.625 51.525 -0.075
-5.625 51.525 0.375
-3.825 53.175 -0.825
-6.075 51.525 -1.125
-5.475 51.525 -0.225
-3.825 53.025 -0.075
-6.225 51.525 0.375
-7.125 54.975 2.175
-7.275 52.125 -1.725
-5.175 55.425 -0.825
-4.575 55.125 1.575
-4.575 55.125 3.825
-4.575 51.825 0.975
-3.825 52.875 0.525
-3.825 52.875 0.225
-4.125 52.275 -0.075
-6.375 51.525 0.225
-5.175 51.525 -0.075
-5.175 51.525 0.825
-3.975 54.525 0.525
-3.975 52.425 -0.075
-3.825 52.725 0.225
-3.825 52.725 0.525
-3.675 53.325 0.225
-3.675 53.325 -0.825
-3.675 53.325 0.075
-3.675 53.325 -0.525
-5.625 51.375 -0.075
-4.275 54.975 0.225
-5.475 51.375 -0.225
-4.125 52.125 -0.075
-4.125 52.125 0.225
-4.125 54.825 0.375
-3.825 52.575 -0.675
-3.825 52.575 -0.375
-3.675 53.925 0.075
-3.825 52.575 -0.075
-3.675 53.025 -0.525
-3.675 53.025 0.675
-3.675 53.025 0.525
-3.675 53.025 0.375
-5.325 51.375 -0.525
-5.325 51.375 -0.375
-5.325 55.575 -0.225
-6.675 51.525 0.375
-6.675 51.525 0.525
-3.975 52.275 -0.075
-3.675 52.875 0.675
-3.675 52.875 0.825
-5.175 55.575 -2.325
-3.825 54.525 0.225
-3.825 52.425 0.375
-3.825 52.425 -0.375
-3.825 52.425 -0.075
-3.825 52.425 -0.225
-4.725 51.525 -0.525
-4.275 51.825 2.325
-4.275 55.125 -0.075
-4.275 55.125 -0.525
-4.125 54.975 -0.225
-4.125 51.975 -0.975
-4.125 51.975 -0.075
-3.675 54.225 -0.375
-6.525 51.375 0.375
-3.525 53.475 0.075
-3.525 53.475 0.375
-3.525 53.475 -5.025
-3.525 53.475 -0.075
-3.975 54.825 -0.225
-3.975 52.125 -0.075
-3.975 52.125 -0.525
-3.975 52.125 0.075
-3.525 53.325 -2.325
-3.525 53.325 0.375
-3.525 53.325 0.075
-6.075 51.225 -0.375
-3.525 53.775 0.075
-3.525 53.775 -1.425
-3.525 53.775 -0.075
-3.525 53.175 0.075
-3.675 52.575 0.225
-3.675 54.375 -0.225
-3.825 54.675 0.525
-3.825 54.675 -0.075
-3.525 53.925 0.375
-6.225 51.225 -1.275
-5.325 55.725 2.025
-3.525 53.025 -0.075
-3.525 53.025 -0.675
-6.375 51.225 0.375
-5.175 51.225 -1.275
-5.175 55.725 -0.225
-3.525 52.875 0.375
-3.525 52.875 -0.075
-3.525 52.875 2.025
-3.525 54.075 0.225
-3.525 54.075 0.825
-3.525 52.875 1.575
-4.125 51.825 -0.375
-4.125 51.825 0.375
-4.125 51.825 -0.075
-4.125 51.825 -0.825
-4.125 55.125 -0.225
-4.125 55.125 -0.075
-3.975 51.975 0.375
-3.975 51.975 0.075
-3.975 51.975 0.525
-4.275 51.675 -0.525
-3.675 54.525 -0.075
-3.675 54.525 -0.375
-6.825 51.375 0.225
-6.825 51.375 0.375
-3.675 52.425 -0.375
-3.675 52.425 -0.675
-3.675 52.425 0.375
-3.525 52.725 -0.225
-3.525 54.225 -0.075
-3.825 52.125 -0.675
-4.425 51.525 0.225
-4.425 51.525 0.375
-5.775 55.875 0.525
-5.775 51.075 -0.825
-3.375 53.475 -0.375
-5.925 51.075 -0.075
-3.375 53.625 -0.225
-3.375 53.325 0.075
-3.675 54.675 0.825
-3.675 54.675 -0.075
-6.075 51.075 -0.375
-6.075 51.075 -0.075
-3.375 53.775 -0.225
-3.375 53.775 1.275
-3.375 53.775 -1.875
-4.575 51.375 0.075
-3.675 52.275 -0.375
-3.675 52.275 -0.075
-3.525 52.575 1.875
-3.525 52.575 0.375
-3.525 54.375 -0.825
-6.675 51.225 0.975
-3.525 54.375 0.225
-3.525 54.375 0.075
-4.875 55.725 0.075
-4.875 55.725 -0.975
-4.875 55.725 0.375
-3.975 51.825 -0.825
-3.975 55.125 0.225
-3.375 53.925 -0.075
-4.125 51.675 -0.375
-4.125 51.675 -0.225
-3.825 51.975 0.375
-4.275 51.525 -0.225
-4.275 51.525 0.975
-4.275 51.525 -0.075
-6.375 51.075 0.825
-3.375 54.075 -0.075
-3.375 54.075 0.375
-3.525 54.525 0.675
-3.525 54.525 0.075
-3.525 54.525 0.225
-3.525 54.525 -0.075
-6.825 51.225 0.375
-4.725 55.725 0.225
-4.725 51.225 -0.225
-4.725 55.725 -1.875
-3.525 52.425 0.375
-3.675 52.125 0.225
-3.675 54.825 -0.975
-4.425 51.375 0.225
-5.025 51.075 -0.075
-6.525 51.075 -0.225
-6.525 51.075 0.075
-6.525 55.875 0.225
-3.375 54.225 -0.525
-3.375 52.725 -0.075
-7.575 51.675 0.525
-7.575 51.675 0.375
-5.775 56.025 0.075
-3.525 54.675 -0.075
-3.525 54.675 -1.875
-4.575 51.225 1.125
-3.225 53.475 1.125
-3.525 52.275 0.075
-3.525 52.275 0.375
-5.775 50.925 -5.625
-4.125 55.425 -1.575
-3.825 51.825 0.075
-4.125 51.525 -0.375
-5.925 50.925 -0.225
-3.375 54.375 -0.075
-3.375 54.375 -0.675
-6.075 50.925 0.975
-6.075 50.925 0.225
-3.675 54.975 1.425
-3.675 54.975 -0.075
-3.675 54.975 -0.825
-3.675 54.975 -0.225
-4.275 51.375 1.575
-6.225 56.025 -2.175
-3.225 53.925 0.075
-4.725 55.875 -0.525
-3.375 54.525 -0.225
-3.375 54.525 0.975
-3.225 52.875 0.825
-3.225 54.075 -0.075
-3.225 54.075 -0.675
-3.375 52.425 0.825
-6.375 50.925 -0.825
-4.425 55.725 -4.875
-3.525 54.825 -0.225
-3.525 54.825 0.825
-3.525 54.825 -0.975
-3.525 54.825 0.225
-3.525 54.825 -0.075
-3.525 54.825 0.675
-7.575 55.425 -2.775
-3.975 55.425 0.375
-7.725 51.675 0.375
-6.525 50.925 0.525
-3.675 55.125 -0.525
-3.675 55.125 1.275
-3.375 54.675 0.225
-3.375 54.675 0.675
-3.375 54.675 1.275
-3.375 54.675 1.575
-3.375 54.675 -4.275
-3.375 54.675 -0.075
-3.375 54.675 -0.675
-3.375 54.675 -4.575
-6.975 51.075 -0.075
-4.575 51.075 0.225
-4.575 51.075 -0.075
-3.375 52.275 0.225
-5.775 50.775 -1.275
-3.225 54.375 0.975
-3.225 54.375 0.825
-4.275 51.225 0.525
-3.525 54.975 0.075
-3.525 54.975 0.225
-3.525 54.975 -1.125
-5.925 50.775 -0.225
-3.075 53.175 0.075
-6.075 50.775 0.375
-3.075 53.925 0.075
-3.075 53.025 0.375
-7.125 51.075 -0.075
-4.425 51.075 0.075
-3.375 52.125 0.075
-3.375 54.825 -0.975
-3.375 54.825 1.575
-3.375 54.825 0.225
-3.825 55.425 -0.225
-4.725 56.025 -1.875
-3.225 54.525 0.075
-3.225 54.525 -1.125
-3.225 54.525 -0.975
-3.225 54.525 -0.825
-3.225 54.525 -0.525
-3.225 52.425 -0.825
-3.825 51.525 1.275
-6.825 50.925 -0.675
-6.825 50.925 0.525
-6.825 50.925 0.225
-4.725 50.925 0.075
-3.075 52.875 -0.375
-3.075 54.075 0.075
-3.975 55.575 0.225
-3.975 55.575 1.725
-6.375 50.775 -0.075
-6.375 50.775 1.275
-3.525 51.825 -1.425
-4.125 51.225 0.375
-5.025 56.175 0.525
-3.075 54.225 -1.275
-6.525 50.775 0.525
-6.525 50.775 1.275
-3.225 54.675 0.075
-6.975 50.925 0.075
-6.975 50.925 0.375
-4.575 50.925 0.075
-4.575 50.925 -0.375
-4.575 50.925 0.225
-3.375 51.975 3.975
-3.375 54.975 0.225
-3.075 52.575 -0.375
-6.675 50.775 -0.825
-4.875 50.775 -0.075
-4.875 50.775 1.275
-5.775 50.625 -0.225
-2.925 53.325 -0.075
-2.925 53.325 0.225
-5.925 50.625 -0.225
-3.675 55.425 -0.225
-5.475 50.625 -4.275
-3.825 55.575 -0.225
-3.525 55.275 -1.125
-3.525 55.275 0.075
-7.575 51.225 0.075
-3.975 55.725 -0.075
-3.975 55.725 -0.375
-2.925 53.925 0.075
-3.225 52.125 0.375
-3.225 54.825 -1.875
-3.225 54.825 1.425
-3.225 54.825 0.225
-6.225 50.625 -0.525
-6.225 50.625 1.125
-7.125 50.925 0.075
-6.825 50.775 -0.825
-4.725 50.775 -0.075
-4.725 50.775 0.675
-3.375 55.125 0.225
-3.375 55.125 0.675
-3.375 55.125 0.075
-3.375 55.125 0.525
-2.925 54.075 -0.375
-2.925 54.225 0.375
-6.525 50.625 0.525
-4.575 56.175 -0.525
-3.075 54.675 -0.975
-3.075 54.675 -0.525
-6.975 50.775 0.075
-4.575 50.775 0.225
-4.575 50.775 0.375
-4.575 50.775 0.825
-3.825 55.725 -0.075
-6.675 50.625 -0.225
-6.675 50.625 -0.825
-4.875 50.625 -0.375
-4.875 50.625 -0.075
-3.375 55.275 0.075
-3.375 55.275 1.125
-2.775 53.475 0.525
-5.625 56.475 -0.375
-2.775 53.625 -0.375
-6.075 50.475 -0.075
-6.075 50.475 -0.975
-2.775 53.775 1.425
-2.775 53.775 0.375
-3.075 54.825 -0.075
-7.125 50.775 0.075
-4.425 50.775 0.525
-4.425 50.775 -0.225
-4.425 50.775 -0.375
-4.425 50.775 0.375
-6.225 50.475 -0.225
-5.325 56.475 2.925
-5.325 56.475 0.375
-5.325 56.475 0.225
-3.225 55.125 1.125
-4.725 50.625 0.075
-4.725 50.625 -0.375
-6.375 50.475 -0.525
-5.175 50.475 1.275
-5.175 56.475 -3.975
-2.775 52.875 -0.075
-2.775 52.875 0.675
-7.875 51.225 -0.075
-3.525 51.375 -0.975
-3.375 55.425 -0.075
-2.925 54.675 0.225
-2.925 54.675 -1.725
-6.525 50.475 -0.525
-2.775 54.225 2.025
-6.975 50.625 0.375
-6.975 50.625 0.075
-4.575 50.625 0.525
-4.575 50.625 0.375
-3.975 56.025 0.975
-3.225 55.275 0.075
-3.225 55.275 -2.325
-3.225 55.275 0.375
-3.225 55.275 0.675
-3.225 55.275 -0.075
-4.875 50.475 0.225
-4.875 50.475 0.975
-4.875 50.475 0.375
-4.875 50.475 -0.375
-4.875 56.475 0.075
-2.625 53.625 0.075
-2.625 53.625 0.525
-7.125 50.625 0.075
-4.425 50.625 -0.075
-4.425 50.625 0.825
-4.425 50.625 -0.225
-4.425 50.625 0.675
-3.075 55.125 -0.075
-3.075 55.125 0.675
-2.625 53.775 0.525
-2.625 53.175 2.175
-2.775 54.525 1.425
-6.825 50.475 -0.225
-4.725 50.475 0.075
-4.725 56.475 -0.075
-4.725 56.475 0.375
-6.225 50.325 -0.525
-6.225 50.325 -0.225
-2.625 53.025 -0.225
-5.175 50.325 0.375
-3.225 55.425 2.925
-3.225 55.425 0.225
-3.225 55.425 0.075
-3.225 55.425 0.525
-4.275 56.325 0.225
-7.275 50.625 0.225
-2.775 54.675 0.375
-2.775 54.675 0.525
-2.775 54.675 1.425
-6.975 50.475 0.375
-6.975 50.475 -1.125
-4.575 50.475 0.075
-4.575 50.475 0.525
-6.525 50.325 -0.375
-3.975 56.175 0.825
-3.075 55.275 -0.375
-3.075 55.275 -0.075
-3.075 55.275 0.375
-3.075 55.275 0.675
-3.075 55.275 0.225
-7.575 50.775 3.675
-6.675 50.325 1.275
-4.875 50.325 -0.225
-4.875 50.325 0.075
-4.875 56.625 0.225
-4.875 56.625 0.075
-2.625 52.575 0.225
-2.625 54.375 -3.675
-7.125 50.475 0.375
-7.125 50.475 -0.525
-7.125 50.475 0.225
-3.375 55.725 0.075
-3.375 55.725 -0.075
-4.425 50.475 -0.675
-4.425 50.475 -1.425
-7.425 50.625 -0.225
-7.425 50.625 0.375
-2.475 53.475 0.375
-2.475 53.325 -0.525
-3.225 55.575 0.225
-3.225 55.575 0.075
-3.225 55.575 0.375
-5.625 50.175 0.825
-2.475 53.775 -4.425
-6.075 50.175 -0.225
-6.825 50.325 1.125
-2.625 52.425 0.825
-3.075 55.425 0.075
-6.225 50.175 0.375
-6.225 50.175 0.225
-4.275 50.475 -0.075
-2.475 52.875 0.375
-2.475 52.875 0.825
-4.575 50.325 0.225
-4.575 56.625 0.525
-4.575 56.625 0.075
-4.575 56.625 -1.275
-2.925 55.275 0.525
-2.625 52.275 0.975
-5.025 50.175 0.075
-3.375 55.875 -0.525
-3.525 56.025 -0.675
-3.525 56.025 -0.225
-3.225 55.725 -0.075
-3.225 55.725 -0.825
-3.225 55.725 0.075
-3.225 55.725 0.225
-3.675 56.175 0.225
-3.075 55.575 0.075
-6.675 50.175 -0.975
-4.875 50.175 0.525
-2.775 51.825 -0.075
-7.125 50.325 0.225
-7.125 50.325 0.675
-7.125 50.325 0.525
-2.625 54.825 0.825
-2.625 54.825 0.525
-2.625 54.825 0.075
-2.625 54.825 1.275
-2.325 53.475 1.425
-2.925 55.425 0.225
-2.925 55.425 0.375
-2.925 55.425 0.675
-5.625 50.025 -0.975
-5.625 50.025 0.825
-4.725 56.775 -0.375
-2.325 53.775 0.375
-2.325 53.175 0.825
-2.475 52.425 -0.225
-6.075 50.025 -0.225
-2.325 53.025 0.975
-6.225 50.025 -1.275
-7.275 50.325 -0.975
-2.625 54.975 0.075
-7.575 50.475 0.675
-3.225 55.875 0.075
-3.225 55.875 -0.075
-2.325 52.875 -1.725
-2.325 52.875 1.275
-3.525 56.175 -0.225
-3.075 55.725 -0.225
-3.075 55.725 0.075
-3.075 55.725 -0.075
-3.075 55.725 0.225
-3.525 50.775 0.225
-2.325 52.725 0.825
-2.325 54.225 0.225
-5.025 50.025 -0.225
-5.025 50.025 0.375
-2.925 55.575 0.225
-2.925 55.575 0.075
-2.925 55.575 0.375
-2.925 55.575 -0.075
-3.675 56.325 -0.225
-3.675 56.325 0.375
-3.675 56.325 -0.375
-2.925 55.575 0.675
-2.325 54.375 0.225
-7.125 50.175 0.075
-2.775 55.425 0.075
-8.775 51.525 -0.225
-5.925 49.875 -0.225
-3.225 56.025 -0.075
-3.075 55.875 0.075
-4.275 56.775 0.675
-2.475 54.975 0.675
-2.475 54.975 0.075
-4.275 50.175 0.075
-2.175 53.925 4.575
-2.175 53.025 0.975
-2.175 52.875 1.125
-2.175 52.875 1.275
-6.375 49.875 0.075
-4.575 56.925 0.375
-2.325 54.675 -2.325
-2.325 54.675 -0.675
-2.325 52.275 0.225
-2.325 52.275 0.975
-3.675 56.475 -0.075
-2.775 55.575 0.225
-2.775 51.375 1.725
-2.775 51.375 0.825
-2.175 52.725 0.675
-5.025 49.875 -0.075
-6.525 49.875 -0.675
-2.625 55.425 -0.075
-2.625 55.425 0.675
-2.625 55.425 -0.825
-2.625 55.425 0.525
-2.325 54.825 0.225
-7.125 50.025 0.225
-2.175 52.575 0.225
-2.175 52.575 1.125
-3.225 56.175 0.075
-3.225 56.175 -0.225
-3.075 56.025 0.075
-3.075 56.025 -0.225
-2.925 55.875 0.375
-2.925 55.875 -0.075
-2.925 55.875 0.225
-3.525 56.475 -0.075
-2.775 55.725 -0.825
-2.775 55.725 0.375
-2.025 53.475 -0.525
-2.775 55.725 -0.225
-2.775 55.725 0.225
-2.775 55.725 0.825
-2.025 53.475 0.375
-2.025 53.475 0.225
-6.825 49.875 -0.225
-2.025 53.325 -0.225
-3.975 56.775 -1.125
-3.975 56.775 -1.425
-2.475 55.275 0.675
-2.475 55.275 0.225
-4.275 56.925 -2.175
-7.275 56.925 0.675
-2.025 53.775 -0.075
-2.025 53.775 0.225
-2.325 54.975 3.075
-2.025 53.175 -0.225
-6.225 49.725 0.825
-6.225 49.725 -1.275
-6.225 49.725 0.975
-2.025 53.925 -4.275
-5.325 49.725 -0.225
-2.025 53.025 1.275
-2.025 53.025 -0.075
-2.625 55.575 -0.825
-6.975 57.075 -3.825
-4.575 57.075 0.075
-2.175 52.275 0.525
-6.375 49.725 0.075
-2.025 52.875 0.975
-2.025 52.875 -0.675
-3.075 56.175 0.075
-2.925 56.025 0.075
-2.925 56.025 -0.675
-2.925 56.025 -2.325
-2.325 55.125 0.375
-6.525 49.725 -0.075
-2.025 52.725 -0.525
-3.225 56.325 -0.225
-7.425 50.025 0.075
-2.475 55.425 0.225
-3.825 50.175 0.675
-2.775 55.875 0.375
-2.775 55.875 1.875
-2.775 55.875 -0.075
-2.775 55.875 0.525
-3.375 56.475 -0.825
-2.025 52.575 -0.375
-3.525 56.625 0.375
-3.975 56.925 0.975
-2.325 55.275 0.075
-3.975 50.025 0.075
-2.025 52.425 0.075
-4.275 57.075 -0.075
-7.275 49.875 0.225
-7.275 49.875 0.375
-1.875 53.625 0.675
-1.875 53.325 0.375
-6.075 49.575 0.675
-1.875 53.775 -0.525
-2.475 55.575 0.675
-2.475 51.375 0.375
-2.925 56.175 -0.075
-2.925 56.175 0.075
-1.875 53.925 -0.075
-3.075 56.325 -0.075
-3.075 56.325 0.075
-3.075 56.325 -0.225
-2.775 56.025 -0.225
-2.775 56.025 0.225
-2.775 56.025 0.375
-2.775 56.025 -0.075
-6.975 49.725 -0.975
-3.225 56.475 -0.225
-6.375 49.575 0.975
-5.175 49.575 -0.075
-5.175 49.575 0.375
-5.175 49.575 -6.375
-1.875 54.075 -0.825
-3.375 56.625 -0.225
-2.625 55.875 0.225
-2.175 55.125 -3.225
-4.125 57.075 0.525
-3.825 56.925 -5.475
-3.825 56.925 1.875
-6.525 49.575 -0.375
-6.525 49.575 -0.075
-5.025 49.575 -0.075
-1.875 52.725 0.225
-3.525 56.775 -0.225
-3.525 56.775 0.225
-2.475 55.725 0.525
-2.175 55.275 3.375
-2.175 51.675 -0.375
-2.925 56.325 0.075
-2.775 56.175 0.375
-2.775 56.175 -0.075
-2.775 56.175 0.675
-2.775 56.175 0.075
-6.825 49.575 -0.825
-4.275 57.225 0.375
-7.275 49.725 0.225
-2.025 54.975 -3.375
-2.625 56.025 -0.225
-1.725 53.775 0.225
-1.725 53.775 0.075
-5.475 49.425 0.075
-3.375 56.775 -0.225
-2.475 55.875 -0.225
-2.475 55.875 -0.675
-6.375 49.425 -0.075
-6.375 49.425 0.525
-7.425 49.725 0.375
-3.525 56.925 -0.075
-3.525 56.925 -0.525
-6.525 49.425 0.375
-4.425 57.375 0.975
-4.425 57.375 -0.075
-2.775 56.325 0.225
-2.625 56.175 -0.975
-2.625 56.175 0.225
-3.075 56.625 0.075
-2.025 51.675 -0.075
-2.475 56.025 0.975
-4.275 57.375 0.075
-4.275 57.375 0.225
-4.725 49.425 -2.775
-3.375 56.925 -0.075
-1.575 53.625 0.375
-5.625 49.275 -0.525
-5.475 49.275 0.225
-6.225 49.275 -0.225
-5.325 49.275 0.075
-7.425 49.575 0.375
-2.775 50.475 0.675
-2.775 56.475 -0.825
-2.775 56.475 0.525
-5.175 49.275 0.375
-5.175 49.275 0.225
-2.625 56.325 0.075
-2.625 56.325 0.375
-2.625 56.325 0.525
-2.475 56.175 -0.375
-2.475 56.175 -0.075
-2.475 56.175 0.675
-3.075 56.775 -0.525
-6.525 49.275 -1.425
-4.425 57.525 -0.075
-3.225 56.925 0.375
-3.225 56.925 -2.475
-2.325 56.025 0.675
-2.325 56.025 0.375
-7.575 49.575 0.225
-1.875 55.275 0.525
-3.675 57.225 -0.825
-4.275 57.525 0.375
-1.725 54.975 -3.675
-7.275 49.425 0.525
-7.275 49.425 0.675
-4.725 57.675 -0.825
-8.775 50.325 0.525
-5.625 49.125 0.525
-3.825 57.375 -0.375
-2.475 56.325 0.375
-2.475 56.325 0.525
-2.475 56.325 -0.525
-5.475 49.125 0.225
-6.975 49.275 -0.975
-3.525 57.225 -0.675
-2.025 55.725 -0.525
-6.225 49.125 -0.075
-5.325 49.125 0.075
-3.075 56.925 -0.225
-2.325 56.175 0.825
-2.325 56.175 0.225
-6.375 49.125 -1.875
-5.175 49.125 0.525
-5.175 49.125 0.375
-5.175 49.125 0.225
-5.175 49.125 0.075
-2.175 56.025 1.125
-2.175 56.025 0.675
-2.175 56.025 -1.125
-4.875 49.125 0.225
-3.375 57.225 -0.225
-2.625 50.325 -0.975
-4.275 57.675 0.375
-4.275 57.675 0.075
-1.575 51.975 -0.375
-2.475 56.475 -0.075
-7.275 49.275 -1.425
-2.925 56.925 -0.225
-2.325 56.325 0.225
-2.325 56.325 -0.225
-4.725 49.125 0.825
-7.725 49.425 0.375
-7.725 49.425 0.225
-7.725 49.425 -3.225
-2.175 56.175 0.675
-3.075 57.075 -0.225
-1.875 55.725 -3.375
-1.875 55.725 -4.875
-5.475 48.975 0.075
-6.075 48.975 -3.375
-4.125 57.675 0.375
-4.575 57.825 -0.375
-7.425 49.275 -2.025
-7.425 49.275 0.525
-1.275 53.925 -0.225
-1.275 53.925 0.525
-5.325 48.975 -0.375
-5.325 48.975 0.525
-3.225 57.225 -0.225
-3.225 57.225 0.375
-3.225 57.225 0.225
-5.175 48.975 0.975
-5.175 48.975 1.125
-5.175 48.975 0.675
-5.175 48.975 0.525
-5.175 48.975 1.575
-6.375 48.975 -1.425
-7.125 49.125 -0.825
-4.425 57.825 -0.825
-4.425 57.825 -0.225
-2.475 56.625 0.375
-5.025 48.975 -0.675
-2.625 50.175 -0.675
-8.925 50.175 1.275
-7.575 49.275 -0.225
-7.575 49.275 0.375
-7.575 49.275 0.225
-2.775 56.925 -1.575
-2.325 56.475 0.525
-2.325 56.475 0.675
-2.325 56.475 -0.225
-2.325 56.475 0.375
-8.775 50.025 0.375
-1.875 55.875 -3.375
-6.675 48.975 -0.375
-4.875 48.975 0.225
-2.025 56.175 -0.525
-2.025 56.175 1.125
-2.025 56.175 -3.825
-6.825 48.975 0.075
-3.075 57.225 -0.225
-3.825 57.675 -1.125
-3.825 57.675 0.225
-7.725 49.275 0.075
-7.725 49.275 0.225
-3.525 57.525 0.525
-1.125 53.475 1.125
-5.625 48.825 0.225
-5.625 48.825 -0.075
-5.625 48.825 0.075
-7.425 49.125 0.225
-7.425 49.125 0.375
-4.125 57.825 0.375
-1.875 56.025 -3.075
-3.225 57.375 -0.525
-3.225 57.375 -0.225
-2.475 56.775 -0.675
-2.475 56.775 0.075
-2.325 56.625 -0.075
-2.325 56.625 -0.375
-1.125 53.925 -0.525
-8.925 50.025 0.075
-2.175 50.475 -1.125
-6.375 48.825 0.525
-3.675 57.675 -0.075
-4.425 57.975 0.225
-3.375 57.525 -3.225
-7.575 49.125 0.375
-7.575 49.125 0.525
-3.975 57.825 0.825
-6.525 48.825 1.725
-2.025 50.625 -0.975
-2.025 56.325 0.675
-6.675 48.825 0.075
-4.875 48.825 1.125
-4.875 48.825 0.975
-4.875 58.125 -0.225
-3.075 57.375 -0.075
-3.075 57.375 0.225
-1.575 55.725 0.225
-1.575 55.725 0.075
-6.825 48.825 -0.375
-6.825 48.825 -0.225
-6.825 48.825 0.075
-4.725 48.825 1.275
-4.725 48.825 0.225
-7.725 49.125 0.375
-2.475 56.925 -0.075
-2.325 56.775 0.075
-2.325 56.775 -0.675
-2.175 56.625 1.575
-2.175 56.625 0.825
-2.625 57.075 -0.825
-8.325 49.425 -1.275
-7.425 48.975 -0.225
-7.425 48.975 0.375
-4.125 57.975 0.525
-4.125 57.975 0.225
-5.775 48.675 -0.075
-5.625 48.675 0.225
-5.625 48.675 0.525
-5.475 48.675 0.225
-5.475 48.675 0.075
-5.475 48.675 2.325
-5.325 48.675 1.875
-7.875 49.125 0.225
-7.875 49.125 -2.175
-3.675 57.825 -0.525
-1.575 55.875 -3.825
-5.175 48.675 -0.825
-5.175 48.675 -1.875
-1.275 55.275 -1.875
-7.575 48.975 0.525
-7.575 48.975 0.375
-3.975 57.975 -0.225
-5.025 48.675 2.025
-1.725 56.175 -2.775
-2.325 56.925 -0.075
-2.325 56.925 -0.675
-2.325 56.925 -0.975
-2.325 56.925 -0.225
-2.325 56.925 0.075
-4.875 58.275 -0.225
-4.875 58.275 3.225
-2.175 56.775 -0.525
-2.475 57.075 -0.225
-9.375 50.175 0.525
-6.675 48.675 -0.075
-2.025 56.625 1.725
-7.725 48.975 0.525
-7.725 48.975 0.075
-3.225 57.675 -0.975
-1.575 56.025 -4.125
-6.825 48.675 0.375
-6.825 48.675 0.525
-2.775 57.375 -0.225
-2.775 57.375 -1.125
-7.425 48.825 0.825
-7.425 48.825 0.675
-4.125 58.125 0.225
-4.125 58.125 0.075
-5.775 48.525 0.675
-5.775 48.525 0.075
-2.925 57.525 -0.225
-5.625 48.525 -0.075
-5.625 48.525 -0.525
-5.625 48.525 -0.375
-5.625 48.525 0.675
-5.475 48.525 0.075
-5.475 48.525 2.325
-5.475 48.525 -0.075
-7.875 48.975 0.375
-3.675 57.975 -0.375
-3.675 57.975 -1.275
-3.375 57.825 -0.075
-5.325 48.525 0.525
-5.325 48.525 -0.375
-5.325 48.525 2.475
-2.175 56.925 0.525
-2.175 56.925 -0.375
-2.175 56.925 -0.075
-4.425 58.275 -0.375
-7.575 48.825 0.525
-3.975 58.125 1.125
-3.975 58.125 -6.075
-9.225 49.875 -0.075
-2.325 57.075 0.075
-0.975 54.825 1.575
-6.375 48.525 -0.075
-6.375 48.525 -1.275
-3.075 57.675 0.375
-3.075 57.675 0.225
-9.075 49.725 1.125
-2.475 57.225 -0.825
-2.475 57.225 -0.225
-9.525 50.175 0.675
-2.625 57.375 0.375
-8.925 49.575 1.425
-8.025 48.975 0.075
-6.675 48.525 -0.075
-4.875 48.525 -0.525
-2.775 57.525 -0.225
-7.725 48.825 0.375
-7.725 48.825 0.225
-3.825 58.125 0.675
-3.225 57.825 -1.425
-6.825 48.525 0.675
-4.725 48.525 -0.975
-2.925 57.675 -0.225
-4.125 58.275 -0.225
-2.025 56.925 0.075
-2.325 57.225 0.075
-3.375 57.975 -1.125
-3.675 58.125 0.675
-5.925 48.375 0.225
-5.925 48.375 0.075
-5.625 48.375 0.525
-5.625 48.375 0.075
-2.475 57.375 -0.075
-5.475 48.375 0.375
-8.475 49.125 1.425
-3.075 57.825 -0.525
-3.075 57.825 -0.225
-5.325 48.375 -0.525
-3.975 58.275 0.675
-7.125 48.525 -1.275
-5.175 48.375 0.825
-1.125 55.725 0.075
-4.275 58.425 -0.675
-1.275 56.025 -3.975
-6.675 48.375 1.425
-6.675 48.375 -0.075
-6.675 58.575 0.525
-7.725 48.675 0.525
-9.375 49.725 0.825
-2.175 57.225 0.075
-2.175 57.225 -0.075
-1.425 56.325 -3.375
-8.625 49.125 -0.075
-2.925 57.825 -0.075
-9.225 49.575 0.675
-2.325 57.375 0.225
-2.325 57.375 -0.375
-2.325 57.375 -0.075
-2.325 57.375 1.125
-4.125 58.425 0.075
-2.475 57.525 -0.375
-1.725 56.775 -2.475
-9.075 49.425 -1.425
-3.375 58.125 -1.425
-3.375 58.125 -0.075
-3.675 58.275 0.975
-3.675 58.275 0.675
-7.875 48.675 0.225
-5.775 48.225 1.575
-5.775 48.225 0.075
-5.925 48.225 -0.075
-5.925 48.225 0.225
-5.625 48.225 0.375
-5.475 48.225 0.975
-5.475 48.225 4.575
-6.075 48.225 -0.825
-6.075 48.225 1.125
-3.975 58.425 0.075
-3.975 58.425 0.225
-5.175 48.225 -0.075
-8.775 49.125 0.225
-6.525 48.225 -0.675
-2.175 57.375 -0.375
-2.175 57.375 -0.825
-2.175 57.375 -0.225
-2.175 57.375 -0.075
-1.875 57.075 -0.675
-3.825 58.425 -0.825
-2.325 57.525 0.375
-2.325 57.525 -0.075
-1.725 56.925 -2.775
-7.725 48.525 0.525
-8.625 48.975 0.975
-2.925 57.975 1.125
-2.475 57.675 1.425
-2.475 57.675 1.125
-2.475 57.675 -3.975
-2.475 57.675 -1.575
-2.475 57.675 0.975
-9.075 49.275 -0.825
-4.125 58.575 0.225
-4.125 58.575 -0.825
-7.425 48.375 -0.825
-3.375 58.275 -0.825
-3.375 58.275 -1.275
-3.375 58.275 -0.675
-8.175 48.675 -0.375
-3.675 58.425 0.075
-5.775 48.075 0.525
-5.775 48.075 0.375
-5.925 48.075 0.375
-5.925 48.075 -0.075
-5.925 48.075 -0.375
-5.625 48.075 0.225
-0.675 55.275 2.775
-8.775 48.975 0.375
-1.275 56.475 -3.675
-1.275 56.475 -3.525
-2.775 57.975 0.225
-2.775 57.975 -0.975
-3.975 58.575 0.825
-2.025 57.375 -0.225
-2.025 57.375 -1.125
-2.175 57.525 0.375
-2.175 57.525 -0.075
-2.175 57.525 -0.675
-7.125 48.225 1.425
-4.425 48.225 -0.525
-2.325 57.675 -1.125
-2.325 57.675 -0.375
-2.325 57.675 -3.975
-2.325 57.675 -0.225
-2.325 57.675 0.075
-1.575 56.925 -2.775
-3.525 58.425 -0.825
-8.025 48.525 0.225
-6.525 48.075 -0.975
-2.925 58.125 0.225
-7.275 48.225 0.825
-7.275 48.225 -0.975
-9.075 49.125 -0.675
-2.475 57.825 1.875
-2.475 57.825 -0.825
-7.725 48.375 -1.125
-3.825 58.575 -0.225
-3.825 58.575 -0.525
-6.675 48.075 2.025
-4.875 58.875 0.825
-2.625 57.975 -0.225
-3.375 58.425 -2.775
-8.175 48.525 0.225
-4.125 58.725 0.075
-4.125 58.725 -0.225
-7.875 48.375 -0.825
-7.875 48.375 0.075
-3.675 58.575 -1.575
-2.025 57.525 0.375
-2.175 57.675 -0.225
-2.175 57.675 -0.075
-2.175 57.675 0.225
-6.975 48.075 -0.825
-6.975 48.075 0.075
-4.575 48.075 -2.325
-2.775 58.125 -1.275
-2.775 58.125 -0.225
-3.975 58.725 -0.075
-5.925 47.925 1.575
-5.925 47.925 -0.075
-5.625 47.925 2.175
-6.075 47.925 1.125
-5.475 47.925 -2.175
-7.125 48.075 1.275
-7.125 48.075 0.075
-7.125 48.075 -0.075
-8.025 48.375 0.225
-2.475 57.975 0.975
-2.925 58.275 -0.525
-8.625 48.675 0.825
-7.725 48.225 -0.975
-3.825 58.725 0.975
-7.275 48.075 -0.675
-7.275 48.075 0.825
-7.275 48.075 -0.225
-2.625 58.125 0.375
-1.875 57.525 -0.525
-1.875 57.525 -0.225
-6.675 47.925 -0.975
-2.025 57.675 -0.675
-2.025 57.675 0.375
-2.175 57.825 -1.275
-2.175 57.825 -1.125
-2.175 57.825 0.075
-2.175 57.825 -0.225
-4.725 59.025 -0.975
-3.675 58.725 0.075
-3.675 58.725 0.525
-3.675 58.725 0.225
-2.775 58.275 -0.075
-2.775 58.275 -0.225
-2.325 57.975 -0.225
-6.975 47.925 1.725
-6.975 47.925 -0.075
-3.975 58.875 0.075
-3.975 58.875 0.225
-9.075 48.825 -0.675
-2.475 58.125 -4.125
-2.475 58.125 -1.425
-3.225 58.575 -3.525
-6.075 47.775 0.825
-6.075 47.775 0.375
-6.075 47.775 0.225
-2.925 58.425 -0.225
-8.025 48.225 -4.125
-7.125 47.925 0.375
-6.225 47.775 -0.975
-6.225 47.775 0.675
-1.875 57.675 -0.225
-3.825 58.875 0.225
-7.725 48.075 -1.125
-7.725 48.075 -0.675
-2.025 57.825 -0.375
-2.025 57.825 -1.275
-2.025 57.825 -0.075
-6.525 59.175 1.125
-2.175 57.975 -0.225
-2.175 57.975 -0.075
-2.175 57.975 -0.675
-2.175 57.975 -3.675
-2.175 57.975 -0.975
-2.175 57.975 -5.175
-6.675 47.775 1.275
-2.325 58.125 -2.325
-3.675 58.875 -1.875
-3.675 58.875 0.225
-7.875 48.075 0.375
-6.975 47.775 -0.075
-9.075 48.675 -4.125
-3.975 59.025 0.075
-7.575 47.925 -0.825
-2.925 58.575 0.225
-8.025 48.075 0.525
-2.025 57.975 -0.675
-2.025 57.975 1.725
-2.025 57.975 -0.075
-6.075 47.625 -0.075
-6.075 47.625 0.525
-6.075 47.625 -1.875
-7.125 47.775 0.525
-6.225 47.625 0.675
-6.225 47.625 -0.225
-2.175 58.125 -0.225
-2.175 58.125 -0.825
-2.175 58.125 -0.375
-3.825 59.025 0.075
-3.825 59.025 0.225
-3.375 58.875 -1.425
-3.375 58.875 0.375
-3.375 58.875 -1.275
-9.225 48.675 0.075
-2.775 58.575 0.225
-7.425 47.775 -0.975
-2.475 58.425 -0.825
-1.875 57.975 -0.075
-2.025 58.125 -0.075
-2.025 58.125 -0.375
-2.175 58.275 -0.975
-5.925 47.475 0.075
-5.625 47.475 -0.075
-5.475 47.475 -0.525
-6.075 47.475 0.375
-6.225 47.475 0.225
-3.825 59.175 0.225
-7.725 47.775 0.675
-3.375 59.025 -1.725
-2.775 58.725 -0.675
-1.575 57.825 0.375
-8.175 47.925 0.525
-1.875 58.125 -0.525
-2.475 58.575 -0.375
-2.475 58.575 -0.075
-2.475 58.575 0.225
-7.425 47.625 -0.675
-7.425 47.625 -0.525
-2.025 58.275 -0.075
-2.025 58.275 0.075
-2.925 58.875 -0.825
-3.225 59.025 1.575
-7.575 47.625 -0.975
-8.025 47.775 5.025
-6.075 47.325 -0.525
-6.075 47.325 -0.075
-2.325 58.575 -0.375
-5.325 47.325 0.825
-6.225 47.325 0.525
-6.225 47.325 5.025
-1.725 58.125 -0.225
-1.725 58.125 -0.525
-2.775 58.875 -0.975
-2.775 58.875 -0.675
-1.875 58.275 0.075
-1.875 58.275 -0.375
-1.875 58.275 0.225
-1.875 58.275 -0.525
-7.275 47.475 0.075
-7.275 47.475 0.225
-4.275 59.475 -0.375
-8.175 47.775 -0.075
-8.175 47.775 0.225
-6.525 47.325 -1.125
-2.025 58.425 -0.075
-6.675 47.325 -1.575
-3.675 59.325 0.225
-3.675 59.325 -2.625
-7.425 47.475 0.075
-2.925 59.025 -0.075
-2.175 58.575 -0.525
-8.325 47.775 0.525
-1.425 57.975 0.825
-6.975 47.325 -0.075
-6.975 47.325 0.075
-1.575 58.125 1.875
-3.525 59.325 0.675
-8.025 47.625 0.375
-1.725 58.275 -0.225
-1.725 58.275 -0.375
-2.325 58.725 -0.375
-7.125 47.325 0.075
-7.125 47.325 0.225
-1.875 58.425 0.375
-1.875 58.425 0.075
-1.875 58.425 -0.075
-2.775 59.025 -0.075
-8.775 47.925 0.375
-6.225 47.175 0.375
-3.375 59.325 -0.375
-8.175 47.625 0.675
-8.175 47.625 0.525
-2.475 58.875 -0.225
-2.475 58.875 0.225
0.525 54.075 0.225
-6.375 47.175 -0.675
-7.275 47.325 -0.075
-2.025 58.575 -0.075
-6.525 47.175 -0.825
-6.525 47.175 0.225
-6.675 47.175 -0.825
-7.425 47.325 0.075
-7.425 47.325 -0.225
-1.425 58.125 -0.375
-0.975 57.675 -2.625
-1.575 58.275 -0.225
-2.625 59.025 -0.525
-2.625 59.025 0.375
-2.625 59.025 -0.225
-8.325 47.625 -0.075
-3.225 59.325 -0.675
-8.925 47.925 0.075
-1.725 58.425 -0.225
-2.325 58.875 -0.225
-3.525 59.475 0.525
-3.525 59.475 0.375
-1.875 58.575 -0.075
-1.875 58.575 -0.225
-3.075 59.325 -0.675
-2.025 58.725 -0.075
-2.025 58.725 -0.225
-2.475 59.025 -0.225
-3.375 59.475 0.825
-8.175 47.475 -0.825
-8.175 47.475 0.675
-6.225 47.025 0.975
-7.275 47.175 -0.075
-6.375 47.025 -0.075
-6.375 47.025 1.125
-2.175 58.875 -0.525
-2.175 58.875 -2.175
-6.525 47.025 0.225
-2.925 59.325 1.425
-2.625 59.175 -0.075
-1.725 58.575 0.075
-1.725 58.575 -0.525
-1.725 58.575 -0.075
-1.725 58.575 0.525
-1.725 58.575 0.225
-7.425 47.175 0.375
-7.425 47.175 0.525
-3.225 59.475 -0.675
-8.325 47.475 0.825
-8.325 47.475 -0.525
-8.325 47.475 0.975
-2.325 59.025 -0.375
-0.225 56.925 -0.975
-9.225 47.925 -3.225
-1.875 58.725 0.075
-1.875 58.725 -0.075
-8.025 47.325 0.825
-1.275 58.275 -0.075
-8.475 47.475 0.075
-1.425 58.425 -0.825
-3.825 59.775 2.475
-3.375 59.625 -2.625
-2.175 59.025 -0.375
-6.225 46.875 0.075
-7.275 59.925 1.425
-7.275 47.025 -0.075
-6.375 46.875 1.125
-1.725 58.725 -0.075
-1.725 58.725 0.375
-1.725 58.725 -0.375
-1.725 58.725 -0.225
-6.525 46.875 0.675
-8.325 47.325 0.825
-1.875 58.875 0.075
-1.875 58.875 -0.825
-6.675 46.875 -0.075
-2.325 59.175 0.225
-1.275 58.425 -0.075
-8.025 47.175 -1.275
-7.575 47.025 0.225
-2.025 59.025 -0.375
-2.025 59.025 -1.575
-2.025 59.025 -0.525
-1.425 58.575 0.225
-3.075 59.625 1.125
-8.475 47.325 0.375
-8.475 47.325 0.675
-2.475 59.325 0.225
-2.475 59.325 -0.675
-1.575 58.725 2.175
-1.575 58.725 0.375
-7.125 46.875 -0.075
-3.825 59.925 -0.225
-7.725 47.025 0.075
-7.725 47.025 -0.225
-7.725 47.025 1.875
-2.175 59.175 -0.375
-3.375 59.775 0.825
-1.725 58.875 -0.525
-1.725 58.875 0.075
-1.725 58.875 -0.075
0.975 53.775 -2.625
0.975 53.925 -0.075
-6.225 46.725 0.525
-7.275 46.875 -0.375
-2.925 59.625 1.575
-1.875 59.025 -0.225
-1.875 59.025 -0.375
-7.875 47.025 1.875
-6.525 46.725 -0.075
-6.525 46.725 -0.225
-6.525 46.725 0.675
-2.325 59.325 -0.225
-2.325 59.325 -0.825
-2.325 59.325 0.225
-3.225 59.775 -0.075
-7.425 46.875 0.375
-7.425 46.875 1.125
-2.025 59.175 -1.125
-3.525 59.925 -0.225
-1.575 58.875 -0.675
-1.575 58.875 0.675
-1.575 58.875 -1.125
-1.575 58.875 -0.075
-1.575 58.875 0.075
-7.575 46.875 0.525
-7.575 46.875 0.075
-7.575 46.875 1.275
-2.475 59.475 -0.525
-2.475 59.475 -0.225
-8.475 47.175 0.675
-8.475 47.175 -0.225
-4.575 60.225 2.025
-1.725 59.025 -0.075
-1.725 59.025 0.075
-3.375 59.925 -0.225
-3.375 59.925 -0.525
-7.725 46.875 -0.375
-7.725 46.875 1.425
-7.725 46.875 -0.525
-0.825 58.275 0.225
-1.875 59.175 0.375
-6.225 46.575 0.525
-7.275 46.725 -1.725
-8.625 47.175 0.525
-8.625 47.175 0.375
-2.325 59.475 -0.225
-2.325 59.475 -1.125
-3.225 59.925 -0.225
-6.525 46.575 0.375
-7.425 46.725 1.425
-7.425 46.725 -0.075
-6.675 46.575 -0.075
-6.675 46.575 0.675
-6.675 46.575 0.525
-1.575 59.025 -0.225
-1.575 59.025 -0.075
-1.575 59.025 -1.125
-8.025 46.875 -0.375
-8.025 46.875 -0.225
-8.775 47.175 0.075
-7.575 46.725 0.525
-7.575 46.725 -0.975
-1.725 59.175 0.675
0.675 56.175 -1.425
-0.075 57.525 -3.225
-6.975 46.575 0.075
-0.525 58.125 -0.075
-3.375 60.075 0.225
-3.375 60.075 -2.475
-8.175 46.875 -0.525
-7.725 46.725 -0.525
-7.725 46.725 -0.375
-1.275 58.875 1.125
-1.875 59.325 0.525
-1.875 59.325 -0.375
-2.625 59.775 1.575
-2.625 59.775 -1.125
-8.925 47.175 0.675
-5.775 46.425 -1.725
-2.925 59.925 -1.125
-1.425 59.025 -0.075
-2.325 59.625 -1.425
-8.625 47.025 0.375
-8.625 47.025 0.675
-8.625 47.025 0.225
-6.225 46.425 3.525
-5.175 60.525 -5.475
-3.225 60.075 -0.225
-3.225 60.075 -0.525
-8.325 46.875 -2.475
-1.575 59.175 -0.525
-1.575 59.175 -0.675
-1.575 59.175 -0.975
-1.575 59.175 -1.125
-1.575 59.175 0.075
-1.575 59.175 0.675
-1.575 59.175 0.225
-6.525 46.425 0.075
-6.525 46.425 0.225
-6.525 46.425 0.675
-7.425 46.575 -0.075
-7.425 46.575 -0.675
-7.425 46.575 -0.525
-6.675 46.425 1.125
-6.675 46.425 1.725
-8.775 47.025 0.075
-1.725 59.325 0.825
-1.725 59.325 0.675
-1.725 59.325 0.075
-1.725 59.325 -2.175
-1.725 59.325 0.525
-2.175 59.625 0.225
-1.125 58.875 0.525
-6.825 46.425 1.275
-6.825 46.425 0.825
-7.575 46.575 0.525
-6.975 46.425 0.075
-6.975 46.425 0.225
-1.875 59.475 -0.525
-1.425 59.175 -0.375
-8.925 47.025 0.225
-7.125 46.425 1.875
-2.925 60.075 -1.275
-8.625 46.875 0.375
-1.575 59.325 0.075
-1.575 59.325 0.675
-1.575 59.325 -1.725
-2.025 59.625 -0.375
-7.275 46.425 0.075
-7.275 46.425 -0.075
-6.225 46.275 0.075
-3.225 60.225 0.075
-0.825 58.725 -0.525
-0.975 58.875 -0.675
-1.725 59.475 -0.075
-6.525 46.275 -0.075
-9.075 47.025 0.375
-2.775 60.075 0.825
-2.175 59.775 0.075
-6.675 46.275 0.225
-6.675 46.275 0.525
-8.025 46.575 0.975
-1.275 59.175 -0.225
-1.275 59.175 1.125
-1.275 59.175 -0.675
-1.275 59.175 0.375
-0.075 57.975 -3.525
-3.075 60.225 0.075
-8.475 46.725 0.825
-6.825 46.275 0.825
-6.825 46.275 0.375
-6.825 46.275 -0.825
-1.425 59.325 -0.525
-1.425 59.325 -0.375
-1.425 59.325 0.225
-6.975 46.275 2.775
-2.325 59.925 -0.225
-3.825 60.525 0.675
-7.725 46.425 0.075
-1.575 59.475 0.525
-1.575 59.475 -1.725
-1.575 59.475 -0.225
-1.575 59.475 -0.075
-1.575 59.475 -1.425
-1.575 59.475 0.675
-7.125 46.275 0.825
-7.125 46.275 1.125
-2.025 59.775 -0.375
-3.225 60.375 -0.525
-5.475 60.825 -5.325
-7.875 46.425 0.525
-7.875 46.425 0.075
-1.725 59.625 -0.075
-11.625 48.975 -3.525
-1.275 59.325 0.075
-1.275 59.325 -0.225
-2.175 59.925 -0.525
-2.175 59.925 -0.225
-2.775 60.225 2.025
-2.775 60.225 -1.425
-2.775 60.225 -1.275
-8.775 46.725 0.375
-6.525 46.125 -0.075
-6.675 46.125 0.075
-6.675 46.125 0.225
-9.675 47.175 -1.125
-1.425 59.475 -0.225
-7.575 46.275 -0.675
-6.825 46.125 0.075
-0.825 59.025 -0.825
-3.375 60.525 0.075
-6.975 46.125 0.075
-6.975 46.125 0.225
-8.175 46.425 0.825
-8.925 46.725 0.375
-0.975 59.175 3.075
-7.725 46.275 -1.125
-2.025 59.925 -0.675
-2.025 59.925 -0.225
-8.625 46.575 0.825
-2.925 60.375 0.525
-7.125 46.125 0.375
-1.725 59.775 0.075
-3.225 60.525 -0.075
-8.325 46.425 0.075
-1.275 59.475 -0.375
-1.275 59.475 0.225
-1.275 59.475 -0.225
-7.875 46.275 -0.225
-7.875 46.275 0.975
-7.875 46.275 0.075
-2.175 60.075 -0.525
-8.775 46.575 -1.425
-8.775 46.575 0.525
-6.375 45.975 0.825
-1.425 59.625 -0.525
-4.125 60.825 2.775
-3.075 60.525 -0.375
-3.075 60.525 0.075
-3.075 60.525 -0.525
-6.675 45.975 1.275
-6.675 45.975 -0.075
-6.675 45.975 0.225
-7.575 46.125 -0.375
-0.975 59.325 -0.075
-0.975 59.325 -0.825
-0.975 59.325 -0.975
-1.575 59.775 -0.075
-1.575 59.775 -0.225
0.525 57.675 1.125
-6.825 45.975 -0.075
-6.825 45.975 -0.675
-8.925 46.575 0.225
-1.125 59.475 -0.225
-2.025 60.075 -0.675
-6.975 45.975 0.075
-2.925 60.525 -0.525
-2.925 60.525 0.075
-2.925 60.525 -0.075
-7.725 46.125 -0.075
-7.725 46.125 0.075
-1.275 59.625 -0.225
-1.275 59.625 0.075
-1.275 59.625 0.225
-1.275 59.625 -0.375
-7.125 45.975 0.375
-7.125 45.975 0.225
-8.325 46.275 4.275
-0.525 59.025 0.075
-7.875 46.125 0.975
-7.875 46.125 0.525
-7.275 45.975 0.075
-2.175 60.225 1.125
-1.425 59.775 -0.375
-1.425 59.775 0.225
-1.425 59.775 0.075
-2.775 60.525 -0.675
-6.525 45.825 0.525
-6.525 45.825 0.075
-3.075 60.675 -1.125
-6.675 45.825 -0.075
-1.125 59.625 -0.225
-1.125 59.625 -1.125
-7.575 45.975 -0.075
-7.575 60.975 1.875
-6.825 45.825 -0.375
-6.825 45.825 0.375
-6.825 45.825 1.125
-2.025 60.225 0.075
-2.025 60.225 -0.825
-2.025 60.225 -0.975
-8.925 46.425 -5.325
-8.925 46.425 0.525
-1.275 59.775 0.375
-1.275 59.775 -1.275
-1.275 59.775 0.075
-1.275 59.775 -0.075
-2.925 60.675 -0.525
-6.975 45.825 0.075
-6.975 45.825 0.225
-9.825 46.875 0.525
-1.725 60.075 -0.375
-1.725 60.075 -0.525
-8.625 46.275 1.125
0.075 58.575 -2.175
-1.425 59.925 0.225
-1.425 59.925 0.075
-8.325 46.125 -0.525
-9.075 46.425 0.675
-7.275 45.825 0.075
-1.875 60.225 -0.975
-1.875 60.225 -0.375
-9.675 46.725 -0.825
-8.775 46.275 0.525
-8.775 46.275 1.275
-1.125 59.775 -0.375
-1.125 59.775 -0.075
-1.125 59.775 -1.575
-1.125 59.775 -1.125
-3.075 60.825 -0.075
-2.325 60.525 0.825
-2.325 60.525 0.525
-9.225 46.425 0.675
-6.675 45.675 0.375
-6.675 45.675 0.225
-6.675 45.675 -0.225
-2.025 60.375 -0.375
-2.625 60.675 0.675
-7.575 45.825 -0.075
-8.925 46.275 0.525
-8.925 46.275 0.375
-1.275 59.925 0.375
-1.275 59.925 -1.575
-1.275 59.925 0.225
-1.275 59.925 1.725
-6.825 45.675 0.225
-6.825 45.675 0.525
-2.925 60.825 -0.075
-2.925 60.825 -0.525
-2.925 60.825 0.075
-2.925 60.825 -1.125
-6.975 45.675 -0.075
-6.975 45.675 1.875
0.375 58.425 -2.025
-7.725 45.825 -0.525
-1.425 60.075 0.075
-1.425 60.075 0.225
-10.125 46.875 0.075
-7.125 45.675 0.075
-2.475 60.675 0.675
-9.075 46.275 0.225
-9.075 46.275 0.675
-1.875 60.375 -0.375
-2.775 60.825 -0.975
-8.775 46.125 -1.125
-1.125 59.925 -0.225
-1.125 59.925 0.075
-1.125 59.925 -0.375
-5.925 45.525 0.675
-0.375 59.325 -0.525
-0.375 59.325 -0.075
-2.325 60.675 1.125
-9.225 46.275 0.975
-9.225 46.275 0.225
-2.025 60.525 -0.675
-2.025 60.525 -0.375
-1.275 60.075 0.075
0.375 58.575 -3.975
-2.625 60.825 0.225
-8.925 46.125 0.225
-9.825 46.575 -0.075
-1.725 60.375 0.675
-8.175 45.825 -2.625
-6.825 45.525 0.525
-4.725 45.525 -0.825
-2.175 60.675 3.225
-1.875 60.525 -0.225
-2.475 60.825 0.675
-9.075 46.125 0.375
-9.675 46.425 1.575
-7.125 45.525 0.075
-0.375 59.475 -0.375
-1.125 60.075 0.225
-1.125 60.075 0.075
-1.125 60.075 -1.275
-1.125 60.075 -0.825
-2.775 60.975 -0.375
-2.775 60.975 -1.425
-7.875 45.675 0.075
-7.875 45.675 -0.675
-7.275 45.525 -0.225
-5.625 45.375 -0.825
-1.275 60.225 -0.225
-2.025 60.675 1.125
-8.025 45.675 -0.225
-8.025 45.675 0.075
-7.425 45.525 -0.075
-7.425 45.525 -1.125
-1.725 60.525 -0.825
-9.825 46.425 0.525
-8.925 45.975 0.525
-8.925 45.975 0.375
-6.675 45.375 0.375
-6.675 45.375 0.525
-4.875 45.375 1.275
-10.125 46.575 0.525
-0.975 60.075 0.075
-0.975 60.075 -0.375
-0.975 60.075 -0.075
-0.975 60.075 -0.975
-8.175 45.675 -0.225
-8.175 45.675 -1.725
-2.925 61.125 -0.975
0.075 59.175 -0.525
-0.075 59.325 0.675
-6.825 45.375 0.375
-6.975 45.375 0.975
-2.475 60.975 -0.675
-2.475 60.975 -1.275
-1.125 60.225 -0.225
-1.125 60.225 -0.525
-1.125 60.225 1.275
-1.575 60.525 -0.375
-7.125 45.375 0.075
-7.125 45.375 0.375
-7.125 45.375 -0.225
-0.675 59.925 0.525
