# .PCD v0.7 - Point Cloud Data file format
VERSION 0.7
FIELDS x y z
SIZE 4 4 4
TYPE F F F
COUNT 1 1 1
WIDTH 2048
HEIGHT 1
VIEWPOINT 0 0 0 1 0 0 0
POINTS 2048
DATA ascii
-21.975 13.425 0.075
-22.125 13.575 0.375
-22.125 13.725 0.075
-21.825 13.125 2.175
-21.825 13.575 1.275
-21.675 13.275 2.175
-21.675 13.125 1.425
-21.975 13.875 1.275
-21.675 13.725 1.275
-21.525 13.575 1.575
-21.525 12.975 -0.525
-21.525 13.725 -0.825
-21.525 13.725 0.825
-22.425 14.175 4.125
-21.375 13.575 -0.675
-21.375 12.975 1.875
-21.375 12.975 2.175
-21.525 13.875 1.125
-21.525 13.875 0.525
-21.525 14.025 -0.525
-21.525 14.025 -0.825
-21.375 13.875 0.225
-21.675 14.175 -0.375
-21.225 13.575 0.225
-21.225 12.975 2.025
-21.675 14.325 0.975
-21.075 13.425 2.475
-21.075 13.575 0.825
-21.075 13.725 0.675
-21.075 12.825 1.425
-21.075 12.825 1.275
-21.225 14.025 -0.825
-21.525 14.325 0.375
-21.075 13.875 -0.075
-20.925 13.275 0.675
-22.275 14.625 -0.675
-20.925 13.425 0.225
-22.125 14.625 0.375
-22.125 14.625 0.825
-21.075 14.025 0.675
-21.075 14.025 0.075
-20.925 12.825 1.125
-21.225 14.325 -0.225
-21.075 14.175 -0.225
-20.775 13.275 1.275
-20.775 13.275 1.875
-22.125 14.775 0.375
-22.425 14.775 0.225
-22.425 14.775 -0.525
-20.775 13.575 0.375
-20.775 13.725 0.975
-20.775 13.725 0.075
-20.775 13.875 0.075
-20.775 13.875 0.675
-20.775 12.675 2.025
-20.775 13.875 0.825
-20.925 14.175 0.975
-23.175 14.625 0.225
-22.275 14.925 0.525
-22.275 14.925 -0.375
-20.625 13.125 1.875
-22.425 14.925 1.725
-20.625 13.575 0.375
-20.775 14.025 0.675
-22.575 14.925 -0.375
-21.075 14.475 -0.525
-21.225 14.625 0.075
-20.625 13.725 0.225
-21.375 14.775 0.225
-23.775 14.175 1.725
-20.475 13.125 1.725
-20.475 13.425 1.875
-22.125 15.075 0.375
-22.425 15.075 -0.225
-20.625 14.025 0.225
-23.025 14.925 0.075
-23.025 14.925 -0.525
-22.725 15.075 -0.375
-22.725 15.075 0.675
-21.375 14.925 0.525
-23.625 14.625 1.425
-20.475 14.025 -0.225
-20.475 14.025 -0.075
-22.425 15.225 0.375
-21.975 15.225 -0.525
-20.325 13.575 0.675
-22.575 15.225 0.375
-22.725 15.225 0.525
-24.075 14.175 0.825
-20.625 14.475 0.675
-20.325 12.675 1.425
-21.075 14.925 0.375
-23.475 14.925 2.025
-20.475 14.325 0.825
-21.225 15.075 -0.075
-23.025 15.225 -0.525
-22.275 15.375 -0.225
-22.275 15.375 0.075
-22.425 15.375 0.225
-22.425 15.375 0.375
-22.425 15.375 -0.675
-22.575 15.375 -2.775
-24.375 13.575 1.275
-20.175 13.725 0.075
-21.375 15.225 0.525
-23.175 15.225 -0.075
-20.475 14.475 0.225
-20.475 14.475 0.825
-21.075 15.075 0.225
-23.475 15.075 1.725
-20.175 13.875 2.325
-20.175 13.875 0.675
-20.175 13.875 0.525
-20.325 14.325 0.525
-20.325 14.325 0.075
-20.175 14.025 2.475
-23.775 14.925 1.575
-23.925 14.775 1.875
-20.475 14.625 0.225
-20.925 15.075 -1.575
-22.125 15.525 0.225
-22.425 15.525 0.525
-20.325 14.475 -0.075
-20.025 13.725 0.675
-20.025 13.725 -0.375
-20.025 12.825 1.125
-22.725 15.525 0.675
-20.025 12.675 1.275
-23.925 14.925 1.425
-20.475 14.775 0.825
-20.175 14.325 0.225
-20.325 14.625 0.075
-20.325 14.625 2.175
-20.025 14.025 1.125
-19.875 13.275 1.875
-20.175 14.475 -0.075
-19.875 13.575 2.175
-22.575 15.675 -2.475
-22.575 15.675 0.225
-23.475 15.375 0.075
-20.475 14.925 0.375
-19.875 13.725 1.125
-19.875 13.875 0.375
-22.875 15.675 -2.025
-20.175 14.625 -0.225
-20.175 14.625 0.225
-19.875 14.025 -0.075
-19.875 14.025 0.525
-24.075 15.075 1.575
-20.025 14.475 -0.375
-23.475 15.525 -0.525
-22.125 15.825 -1.575
-20.325 14.925 2.025
-20.325 14.925 0.675
-23.925 15.225 0.675
-19.875 14.175 0.075
-19.725 13.575 1.425
-20.175 14.775 0.825
-23.775 15.375 1.725
-22.725 15.825 0.375
-22.725 15.825 0.075
-19.725 13.875 2.025
-19.725 13.875 2.175
-19.875 14.325 0.375
-23.325 15.675 0.075
-24.675 14.325 0.375
-20.925 15.525 -1.725
-20.025 14.625 0.825
-23.625 15.525 0.675
-24.225 15.075 0.975
-24.225 15.075 1.425
-19.725 14.025 0.225
-19.725 14.025 0.375
-19.875 14.475 0.675
-23.475 15.675 0.075
-19.725 14.175 0.525
-19.575 13.425 0.675
-20.025 14.775 -0.075
-19.575 13.725 0.075
-19.575 13.725 -0.075
-22.725 15.975 0.825
-19.725 14.325 1.125
-24.375 15.075 0.675
-20.625 15.525 -1.275
-20.025 14.925 0.225
-20.025 14.925 -0.075
-24.525 14.925 1.125
-24.525 14.925 0.825
-23.025 15.975 0.975
-19.725 14.475 0.525
-23.475 15.825 -0.225
-23.775 15.675 0.975
-23.775 15.675 2.025
-19.575 14.175 -0.075
-19.425 13.275 1.875
-19.425 13.125 1.575
-19.425 13.425 1.875
-19.425 12.975 0.825
-19.425 13.575 1.125
-19.425 13.575 0.525
-19.425 13.575 0.825
-20.025 15.075 0.075
-24.525 15.075 0.375
-19.725 14.625 -0.075
-19.725 14.625 0.225
-19.425 13.725 0.525
-19.425 13.725 -0.075
-19.425 12.825 0.975
-23.625 15.825 -0.225
-22.725 16.125 0.675
-22.725 16.125 -0.225
-22.725 16.125 0.825
-22.725 16.125 0.975
-19.575 14.325 0.225
-23.325 15.975 -0.375
-19.425 13.875 0.525
-19.425 13.875 0.825
-19.875 11.625 1.875
-19.875 14.925 -0.075
-24.675 14.925 0.075
-24.675 14.925 1.125
-19.425 14.025 0.375
-19.575 14.475 0.675
-23.775 15.825 0.075
-23.775 15.825 -3.975
-23.775 15.825 -0.075
-24.375 15.375 0.825
-24.525 15.225 1.425
-24.225 15.525 0.975
-19.425 14.175 0.225
-24.075 15.675 0.675
-24.075 15.675 1.725
-24.675 15.075 1.125
-24.675 15.075 0.975
-22.125 16.275 3.525
-19.275 13.425 1.125
-19.275 13.425 0.975
-19.275 13.425 0.825
-21.975 16.275 0.525
-22.575 16.275 2.775
-19.275 12.975 -0.825
-19.275 13.575 0.825
-19.275 13.575 0.675
-19.275 13.575 0.075
-20.925 15.975 -1.875
-19.575 14.625 0.525
-21.825 16.275 -0.675
-22.725 16.275 0.675
-22.725 16.275 0.825
-19.275 13.725 0.525
-19.275 13.725 1.125
-19.425 14.325 0.225
-23.325 16.125 -0.675
-22.875 16.275 0.675
-19.275 13.875 0.225
-19.275 13.875 0.825
-19.275 12.675 0.825
-24.525 15.375 1.275
-24.375 15.525 0.825
-20.775 15.975 -1.725
-19.575 14.775 0.075
-19.575 14.775 -0.525
-23.025 16.275 -0.075
-23.025 16.275 0.975
-21.075 16.125 -0.525
-23.475 16.125 -0.525
-23.475 16.125 0.525
-24.675 15.225 0.525
-24.825 15.075 0.675
-19.275 14.175 0.375
-19.125 13.275 0.975
-19.125 13.275 0.825
-19.125 13.425 0.375
-23.625 16.125 -0.525
-23.625 16.125 -0.375
-19.125 13.575 0.525
-19.125 13.575 0.825
-19.125 13.575 0.225
-19.125 12.975 1.125
-23.325 16.275 0.825
-19.275 14.325 0.225
-19.125 13.725 0.975
-19.125 12.825 1.125
-24.375 15.675 1.575
-19.125 12.675 0.825
-19.125 13.875 0.375
-21.675 16.425 0.075
-24.825 15.225 0.525
-19.425 14.775 -0.075
-19.425 14.775 0.525
-23.775 16.125 -0.225
-19.275 14.475 -0.075
-19.575 15.075 0.675
-19.575 15.075 0.225
-19.125 14.175 0.375
-19.125 14.175 0.975
-21.375 16.425 -0.675
-21.375 16.425 -1.125
-23.625 16.275 -0.525
-19.425 14.925 -0.225
-19.425 14.925 0.225
-23.925 16.125 -0.075
-18.975 13.275 0.975
-18.975 13.275 0.525
-18.975 13.425 0.975
-18.975 13.125 0.525
-18.975 13.425 0.825
-20.175 15.825 0.375
-22.425 16.575 3.225
-18.975 13.575 0.375
-18.975 12.975 0.075
-19.125 14.325 -0.375
-19.125 12.225 0.675
-23.325 16.425 -0.825
-23.325 16.425 0.675
-18.975 13.725 -0.075
-19.575 15.225 0.225
-24.225 15.975 0.975
-18.975 13.875 0.675
-18.975 12.675 0.525
-20.775 16.275 0.675
-23.775 16.275 0.675
-23.775 16.275 -0.825
-21.675 16.575 -0.375
-19.275 14.775 -2.025
-19.425 15.075 0.675
-19.425 15.075 0.375
-19.125 14.475 -3.225
-19.125 14.475 -0.375
-19.125 14.475 0.225
-24.075 16.125 -0.075
-23.475 16.425 0.375
-23.475 16.425 0.675
-23.475 16.425 0.525
-23.475 16.425 1.725
-18.975 12.525 0.525
-18.975 14.025 1.275
-24.675 15.675 2.325
-24.525 15.825 1.125
-18.975 14.175 1.425
-18.975 14.175 0.525
-18.975 14.175 -0.075
-18.975 14.175 0.375
-18.975 14.175 -0.225
-19.575 15.375 -0.225
-19.575 15.375 0.075
-19.575 15.375 -0.525
-19.575 15.375 4.275
-19.575 15.375 -0.675
-23.175 16.575 2.325
-23.925 16.275 -0.375
-23.625 16.425 -0.675
-23.625 16.425 0.675
-23.625 16.425 0.375
-23.625 16.425 0.525
-18.825 13.125 1.275
-18.825 13.125 0.975
-20.325 16.125 0.375
-24.225 16.125 2.325
-18.975 14.325 0.075
-21.825 16.725 1.125
-22.725 16.725 2.625
-19.125 14.775 -0.525
-19.125 14.775 1.425
-23.775 16.425 -0.375
-23.775 16.425 0.375
-23.775 16.425 -0.675
-24.075 16.275 -0.075
-19.275 15.075 -0.075
-18.825 13.875 -0.075
-24.675 15.825 0.975
-21.675 16.725 -0.375
-18.975 14.475 0.225
-23.475 16.575 0.375
-19.575 15.525 -0.075
-19.575 15.525 0.225
-18.825 12.525 0.525
-18.825 14.025 0.525
-19.125 14.925 -0.675
-18.825 14.175 0.825
-18.825 14.175 0.675
-18.825 14.175 0.375
-23.625 16.575 0.375
-23.625 16.575 0.525
-19.275 15.225 0.225
-22.125 16.875 -1.275
-22.425 16.875 -0.525
-18.825 14.325 1.275
-23.325 16.725 -1.125
-21.975 16.875 -0.375
-22.575 16.875 2.775
-23.775 16.575 0.225
-23.775 16.575 0.675
-22.725 16.875 2.775
-20.025 16.125 -0.675
-23.475 16.725 -0.675
-23.475 16.725 -0.375
-19.275 15.375 0.375
-18.675 14.025 1.125
-18.675 14.025 1.575
-18.975 14.925 0.975
-18.825 14.625 -0.075
-23.625 16.725 -0.225
-23.625 16.725 1.125
-23.175 16.875 2.475
-19.725 15.975 1.575
-24.975 15.825 1.875
-24.675 16.125 3.075
-18.675 14.325 -0.225
-20.025 16.275 -1.725
-23.325 16.875 2.475
-23.325 16.875 1.575
-18.525 13.275 0.825
-22.425 17.025 2.625
-18.975 15.075 1.875
-18.975 15.075 1.575
-18.975 15.075 2.475
-21.975 17.025 -0.375
-22.575 17.025 2.475
-18.825 14.775 3.225
-18.825 14.775 -2.625
-18.825 14.775 2.775
-18.525 13.575 0.975
-23.775 16.725 1.125
-23.775 16.725 -0.225
-23.775 16.725 -0.075
-18.525 13.725 1.725
-18.525 12.825 1.275
-18.525 12.825 1.125
-23.475 16.875 1.275
-23.475 16.875 -0.225
-23.475 16.875 -0.675
-22.875 17.025 2.775
-19.575 15.975 -2.175
-19.725 16.125 -0.825
-23.025 17.025 2.175
-18.525 14.025 0.675
-23.925 16.725 1.875
-19.875 16.275 0.825
-19.875 16.275 -1.875
-19.275 15.675 0.675
-19.275 15.675 1.425
-23.625 16.875 -0.375
-23.625 16.875 -0.825
-23.625 16.875 1.275
-21.225 17.025 2.775
-23.325 17.025 1.725
-23.325 17.025 0.975
-18.525 14.325 0.075
-18.375 13.275 -1.275
-20.775 16.875 -0.375
-22.275 17.175 2.625
-22.275 17.175 2.025
-18.375 13.125 0.525
-22.425 17.175 2.625
-18.375 12.975 0.675
-21.975 17.175 3.225
-22.575 17.175 2.625
-19.425 15.975 0.975
-18.375 13.725 0.975
-18.375 12.825 -3.825
-21.825 17.175 2.625
-22.725 17.175 2.175
-19.725 16.275 -0.225
-19.725 16.275 -0.825
-21.075 17.025 3.375
-21.075 17.025 -2.175
-21.075 17.025 -0.975
-18.525 14.475 1.575
-18.525 14.475 1.875
-18.525 14.475 0.675
-18.375 13.875 1.575
-18.375 13.875 0.525
-18.375 13.875 1.725
-21.675 17.175 3.075
-22.875 17.175 2.025
-22.875 17.175 2.925
-18.675 14.925 -0.075
-19.125 15.675 0.825
-19.875 16.425 -1.425
-23.925 16.875 0.075
-18.825 11.325 4.425
-20.325 16.725 -0.975
-24.225 16.725 2.325
-18.375 12.525 0.525
-18.375 12.525 0.375
-23.025 17.175 1.725
-21.525 17.175 2.925
-20.025 16.575 -0.225
-20.025 16.575 -0.525
-20.025 16.575 -0.825
-23.175 17.175 2.475
-18.675 15.075 0.225
-18.675 15.075 -0.225
-18.675 15.075 2.625
-18.675 15.075 3.225
-18.675 15.075 2.925
-25.125 16.125 2.325
-19.575 16.275 0.825
-19.275 15.975 1.275
-20.775 17.025 2.925
-23.775 17.025 0.975
-23.775 17.025 1.425
-23.775 17.025 -0.825
-20.775 17.025 2.475
-20.775 17.025 0.225
-20.775 17.025 -0.375
-18.825 15.375 1.575
-18.525 14.775 -0.525
-18.225 13.275 -3.375
-18.225 13.275 0.975
-22.275 17.325 2.775
-18.225 13.425 0.675
-18.225 13.125 0.975
-18.225 13.425 0.225
-19.125 15.825 0.975
-19.125 15.825 1.275
-19.125 15.825 0.675
-19.725 16.425 -0.525
-22.425 17.325 2.475
-18.225 13.575 0.375
-18.225 13.575 1.575
-18.225 12.975 -0.375
-18.225 12.975 0.225
-18.225 12.975 0.975
-18.225 13.725 -3.825
-18.225 13.725 0.825
-22.725 17.325 2.175
-22.725 17.325 2.025
-22.725 17.325 2.475
-18.975 15.675 0.525
-19.875 16.575 -0.525
-19.875 16.575 -0.825
-19.875 16.575 -1.425
-21.075 17.175 -0.375
-21.075 17.175 2.625
-21.075 17.175 2.775
-24.675 16.575 -0.825
-23.475 17.175 1.275
-18.225 12.675 0.225
-18.675 15.225 -4.725
-18.675 15.225 0.375
-18.675 15.225 2.175
-22.875 17.325 2.175
-20.325 16.875 5.175
-22.875 17.325 1.425
-22.875 17.325 2.025
-20.625 17.025 -0.675
-18.525 14.925 -1.125
-18.225 14.025 1.425
-19.275 16.125 1.125
-19.125 15.975 0.825
-21.375 17.325 2.025
-23.175 17.325 1.875
-23.175 17.325 2.625
-23.175 17.325 1.725
-23.175 17.325 0.975
-19.575 16.425 -0.825
-19.575 16.425 -4.275
-19.575 16.425 -0.525
-20.475 17.025 3.825
-18.525 15.075 3.225
-18.525 15.075 1.275
-18.675 15.375 2.025
-18.675 15.375 1.725
-20.175 16.875 -1.275
-20.175 16.875 2.175
-19.725 16.575 -1.275
-19.725 16.575 -0.825
-19.725 16.575 -0.375
-19.725 16.575 -1.125
-18.975 15.825 1.575
-18.375 14.775 3.075
-18.375 14.775 -0.675
-23.775 17.175 1.575
-20.775 17.175 -0.225
-20.775 17.175 -0.525
-20.775 17.175 2.475
-21.225 17.325 2.325
-21.225 17.325 0.675
-23.325 17.325 2.025
-23.325 17.325 0.675
-18.075 13.275 0.675
-18.075 13.275 1.275
-18.075 13.275 0.825
-18.075 13.275 0.975
-22.275 17.475 2.175
-18.825 15.675 -1.875
-18.075 13.425 2.025
-22.425 17.475 2.475
-18.075 13.575 1.275
-18.075 13.575 1.575
-18.075 12.975 -0.225
-18.075 12.975 0.225
-18.075 12.975 0.975
-21.975 17.475 -1.575
-22.575 17.475 2.175
-21.075 17.325 2.175
-21.075 17.325 2.925
-18.075 13.725 0.075
-18.075 13.725 0.225
-23.475 17.325 0.375
-22.725 17.475 2.625
-22.725 17.475 1.875
-20.325 17.025 -0.525
-20.325 17.025 2.175
-18.525 15.225 2.775
-18.525 15.225 0.675
-18.375 14.925 0.225
-23.925 17.175 1.725
-19.275 16.275 -0.375
-18.075 13.875 0.525
-18.075 12.675 0.975
-18.075 12.675 0.075
-18.675 15.525 2.325
-20.025 16.875 -1.425
-20.025 16.875 -0.375
-19.125 16.125 -1.575
-19.425 16.425 -0.075
-25.125 16.425 2.475
-18.975 15.975 -1.575
-18.975 15.975 -1.725
-19.575 16.575 -0.375
-19.575 16.575 -0.975
-19.575 16.575 -0.075
-23.025 17.475 0.975
-23.025 17.475 2.325
-23.025 17.475 2.025
-23.025 17.475 2.175
-23.025 17.475 1.125
-21.525 17.475 -2.025
-23.025 17.475 1.575
-23.025 17.475 1.875
-18.225 14.625 -0.825
-18.225 14.625 -0.675
-18.225 14.625 2.325
-18.225 14.625 0.075
-20.925 17.325 -1.575
-20.925 17.325 3.675
-23.625 17.325 0.375
-18.825 15.825 -1.125
-19.725 16.725 -0.975
-19.725 16.725 0.225
-19.725 16.725 -0.675
-18.375 15.075 -0.825
-18.375 15.075 -0.975
-18.375 15.075 2.625
-20.475 17.175 3.975
-20.475 17.175 -0.975
-20.475 17.175 -0.525
-18.075 14.175 1.725
-18.075 14.175 -0.825
-21.375 17.475 -1.275
-21.375 17.475 1.725
-21.375 17.475 2.625
-24.075 17.175 1.275
-23.175 17.475 1.425
-23.175 17.475 1.275
-23.175 17.475 2.025
-20.175 17.025 -0.675
-20.775 17.325 0.075
-20.775 17.325 2.325
-18.675 15.675 2.175
-19.875 16.875 -1.725
-24.675 16.875 0.975
-21.225 17.475 -1.125
-23.325 17.475 1.125
-23.325 17.475 0.825
-23.325 17.475 1.575
-19.125 16.275 -1.425
-17.925 13.275 0.525
-17.925 13.275 0.825
-17.925 13.275 0.075
-22.275 17.625 2.625
-22.275 17.625 -0.075
-22.275 17.625 2.775
-22.275 17.625 2.325
-17.925 13.125 0.375
-17.925 13.125 0.525
-17.925 13.425 0.825
-17.925 13.425 1.575
-17.925 13.425 0.375
-17.925 13.125 2.325
-17.925 13.125 0.825
-22.425 17.625 1.875
-22.425 17.625 2.775
-22.425 17.625 2.325
-22.425 17.625 -3.375
-19.425 16.575 2.175
-17.925 12.975 0.675
-18.975 16.125 -0.525
-17.925 12.975 0.375
-17.925 13.575 1.275
-18.375 15.225 -1.575
-22.575 17.625 1.275
-21.975 17.625 2.625
-20.325 17.175 -1.725
-21.075 17.475 -1.125
-21.075 17.475 -1.425
-21.075 17.475 1.575
-21.075 17.475 2.625
-23.475 17.475 0.825
-23.475 17.475 1.875
-18.225 14.925 3.075
-18.225 14.925 -0.975
-18.225 14.925 -1.125
-17.925 13.725 1.725
-17.925 13.725 0.975
-20.025 17.025 2.025
-20.025 17.025 -0.975
-20.025 17.025 -1.275
-20.625 17.325 -0.375
-20.625 17.325 -0.825
-20.625 17.325 -0.225
-21.825 17.625 2.325
-18.525 15.525 -0.825
-22.725 17.625 2.025
-22.725 17.625 1.275
-22.725 17.625 2.475
-23.925 17.325 1.425
-18.825 15.975 -0.825
-18.825 15.975 -0.375
-19.575 16.725 -3.375
-19.575 16.725 -0.975
-19.575 16.725 0.225
-19.575 16.725 -0.675
-17.925 13.875 0.375
-17.925 12.675 1.125
-22.875 17.625 1.875
-22.875 17.625 1.425
-18.675 15.825 -0.525
-19.725 16.875 -0.525
-20.925 17.475 0.225
-20.925 17.475 -0.675
-20.925 17.475 2.475
-20.925 17.475 -0.225
-23.625 17.475 2.025
-17.925 14.025 1.875
-23.025 17.625 1.125
-23.025 17.625 1.875
-18.375 15.375 0.525
-20.175 17.175 -0.825
-18.225 15.075 -1.125
-18.225 15.075 -1.275
-21.375 17.625 2.475
-23.175 17.625 1.125
-23.175 17.625 2.025
-23.175 17.625 4.425
-23.175 17.625 0.075
-19.875 17.025 0.675
-19.875 17.025 -0.525
-19.875 17.025 -2.325
-24.675 17.025 1.275
-18.975 16.275 0.075
-18.975 16.275 -0.075
-19.275 16.575 0.075
-19.275 16.575 -1.125
-19.275 16.575 2.025
-20.775 17.475 0.225
-20.775 17.475 -0.675
-17.925 14.325 0.375
-17.925 14.325 0.075
-21.225 17.625 0.675
-21.225 17.625 2.025
-21.225 17.625 2.175
-19.425 16.725 0.075
-19.425 16.725 -1.725
-19.425 16.725 -0.525
-23.325 17.625 0.375
-23.325 17.625 1.725
-25.125 16.725 1.875
-20.325 17.325 -0.975
-20.325 17.325 -1.125
-20.325 17.325 3.675
-18.675 15.975 -0.525
-18.675 15.975 -0.225
-18.675 15.975 0.225
-19.575 16.875 -1.125
-19.575 16.875 0.225
-19.575 16.875 -0.675
-19.575 16.875 -1.725
-18.375 15.525 2.775
-18.375 15.525 1.125
-18.375 15.525 0.675
-22.425 17.775 0.075
-22.125 17.775 2.625
-17.775 13.125 0.675
-17.775 13.125 2.175
-20.025 17.175 0.075
-17.775 13.125 -0.525
-17.775 13.125 0.825
-17.775 13.125 0.525
-20.025 17.175 -1.125
-20.025 17.175 -0.825
-17.775 13.425 3.075
-20.025 17.175 -0.225
-24.525 17.175 1.125
-22.575 17.775 2.025
-21.975 17.775 2.175
-21.975 17.775 2.625
-21.975 17.775 -0.975
-17.775 12.975 0.825
-17.775 12.975 0.975
-17.775 13.575 2.475
-17.775 13.575 2.325
-17.775 13.575 2.025
-21.075 17.625 0.375
-21.075 17.625 2.025
-18.075 14.925 -0.975
-23.475 17.625 -0.525
-20.625 17.475 -0.375
-20.625 17.475 2.175
-20.625 17.475 -0.675
-23.925 17.475 0.825
-22.725 17.775 1.125
-22.725 17.775 5.325
-22.725 17.775 1.875
-17.775 12.825 0.675
-17.775 12.825 0.525
-17.775 12.825 1.125
-17.775 13.725 1.875
-17.775 13.725 1.275
-17.775 13.725 2.175
-17.775 13.725 0.975
-19.725 17.025 -0.975
-19.725 17.025 -1.425
-19.725 17.025 -2.175
-19.725 17.025 2.475
-19.725 17.025 2.025
-18.525 15.825 -1.725
-18.525 15.825 -0.675
-18.525 15.825 -0.075
-22.875 17.775 0.975
-22.875 17.775 2.025
-22.875 17.775 0.675
-22.875 17.775 1.575
-22.875 17.775 0.375
-17.775 12.675 1.275
-17.775 12.675 0.675
-17.775 12.675 0.375
-20.925 17.625 0.075
-23.625 17.625 1.125
-18.225 15.375 0.975
-18.225 15.375 2.625
-20.175 17.325 3.825
-19.125 16.575 0.225
-19.125 16.575 0.525
-19.125 16.575 -0.825
-19.125 16.575 -0.675
-19.125 16.575 0.375
-19.125 16.575 -1.725
-20.175 17.325 -1.275
-19.125 16.575 -0.975
-20.175 17.325 -0.975
-23.025 17.775 0.975
-23.025 17.775 1.425
-18.975 16.425 -1.275
-18.975 16.425 2.175
-19.125 16.575 -0.525
-25.425 16.575 0.975
-18.075 15.075 -1.275
-20.475 17.475 2.325
-20.475 17.475 2.475
-20.475 17.475 3.825
-18.825 16.275 0.675
-25.275 16.725 2.025
-19.275 16.725 -1.425
-25.275 16.725 -3.675
-19.275 16.725 0.675
-19.275 16.725 0.075
-19.275 16.725 5.625
-18.375 15.675 -0.225
-18.375 15.675 0.225
-18.375 15.675 -1.125
-19.875 17.175 -0.675
-19.875 17.175 -0.825
-19.875 17.175 -1.125
-19.875 17.175 0.075
-19.875 17.175 -0.975
-21.375 17.775 0.525
-21.375 17.775 1.125
-21.375 17.775 -1.575
-23.175 17.775 1.725
-19.425 16.875 -0.825
-19.425 16.875 -1.425
-19.425 16.875 0.075
-19.425 16.875 -1.575
-25.125 16.875 0.825
-20.775 17.625 -0.975
-20.775 17.625 2.025
-20.775 17.625 2.325
-20.775 17.625 2.175
-20.775 17.625 2.475
-20.775 17.625 -1.575
-23.775 17.625 1.125
-21.225 17.775 0.225
-21.225 17.775 -0.225
-19.575 17.025 -1.725
-19.575 17.025 -0.825
-23.325 17.775 1.275
-23.325 17.775 1.575
-18.525 15.975 -0.375
-18.525 15.975 0.225
-18.525 15.975 -1.125
-18.525 15.975 -0.975
-20.325 17.475 2.475
-20.325 17.475 0.225
-18.225 15.525 -0.225
-18.225 15.525 0.375
-18.225 15.525 -0.525
-18.225 15.525 0.075
-20.025 17.325 1.875
-20.025 17.325 -1.125
-20.025 17.325 -0.675
-20.025 17.325 -1.425
-17.625 13.275 -0.225
-17.625 13.275 1.275
-17.625 13.275 0.525
-17.625 13.275 1.425
-22.275 17.925 2.325
-22.275 17.925 2.025
-22.275 17.925 1.875
-22.275 17.925 2.175
-17.925 14.925 -1.425
-17.625 13.425 2.775
-17.625 13.425 0.375
-17.625 13.125 2.175
-17.625 13.125 -0.225
-20.625 17.625 2.175
-20.625 17.625 -0.825
-20.625 17.625 -1.725
-22.425 17.925 1.875
-22.125 17.925 2.025
-22.125 17.925 2.325
-21.075 17.775 2.325
-21.075 17.775 1.725
-23.475 17.775 2.025
-17.775 14.475 0.825
-17.775 14.475 -1.425
-18.375 15.825 -1.575
-18.375 15.825 -0.375
-18.375 15.825 0.225
-18.375 15.825 -1.125
-19.725 17.175 2.325
-19.725 17.175 -0.375
-19.725 17.175 0.075
-17.625 12.975 0.975
-17.625 12.975 0.525
-17.625 13.575 1.425
-17.625 13.575 3.075
-17.625 13.575 2.475
-22.575 17.925 0.825
-18.975 16.575 0.675
-18.975 16.575 0.225
-17.625 13.725 -0.225
-17.625 12.825 0.825
-17.625 12.825 0.075
-17.625 12.825 0.975
-19.125 16.725 -0.375
-18.825 16.425 -0.375
-18.825 16.425 0.675
-18.825 16.425 0.225
-18.825 16.425 -0.675
-18.825 16.425 -1.725
-19.125 16.725 -1.275
-19.125 16.725 -0.675
-19.125 16.725 2.025
-22.725 17.925 1.275
-18.675 16.275 0.375
-19.275 16.875 -0.525
-19.275 16.875 0.225
-19.275 16.875 -1.425
-19.275 16.875 -0.075
-19.275 16.875 0.675
-19.275 16.875 0.075
-19.275 16.875 -0.675
-17.625 13.875 0.225
-17.625 13.875 1.275
-22.875 17.925 1.575
-22.875 17.925 1.875
-22.875 17.925 0.675
-18.075 15.375 0.675
-20.175 17.475 0.075
-20.175 17.475 -0.225
-20.175 17.475 -0.375
-20.175 17.475 -1.575
-20.175 17.475 0.225
-20.925 17.775 -0.375
-20.925 17.775 -0.525
-20.925 17.775 2.325
-20.925 17.775 2.175
-23.625 17.775 0.975
-23.625 17.775 1.425
-17.925 15.075 -0.225
-17.925 15.075 1.725
-19.875 17.325 0.975
-19.875 17.325 -0.675
-19.875 17.325 2.775
-19.875 17.325 -1.275
-20.475 17.625 -2.025
-19.425 17.025 -0.075
-19.425 17.025 -1.575
-18.525 16.125 -0.075
-18.525 16.125 0.225
-18.525 16.125 1.725
-18.525 16.125 -0.825
-18.525 16.125 -0.675
-21.525 17.925 -0.825
-21.525 17.925 1.425
-23.025 17.925 1.425
-23.025 17.925 1.125
-17.625 14.175 1.575
-17.625 14.175 -2.025
-17.625 14.175 0.975
-23.175 17.925 1.275
-20.775 17.775 2.175
-20.775 17.775 -0.525
-20.775 17.775 -0.825
-20.775 17.775 2.025
-20.775 17.775 2.325
-18.375 15.975 0.075
-18.375 15.975 -0.225
-19.575 17.175 0.225
-19.575 17.175 0.075
-20.025 17.475 0.075
-17.625 14.325 0.825
-20.325 17.625 -2.175
-20.325 17.625 -1.425
-23.325 17.925 1.275
-18.975 16.725 -0.975
-18.975 16.725 1.875
-18.975 16.725 -0.075
-18.825 16.575 1.725
-18.675 16.425 -0.525
-18.675 16.425 -1.425
-18.675 16.425 -0.075
-18.675 16.425 -0.675
-18.675 16.425 0.225
-18.675 16.425 -0.975
-19.125 16.875 -1.125
-19.125 16.875 -0.675
-19.125 16.875 0.225
-25.425 16.875 2.025
-18.225 15.825 0.075
-18.225 15.825 -1.275
-18.225 15.825 2.025
-19.725 17.325 -0.825
-19.725 17.325 4.425
-20.625 17.775 -0.675
-20.625 17.775 0.225
-20.625 17.775 2.025
-20.625 17.775 -1.875
-17.775 14.925 -1.275
-17.475 13.275 1.575
-17.475 13.275 2.625
-17.475 13.275 0.675
-22.275 18.075 1.575
-17.475 13.425 2.175
-17.475 13.425 2.325
-17.475 13.425 1.725
-17.625 14.475 1.425
-19.275 17.025 0.225
-19.275 17.025 -1.575
-19.275 17.025 -0.525
-19.275 17.025 -0.675
-22.125 18.075 -1.575
-18.525 16.275 0.225
-18.525 16.275 -0.075
-18.525 16.275 -1.875
-18.525 16.275 -0.975
-18.525 16.275 -0.225
-22.425 18.075 1.575
-21.075 17.925 2.175
-21.075 17.925 0.075
-23.475 17.925 1.725
-17.475 12.975 1.575
-17.475 13.575 2.325
-22.575 18.075 0.825
-17.475 13.725 1.275
-17.475 12.825 0.525
-22.725 18.075 1.275
-17.925 15.375 -0.975
-17.925 15.375 -0.225
-17.925 15.375 0.075
-17.925 15.375 -0.675
-17.925 15.375 -1.125
-19.425 17.175 0.075
-18.375 16.125 -1.575
-19.425 17.175 -0.825
-19.425 17.175 0.975
-19.425 17.175 -0.525
-18.375 16.125 0.075
-18.375 16.125 0.225
-18.375 16.125 -0.975
-18.375 16.125 -0.225
-17.475 13.875 1.875
-17.475 13.875 0.375
-17.475 13.875 2.025
-17.475 12.675 1.725
-17.475 12.675 0.525
-17.475 12.675 1.575
-17.475 12.675 -0.975
-21.675 18.075 -0.225
-21.675 18.075 2.775
-22.875 18.075 0.975
-22.875 18.075 0.525
-22.875 18.075 0.375
-19.875 17.475 3.075
-19.875 17.475 0.225
-20.925 17.925 -1.125
-23.625 17.925 2.025
-23.625 17.925 1.875
-17.775 15.075 -1.275
-17.475 14.025 1.425
-17.475 14.025 0.825
-23.025 18.075 0.675
-23.025 18.075 1.575
-23.025 18.075 0.375
-23.025 18.075 1.875
-21.525 18.075 0.225
-21.525 18.075 0.525
-21.525 18.075 -0.375
-21.525 18.075 2.625
-21.525 18.075 -0.825
-18.225 15.975 -0.975
-18.225 15.975 0.225
-18.225 15.975 -1.425
-19.575 17.325 -0.825
-19.575 17.325 0.975
-18.825 16.725 -1.125
-18.825 16.725 -0.975
-18.825 16.725 -0.825
-18.825 16.725 0.225
-18.825 16.725 -1.275
-17.475 12.375 0.675
-17.475 14.175 0.825
-18.675 16.575 0.825
-18.675 16.575 0.375
-18.675 16.575 -0.675
-18.675 16.575 0.225
-18.675 16.575 -1.125
-18.975 16.875 0.225
-18.975 16.875 -1.125
-18.975 16.875 0.075
-23.175 18.075 0.675
-23.175 18.075 1.575
-23.175 18.075 1.725
-23.175 18.075 1.425
-20.775 17.925 -0.825
-20.775 17.925 -0.675
-19.125 17.025 -3.525
-19.125 17.025 0.225
-17.925 15.525 -0.675
-17.925 15.525 -0.225
-18.525 16.425 0.225
-18.525 16.425 -1.125
-20.325 17.775 -1.275
-17.775 15.225 -1.125
-17.775 15.225 -1.275
-17.475 14.325 -1.725
-17.475 14.325 1.275
-17.475 12.225 0.825
-21.225 18.075 -0.225
-21.225 18.075 -1.575
-18.075 15.825 0.075
-18.075 15.825 -1.275
-18.075 15.825 -1.425
-23.325 18.075 1.275
-19.725 17.475 -0.825
-19.725 17.475 0.225
-19.725 17.475 -0.225
-18.375 16.275 -0.825
-18.375 16.275 0.825
-18.375 16.275 0.225
-18.375 16.275 -1.275
-19.275 17.175 -0.825
-19.275 17.175 -0.375
-19.275 17.175 0.225
-19.275 17.175 -1.275
-20.625 17.925 3.375
-20.625 17.925 0.075
-20.625 17.925 1.875
-20.625 17.925 -0.975
-17.475 14.475 1.275
-17.475 12.075 0.975
-21.075 18.075 1.875
-21.075 18.075 -1.575
-21.075 18.075 -0.675
-21.075 18.075 -4.425
-23.475 18.075 0.375
-23.475 18.075 1.575
-23.475 18.075 2.475
-23.475 18.075 2.325
-17.325 13.275 2.475
-17.325 13.275 3.075
-22.275 18.225 -0.225
-22.275 18.225 1.275
-18.225 16.125 -0.675
-18.225 16.125 0.225
-18.225 16.125 2.025
-18.225 16.125 2.175
-19.425 17.325 -0.525
-19.425 17.325 0.675
-19.425 17.325 0.825
-17.325 13.425 2.175
-17.325 13.425 2.775
-17.325 13.425 2.625
-25.125 17.325 -2.625
-22.425 18.225 1.575
-22.425 18.225 0.975
-22.125 18.225 1.875
-17.325 13.575 2.175
-17.325 13.575 1.875
-17.325 13.575 1.575
-17.325 13.575 2.925
-17.325 13.575 1.275
-17.325 12.975 0.225
-17.325 12.975 4.125
-17.325 13.575 2.475
-21.975 18.225 -0.825
-21.975 18.225 -0.675
-22.575 18.225 1.425
-22.575 18.225 1.575
-20.175 17.775 -0.975
-20.175 17.775 -0.375
-17.775 15.375 -1.725
-17.925 15.675 0.075
-19.875 17.625 -0.375
-17.325 13.725 2.325
-17.325 13.725 -0.225
-17.325 13.725 1.275
-17.325 13.725 2.025
-17.325 13.725 0.225
-22.725 18.225 0.975
-17.475 14.625 2.025
-17.625 15.075 0.525
-17.625 15.075 -1.275
-20.925 18.075 0.225
-20.925 18.075 -0.375
-20.925 18.075 -0.825
-18.825 9.675 -1.575
-20.475 17.925 0.225
-20.475 17.925 -0.675
-18.675 16.725 0.675
-18.675 16.725 -0.225
-18.675 16.725 -0.975
-18.825 16.875 0.375
-18.675 16.725 0.225
-18.825 16.875 0.225
-18.675 16.725 0.825
-18.825 16.875 0.825
-18.825 16.875 1.275
-17.325 13.875 2.325
-17.325 13.875 3.525
-17.325 12.675 1.575
-17.325 12.675 0.525
-17.325 12.675 0.675
-21.675 18.225 0.675
-21.675 18.225 0.525
-21.675 18.225 2.025
-22.875 18.225 -0.075
-18.075 15.975 0.225
-18.075 15.975 2.175
-18.075 15.975 1.275
-18.075 15.975 -2.175
-18.075 15.975 1.875
-18.075 15.975 0.675
-18.075 15.975 -0.825
-19.575 17.475 -2.025
-19.575 17.475 0.225
-19.575 17.475 -0.825
-18.975 17.025 -0.975
-18.975 17.025 0.675
-18.975 17.025 0.825
-18.975 9.525 1.425
-18.525 16.575 0.375
-18.525 16.575 -1.425
-17.325 14.025 1.275
-17.325 14.025 1.125
-17.325 14.025 0.675
-17.325 12.525 1.425
-23.025 18.225 0.375
-19.125 17.175 0.375
-19.125 17.175 0.675
-19.125 17.175 0.225
-19.125 17.175 -0.525
-18.375 16.425 0.825
-18.375 16.425 -1.725
-18.375 16.425 0.225
-17.475 11.775 1.425
-20.775 18.075 -0.975
-20.025 17.775 0.225
-17.325 12.375 0.225
-17.325 14.175 1.275
-17.325 12.375 0.375
-17.325 12.375 1.125
-17.325 12.375 1.275
-17.775 15.525 -1.125
-17.775 15.525 2.625
-17.775 15.525 -0.225
-21.375 18.225 -0.675
-21.375 18.225 1.575
-21.375 18.225 0.225
-23.175 18.225 1.575
-18.225 16.275 0.375
-18.225 16.275 -1.575
-18.225 16.275 -0.375
-18.225 16.275 0.225
-19.275 17.325 0.375
-19.275 17.325 -0.225
-19.275 17.325 0.675
-17.925 15.825 0.225
-17.925 15.825 -0.825
-17.925 15.825 -1.125
-17.925 15.825 0.075
-17.925 15.825 -1.725
-19.725 17.625 -1.125
-19.725 17.625 -0.075
-19.725 17.625 -0.525
-17.625 15.225 -0.975
-20.325 17.925 0.225
-20.325 17.925 -0.675
-20.325 17.925 -0.075
-23.325 18.225 1.575
-23.325 18.225 1.725
-23.325 18.225 0.975
-17.475 14.925 -0.975
-17.475 14.925 0.075
-20.625 18.075 0.225
-20.625 18.075 -1.275
-20.625 18.075 -0.825
-20.625 18.075 -0.975
-18.075 16.125 -1.425
-18.075 16.125 0.075
-18.075 16.125 -0.975
-18.075 16.125 0.225
-18.075 16.125 -0.375
-19.425 17.475 1.875
-19.425 17.475 0.525
-19.425 17.475 0.225
-18.675 16.875 -3.375
-18.675 16.875 0.225
-17.325 12.075 1.125
-17.325 12.075 0.975
-17.325 12.075 0.375
-17.325 12.075 0.075
-21.075 18.225 2.925
-21.075 18.225 -1.575
-21.075 18.225 2.175
-21.075 18.225 1.575
-21.075 18.225 0.375
-21.075 18.225 -1.725
-23.475 18.225 1.725
-23.475 18.225 1.125
-23.475 18.225 0.975
-18.825 17.025 -0.825
-18.825 17.025 -0.075
-18.825 17.025 0.375
-18.525 16.725 -1.425
-18.525 16.725 -1.125
-18.525 16.725 -0.075
-18.525 16.725 -0.825
-18.525 16.725 0.225
-17.175 13.275 2.775
-17.175 13.275 -1.875
-19.875 17.775 0.225
-19.875 17.775 -1.275
-19.875 17.775 -0.525
-19.875 17.775 0.975
-17.775 15.675 1.125
-17.775 15.675 0.225
-17.775 15.675 -0.225
-17.775 15.675 -0.975
-17.175 13.125 0.375
-17.175 13.125 1.125
-17.175 13.425 2.625
-17.175 13.425 1.575
-17.175 13.425 2.025
-17.175 13.425 2.475
-17.625 15.375 -1.125
-17.625 15.375 1.275
-17.625 15.375 -1.725
-20.175 17.925 0.225
-20.175 17.925 -0.225
-20.175 17.925 -1.875
-20.175 17.925 -1.725
-22.125 18.375 -0.375
-17.175 12.975 1.125
-17.175 12.975 1.425
-17.175 12.975 1.875
-18.375 16.575 -1.575
-18.375 16.575 -1.725
-18.375 16.575 -0.525
-18.375 16.575 0.675
-18.375 16.575 0.825
-18.975 17.175 0.225
-18.975 17.175 -0.525
-21.975 18.375 1.125
-22.575 18.375 1.125
-17.925 15.975 0.225
-17.925 15.975 -1.125
-17.925 15.975 -0.975
-17.925 15.975 -1.425
-17.925 15.975 -0.375
-17.175 12.825 1.725
-17.175 12.825 0.525
-17.175 12.825 -0.525
-17.175 12.825 1.575
-17.925 10.575 -0.075
-19.575 17.625 -1.275
-19.575 17.625 -0.825
-19.575 17.625 0.375
-19.575 17.625 0.975
-21.825 18.375 2.175
-21.825 18.375 -0.825
-22.725 18.375 1.125
-17.475 15.075 -1.125
-17.475 15.075 -1.275
-20.475 18.075 -0.825
-18.225 16.425 0.675
-18.225 16.425 0.225
-18.225 16.425 -1.725
-18.225 16.425 0.825
-18.225 16.425 -1.575
-18.225 16.425 -0.675
-18.225 16.425 -0.825
-18.225 16.425 3.675
-19.125 17.325 -0.075
-19.125 17.325 0.675
-17.325 11.925 1.875
-17.325 11.925 0.375
-20.925 18.225 -1.125
-20.925 18.225 -0.675
-20.925 18.225 0.225
-20.925 18.225 -0.375
-20.925 18.225 -0.975
-23.625 18.225 0.825
-23.625 18.225 2.025
-17.175 13.875 2.475
-17.175 12.675 0.975
-17.175 12.675 1.125
-21.675 18.375 2.025
-21.675 18.375 -0.675
-22.875 18.375 0.375
-17.175 12.525 1.275
-17.175 12.525 0.975
-17.175 14.025 2.625
-21.525 18.375 0.375
-21.525 18.375 -0.675
-21.525 18.375 -0.975
-21.525 18.375 -0.825
-23.025 18.375 0.825
-18.075 16.275 0.375
-18.075 16.275 -0.675
-18.075 16.275 0.825
-19.275 17.475 -0.075
-19.275 17.475 0.225
-19.275 17.475 -0.375
-19.275 17.475 -1.275
-19.275 17.475 2.025
-19.275 17.475 -0.825
-17.625 15.525 1.425
-17.625 15.525 0.225
-20.025 17.925 0.225
-20.025 17.925 1.275
-19.725 17.775 -1.125
-19.725 17.775 0.525
-19.725 17.775 0.975
-19.725 17.775 0.225
-17.325 14.775 0.375
-17.325 11.775 1.125
-17.775 15.825 0.075
-17.775 15.825 -2.475
-17.775 15.825 1.575
-17.775 15.825 0.975
-17.775 15.825 -0.975
-20.775 18.225 0.225
-20.775 18.225 -0.975
-20.775 18.225 -1.425
-23.775 18.225 1.275
-17.175 12.375 0.975
-17.175 12.375 1.575
-17.175 14.175 1.275
-21.375 18.375 -0.075
-21.375 18.375 -0.225
-21.375 18.375 -0.825
-21.375 18.375 -2.175
-21.375 18.375 -1.125
-23.175 18.375 0.375
-23.175 18.375 0.225
-23.175 18.375 0.825
-20.325 18.075 0.225
-18.675 17.025 -0.825
-18.675 17.025 -0.075
-18.675 17.025 -0.975
-18.675 17.025 -0.225
-17.925 16.125 -1.425
-17.925 16.125 0.825
-17.925 16.125 -0.825
-17.925 16.125 0.225
-17.925 16.125 0.375
-17.925 16.125 0.675
-17.925 16.125 -0.675
-17.925 10.425 1.725
-19.425 17.625 0.675
-19.425 17.625 -1.125
-19.425 17.625 -0.675
-19.425 17.625 0.825
-17.175 12.225 0.975
-17.175 12.225 1.425
-17.175 12.225 2.025
-17.175 12.225 0.525
-17.175 12.225 1.575
-21.225 18.375 -0.525
-21.225 18.375 0.525
-21.225 18.375 1.275
-18.825 17.175 -1.575
-18.375 16.725 -1.125
-18.375 16.725 -1.575
-23.325 18.375 1.575
-23.325 18.375 1.425
-23.325 18.375 1.725
-17.325 14.925 -2.325
-17.325 14.925 -0.225
-17.325 11.625 1.125
-17.325 11.625 0.375
-20.625 18.225 -0.825
-20.625 18.225 4.275
-20.625 18.225 -1.275
-23.925 18.225 0.825
-18.225 16.575 -0.675
-18.225 16.575 -1.125
-18.225 16.575 -0.075
-18.975 17.325 -0.675
-17.625 15.675 -1.425
-17.625 15.675 0.075
-17.625 15.675 -0.975
-17.625 15.675 -0.675
-17.625 15.675 -0.825
-17.625 15.675 -1.275
-17.625 15.675 -0.525
-17.625 15.675 -1.575
-17.625 15.675 -0.225
-19.875 17.925 -0.375
-19.875 17.925 0.375
-19.875 17.925 -0.525
-19.875 17.925 0.225
-17.475 15.375 -0.975
-17.475 15.375 -1.425
-17.475 15.375 -0.825
-17.475 15.375 0.075
-17.175 14.475 1.125
-17.175 12.075 1.425
-17.175 12.075 1.125
-20.175 18.075 0.225
-20.175 18.075 -0.975
-20.175 18.075 1.275
-21.075 18.375 -0.375
-21.075 18.375 -0.825
-21.075 18.375 2.025
-21.075 18.375 -1.275
-21.075 18.375 -0.075
-23.475 18.375 1.425
-23.475 18.375 1.575
-19.575 17.775 0.225
-19.575 17.775 0.675
-19.575 17.775 -0.975
-19.575 17.775 -0.075
-19.575 17.775 -1.125
-17.775 15.975 -0.675
-17.775 15.975 -0.375
-17.775 15.975 -0.225
-17.775 15.975 2.025
-17.775 15.975 0.225
-17.775 15.975 0.375
-22.275 18.525 -0.375
-18.075 16.425 -0.825
-18.075 16.425 -1.425
-18.075 16.425 -0.075
-18.075 16.425 0.225
-19.125 17.475 1.575
-19.125 17.475 -0.525
-19.125 17.475 -0.825
-19.125 17.475 -0.975
-17.025 13.275 2.175
-17.025 13.275 1.125
-22.125 18.525 2.475
-22.125 18.525 -0.975
-22.425 18.525 0.075
-22.425 18.525 1.125
-17.025 13.125 1.875
-17.025 13.425 1.725
-17.025 13.425 2.625
-22.575 18.525 0.225
-22.575 18.525 0.975
-22.575 18.525 1.575
-17.025 12.975 0.525
-17.025 12.975 0.975
-17.025 13.575 2.925
-17.025 13.575 2.625
-17.325 15.075 -1.275
-17.325 15.075 -1.125
-17.325 15.075 -0.525
-17.325 15.075 -0.975
-20.475 18.225 3.225
-20.475 18.225 -0.975
-20.475 18.225 -0.675
-20.475 18.225 3.075
-20.475 18.225 -0.825
-20.475 18.225 2.925
-20.475 18.225 0.375
-21.825 18.525 -0.825
-17.025 12.825 1.275
-17.025 12.825 1.425
-17.025 13.725 1.575
-17.025 13.725 2.475
-17.175 11.925 2.175
-17.175 11.925 0.375
-17.175 11.925 0.075
-17.175 14.625 -2.025
-20.925 18.375 -2.175
-20.925 18.375 0.675
-23.625 18.375 1.125
-23.625 18.375 3.225
-23.625 18.375 1.575
-17.925 16.275 -0.075
-17.925 16.275 -1.275
-17.925 16.275 -0.825
-17.925 16.275 0.675
-17.925 16.275 0.225
-17.925 16.275 0.825
-17.925 16.275 -1.125
-17.925 16.275 -1.575
-21.675 18.525 -0.825
-22.875 18.525 0.075
-22.875 18.525 -0.075
-22.875 18.525 0.375
-17.025 13.875 2.325
-17.025 13.875 2.175
-17.025 13.875 1.725
-17.025 12.675 1.125
-17.475 15.525 0.075
-17.475 15.525 -1.275
-17.475 15.525 -1.425
-17.475 15.525 -0.975
-20.025 18.075 -1.125
-20.025 18.075 0.225
-20.025 18.075 0.375
-20.025 18.075 -0.525
-20.025 18.075 -2.625
-17.625 15.825 0.225
-17.625 15.825 0.075
-17.625 15.825 -1.125
-17.625 15.825 -0.675
-17.625 15.825 0.675
-21.525 18.525 0.225
-23.025 18.525 -0.075
-17.625 15.825 -1.275
-19.725 17.925 0.675
-19.725 17.925 -0.675
-19.725 17.925 0.375
-19.725 17.925 -1.275
-17.025 12.525 2.025
-18.675 9.375 2.175
-18.675 17.175 -1.275
-18.675 17.175 -0.375
-18.675 17.175 -0.825
-18.675 17.175 -0.675
-18.675 17.175 -0.525
-18.375 16.875 -0.825
-18.375 16.875 -1.125
-17.175 14.775 -1.275
-17.175 14.775 -2.175
-17.175 14.775 2.925
-17.175 11.775 0.975
-17.175 11.775 -1.875
-20.775 18.375 -1.275
-20.775 18.375 3.375
-20.775 18.375 -0.825
-23.775 18.375 1.125
-23.775 18.375 1.575
-23.775 18.375 0.975
-18.825 17.325 -0.825
-18.225 16.725 -0.675
-17.325 15.225 -0.975
-17.325 15.225 -2.325
-17.325 15.225 0.075
-17.325 11.325 0.975
-20.325 18.225 -0.825
-20.325 18.225 0.225
-19.425 17.775 0.225
-19.425 17.775 2.475
-19.425 17.775 -0.975
-21.375 18.525 -0.825
-21.375 18.525 0.375
-21.375 18.525 -0.975
-17.775 16.125 -0.675
-17.775 16.125 0.675
-17.775 16.125 -0.075
-17.775 16.125 0.975
-17.775 16.125 0.225
-17.775 16.125 -1.575
-17.775 10.425 1.125
-17.025 12.375 0.675
-17.025 12.375 0.825
-18.975 17.475 -1.725
-18.975 17.475 -1.575
-18.975 17.475 -1.125
-18.075 16.575 -2.025
-25.575 17.475 -1.125
-21.225 18.525 -0.975
-21.225 18.525 0.525
-21.225 18.525 -0.225
-21.225 18.525 -1.725
-21.225 18.525 -0.825
-23.325 18.525 1.275
-23.325 18.525 1.425
-23.325 18.525 2.775
-17.025 14.325 0.675
-17.025 12.225 1.425
-17.025 12.225 1.575
-17.025 12.225 1.275
-17.025 12.225 1.125
-17.175 14.925 -0.975
-17.175 14.925 -1.125
-20.625 18.375 -0.525
-20.625 18.375 -0.375
-20.625 18.375 -0.675
-17.475 15.675 0.675
-17.475 15.675 -1.275
-17.475 15.675 0.825
-17.475 15.675 -1.125
-17.475 15.675 -0.975
-17.475 15.675 0.225
-17.475 15.675 0.075
-17.475 15.675 -1.425
-19.875 18.075 -0.075
-19.875 18.075 -0.225
-19.875 18.075 0.225
-19.875 18.075 -0.525
-19.875 18.075 0.675
-19.875 18.075 -0.975
-19.875 18.075 -0.375
-19.875 18.075 0.825
-17.925 16.425 -0.825
-17.925 16.425 1.725
-17.925 16.425 3.675
-17.925 16.425 2.025
-19.125 17.625 -0.375
-19.125 17.625 -0.975
-17.625 15.975 -0.825
-17.625 15.975 -1.275
-17.625 15.975 0.675
-17.625 15.975 0.225
-17.625 15.975 -2.625
-17.325 15.375 -0.975
-17.325 15.375 0.075
-17.325 15.375 -1.275
-19.575 17.925 1.125
-19.575 17.925 -1.275
-20.175 18.225 -0.825
-20.175 18.225 -0.675
-20.175 18.225 0.225
-21.075 18.525 -0.225
-21.075 18.525 -0.525
-17.025 12.075 0.375
-17.025 12.075 1.275
-16.875 13.275 3.075
-16.875 13.125 0.525
-16.875 13.425 2.925
-16.875 13.125 2.925
-22.125 18.675 -0.975
-22.125 18.675 2.325
-22.425 18.675 0.225
-22.425 18.675 -0.075
-22.425 18.675 -0.375
-17.175 15.075 0.225
-17.175 15.075 -0.975
-17.175 11.475 0.225
-16.875 12.975 2.025
-16.875 12.975 0.825
-16.875 12.975 2.925
-16.875 12.975 1.275
-16.875 13.575 3.075
-16.875 13.575 0.675
-16.875 13.575 2.325
-20.475 18.375 -0.525
-20.475 18.375 3.975
-20.475 18.375 -0.975
-20.475 18.375 -0.675
-19.275 17.775 -0.375
-19.275 17.775 -0.975
-19.275 17.775 -1.125
-19.275 17.775 2.025
-17.775 16.275 -0.825
-17.775 16.275 0.225
-17.775 10.275 1.575
-22.575 18.675 1.125
-22.575 18.675 -0.525
-21.975 18.675 -0.675
-21.975 18.675 -0.525
-21.975 18.675 1.125
-18.375 17.025 -0.825
-18.375 17.025 3.825
-18.525 17.175 -0.075
-18.525 17.175 -0.975
-18.675 17.325 -0.675
-18.675 17.325 -0.975
-18.225 16.875 -1.875
-18.675 17.325 1.875
-16.875 13.725 0.375
-16.875 13.725 2.475
-16.875 13.725 2.325
-16.875 13.725 2.175
-16.875 12.825 2.325
-16.875 12.825 1.725
-21.825 18.675 0.525
-21.825 18.675 -0.675
-20.925 18.525 3.225
-20.925 18.525 -2.325
-20.925 18.525 2.925
-20.925 18.525 0.525
-23.625 18.525 1.875
-23.625 18.525 2.025
-23.625 18.525 1.425
-23.625 18.525 2.175
-17.025 11.925 1.275
-17.025 11.925 0.675
-17.025 14.625 -0.675
-16.875 13.875 1.275
-16.875 13.875 2.625
-16.875 13.875 0.375
-16.875 13.875 2.475
-16.875 12.675 0.525
-16.875 13.875 2.775
-21.675 18.675 -0.375
-21.675 18.675 -0.975
-21.675 18.675 0.225
-17.475 15.825 -0.075
-17.475 15.825 1.425
-17.475 15.825 0.675
-17.475 15.825 -1.275
-19.725 18.075 0.225
-19.725 18.075 -1.275
-19.725 18.075 -0.075
-19.725 18.075 0.675
-18.075 16.725 2.475
-18.075 16.725 -1.725
-18.825 17.475 -1.125
-17.325 15.525 -0.975
-17.325 15.525 -0.675
-17.325 15.525 0.075
-17.325 15.525 0.225
-17.325 15.525 0.675
-17.325 15.525 -1.575
-20.025 18.225 -2.775
-20.025 18.225 0.225
-20.025 18.225 0.825
-16.875 14.025 1.875
-16.875 14.025 0.975
-16.875 12.525 1.875
-16.875 12.525 0.975
-16.875 12.525 0.675
-16.875 12.525 1.725
-16.875 14.025 2.625
-16.875 12.525 1.125
-21.525 18.675 0.225
-17.625 16.125 -0.075
-17.625 16.125 0.225
-17.625 16.125 -1.425
-17.625 16.125 -1.125
-17.625 10.425 0.975
-17.625 16.125 -0.375
-17.625 16.125 -0.975
-17.625 16.125 -0.825
-19.425 17.925 -1.875
-19.425 17.925 -0.225
-17.925 16.575 -0.675
-17.925 16.575 -0.825
-17.925 16.575 -0.525
-17.925 16.575 2.625
-17.925 16.575 -2.175
-17.925 16.575 -0.975
-17.175 15.225 -1.425
-17.175 15.225 -1.125
-17.175 15.225 0.075
-17.175 15.225 1.575
-18.975 17.625 -1.125
-18.975 17.625 1.425
-20.775 18.525 0.225
-20.775 18.525 -0.675
-17.175 11.325 0.975
-17.175 11.325 0.825
-17.175 11.325 1.125
-17.175 11.325 -4.275
-20.325 18.375 -0.675
-20.325 18.375 1.125
-17.025 11.775 0.225
-17.025 11.775 1.275
-17.025 11.775 0.375
-17.025 14.775 0.825
-17.025 14.775 -2.475
-17.025 14.775 2.175
-16.875 14.175 2.175
-16.875 14.175 0.975
-16.875 12.375 1.725
-16.875 12.375 0.675
-16.875 14.175 1.125
-21.375 18.675 -0.525
-21.375 18.675 0.825
-21.375 18.675 2.925
-21.375 18.675 -0.675
-23.175 18.675 1.275
-23.175 18.675 1.725
-19.125 17.775 -0.375
-19.125 17.775 -1.875
-19.125 17.775 -1.425
-19.125 17.775 1.425
-17.775 16.425 -0.375
-17.775 16.425 -0.525
-17.775 16.425 -0.825
-16.875 12.225 1.575
-16.875 12.225 2.475
-16.875 12.225 1.125
-16.875 12.225 1.425
-17.325 15.675 -1.125
-17.325 15.675 0.225
-17.325 15.675 0.525
-17.325 15.675 -1.275
-17.325 15.675 -0.825
-21.225 18.675 -1.425
-21.225 18.675 -0.375
-21.225 18.675 -1.575
-19.875 18.225 0.225
-19.875 18.225 -0.675
-19.875 18.225 -0.975
-19.875 18.225 -1.125
-19.875 18.225 -0.075
-20.625 18.525 -1.125
-20.625 18.525 -0.375
-20.625 18.525 -0.975
-23.925 18.525 0.975
-17.025 14.925 -0.975
-17.025 11.625 0.225
-17.025 14.925 0.225
-17.475 15.975 -0.375
-17.475 15.975 -0.525
-17.475 15.975 -1.725
-17.475 15.975 0.225
-17.475 15.975 3.825
-19.575 18.075 -1.425
-19.575 18.075 0.225
-19.575 18.075 -1.725
-19.575 18.075 -0.525
-17.175 15.375 -1.875
-17.175 15.375 0.675
-17.175 15.375 0.075
-17.175 15.375 0.225
-20.175 18.375 -0.825
-20.175 18.375 -3.525
-20.175 18.375 0.975
-20.175 18.375 0.825
-20.175 18.375 1.725
-24.375 18.375 -0.225
-18.225 17.025 2.775
-18.225 17.025 2.925
-18.225 17.025 -0.375
-18.225 17.025 -1.425
-18.525 17.325 -0.825
-18.525 17.325 -0.975
-16.875 14.475 2.475
-16.875 14.475 1.275
-16.875 12.075 0.525
-16.875 12.075 0.825
-16.875 12.075 1.425
-18.075 16.875 4.125
-18.075 16.875 -0.825
-18.075 16.875 -1.575
-18.075 16.875 0.975
-18.675 17.475 -0.975
-18.675 17.475 -0.825
-21.075 18.675 -0.825
-21.075 18.675 -0.975
-21.075 18.675 -0.675
-23.475 18.675 0.225
-23.475 18.675 1.575
-23.475 18.675 1.875
-17.625 16.275 -0.975
-17.625 16.275 -0.825
-19.275 17.925 1.575
-19.275 17.925 1.275
-19.275 17.925 -0.225
-16.725 13.275 -1.275
-20.475 18.525 1.725
-20.475 18.525 -1.575
-22.275 18.825 0.375
-22.275 18.825 -0.225
-17.025 15.075 -0.825
-17.025 15.075 0.075
-17.025 11.475 0.525
-16.725 13.125 1.425
-16.725 13.125 3.525
-17.925 16.725 3.375
-17.925 16.725 -0.825
-17.925 16.725 -1.125
-18.825 17.625 -1.125
-17.925 16.725 -1.725
-22.125 18.825 -0.375
-16.725 13.575 2.175
-22.575 18.825 2.475
-21.975 18.825 0.225
-16.875 11.925 0.225
-16.875 11.925 1.125
-16.875 11.925 0.375
-20.925 18.675 -0.525
-20.925 18.675 -1.425
-20.925 18.675 -1.275
-20.925 18.675 0.225
-20.925 18.675 2.775
-20.925 18.675 -0.825
-20.925 18.675 -0.375
-23.625 18.675 0.825
-23.625 18.675 2.475
-23.625 18.675 0.525
-16.725 13.725 2.475
-16.725 13.725 2.775
-16.725 13.725 3.225
-16.725 13.725 2.925
-16.725 12.825 2.325
-16.725 12.825 0.525
-21.825 18.825 -0.225
-21.825 18.825 0.225
-17.325 15.825 -1.275
-17.325 15.825 3.675
-17.325 15.825 -0.075
-17.325 15.825 0.225
-22.725 18.825 2.175
-19.725 18.225 -0.675
-17.175 15.525 -0.825
-17.175 15.525 0.525
-17.175 15.525 0.225
-17.175 15.525 -0.975
-17.175 15.525 -0.675
-20.025 18.375 0.675
-18.975 17.775 0.075
-18.975 17.775 -0.975
-18.975 17.775 -0.675
-17.775 16.575 -0.975
