# .PCD v0.7 - Point Cloud Data file format
VERSION 0.7
FIELDS x y z
SIZE 4 4 4
TYPE F F F
COUNT 1 1 1
WIDTH 2048
HEIGHT 1
VIEWPOINT 0 0 0 1 0 0 0
POINTS 2048
DATA ascii
-78.825 28.875 -0.975
-78.525 29.025 1.125
-78.975 28.875 -0.825
-78.975 28.875 -0.675
-78.675 28.575 0.525
-78.975 28.725 1.275
-78.975 29.025 1.425
-78.975 29.025 1.275
-78.525 28.575 -0.675
-78.825 28.575 0.225
-78.825 28.575 0.525
-78.375 29.175 1.125
-78.375 28.575 0.525
-78.375 28.575 0.225
-78.675 28.425 -0.225
-78.675 28.425 0.675
-78.675 29.325 0.675
-78.675 28.425 -0.375
-78.675 28.425 1.275
-78.675 28.425 -2.925
-78.675 29.325 0.975
-79.125 28.875 1.425
-79.125 28.875 -0.525
-79.125 28.875 1.125
-78.525 29.325 -0.075
-78.525 28.425 -0.825
-78.525 29.325 0.825
-78.525 28.425 0.975
-78.525 28.425 1.125
-78.825 28.425 0.525
-78.825 29.325 0.675
-78.825 29.325 0.825
-79.125 28.725 -5.625
-78.975 28.425 1.125
-78.975 28.425 0.975
-78.975 29.325 1.275
-78.975 28.425 2.175
-78.375 28.425 0.525
-78.375 29.325 0.825
-78.975 29.325 0.675
-78.375 29.325 0.525
-78.975 29.325 1.725
-78.975 29.325 2.025
-78.375 29.325 0.675
-79.125 28.575 0.675
-78.225 29.175 0.975
-78.225 29.175 1.275
-78.225 29.175 1.125
-78.075 28.875 -0.675
-78.675 29.475 0.825
-78.675 29.475 0.075
-78.675 28.275 -0.525
-78.675 29.475 0.675
-79.275 28.875 -0.675
-79.275 28.875 -0.825
-78.075 29.025 0.975
-78.075 28.725 -2.925
-78.075 29.025 0.075
-78.525 28.275 0.525
-78.525 28.275 0.375
-78.525 29.475 0.675
-78.825 28.275 2.025
-79.275 29.025 1.125
-79.275 28.725 0.675
-79.275 28.725 1.275
-79.275 29.025 -0.675
-79.125 28.425 2.025
-79.125 29.325 1.425
-78.225 28.425 0.525
-79.125 28.425 0.075
-79.125 28.425 -0.525
-78.075 29.175 1.125
-78.075 28.575 -0.675
-78.975 28.275 -0.675
-78.375 29.475 0.525
-78.975 28.275 -0.525
-78.375 28.275 0.825
-78.975 29.475 0.675
-78.975 28.275 0.525
-79.275 28.575 0.675
-79.275 28.575 0.375
-78.075 29.325 1.125
-79.425 28.875 -0.525
-78.675 28.125 0.375
-79.425 28.875 -0.375
-78.675 29.625 0.675
-79.125 29.475 1.275
-79.125 29.475 0.825
-79.125 28.275 0.825
-79.125 29.475 0.975
-79.125 29.475 0.675
-79.125 28.275 -0.525
-79.275 28.425 0.975
-79.275 29.325 1.425
-79.275 28.425 0.075
-78.525 28.125 1.125
-78.525 29.625 0.525
-77.925 28.725 2.025
-77.925 28.725 1.125
-79.425 29.025 1.125
-79.425 28.725 0.225
-79.425 28.725 0.525
-78.825 29.625 1.875
-78.825 28.125 0.525
-78.825 29.625 0.825
-78.975 29.625 0.525
-78.375 29.625 0.525
-78.975 29.625 1.725
-78.975 29.625 1.275
-78.975 29.625 0.675
-79.425 28.575 0.975
-77.925 29.175 1.125
-79.425 29.175 -0.675
-79.425 28.575 0.375
-79.425 29.175 1.425
-79.425 28.575 1.125
-77.925 29.175 0.975
-79.425 29.175 -0.825
-79.425 28.575 0.525
-78.075 28.275 0.375
-78.075 28.275 0.825
-78.075 29.475 0.525
-78.075 28.275 0.975
-79.275 29.475 2.025
-79.275 28.275 -0.225
-77.925 28.425 2.025
-79.425 29.325 1.425
-77.925 28.425 0.075
-79.425 28.425 1.575
-79.425 29.325 -0.675
-77.925 29.325 0.525
-77.925 28.425 0.375
-79.425 28.425 0.525
-79.125 28.125 0.525
-79.125 29.625 0.825
-79.125 29.625 0.675
-78.225 28.125 1.125
-78.675 29.775 0.525
-79.575 28.875 -0.525
-79.575 28.875 2.025
-77.775 28.725 -1.125
-77.775 28.725 0.825
-77.775 29.025 1.275
-77.775 29.025 0.975
-78.525 29.775 -4.725
-78.825 29.775 0.525
-78.825 27.975 0.375
-78.825 27.975 0.225
-78.825 29.775 0.675
-79.575 29.025 -0.525
-79.575 29.025 -0.375
-77.775 29.175 1.125
-77.775 28.575 -1.125
-77.775 29.175 0.975
-78.975 29.775 0.975
-78.975 29.775 0.525
-79.575 28.575 1.125
-79.575 28.575 0.975
-79.575 28.575 -0.075
-79.575 28.575 2.175
-79.575 28.575 0.075
-79.575 29.175 1.425
-78.075 29.625 2.925
-78.075 28.125 0.375
-77.925 29.475 -0.225
-77.925 29.475 0.525
-79.425 29.475 0.825
-77.925 29.475 0.075
-79.425 29.475 -0.975
-79.425 29.475 -0.825
-77.925 29.475 0.975
-79.275 29.625 1.125
-79.275 29.625 0.825
-79.275 29.625 -0.975
-79.275 29.625 0.525
-79.275 29.625 0.975
-77.775 29.325 0.675
-77.775 29.325 1.125
-77.775 29.325 0.825
-77.775 28.425 0.225
-77.775 29.325 1.425
-77.775 29.325 0.525
-79.125 29.775 0.675
-79.125 29.775 0.525
-78.225 27.975 0.375
-79.125 27.975 -1.125
-79.575 28.425 0.525
-79.725 28.875 -0.225
-77.625 28.875 0.675
-77.625 28.875 0.825
-77.625 28.875 1.875
-77.625 28.875 2.025
-78.675 27.825 1.275
-78.675 27.825 -1.125
-77.625 29.025 0.975
-77.625 28.725 1.725
-79.725 28.725 -0.225
-77.625 29.025 1.125
-79.725 28.725 -0.675
-78.525 29.925 2.175
-78.525 29.925 0.975
-78.525 27.825 0.525
-79.425 29.625 1.125
-77.925 29.625 0.675
-77.925 29.625 1.425
-77.925 29.625 0.375
-77.925 29.625 0.225
-79.425 29.625 0.975
-77.925 28.125 0.225
-78.825 27.825 0.375
-78.825 27.825 -0.975
-77.775 28.275 0.225
-77.775 29.475 2.025
-77.775 29.475 1.725
-77.775 28.275 0.525
-77.775 29.475 1.125
-77.775 28.275 2.625
-78.075 27.975 0.225
-79.275 29.775 0.675
-79.275 29.775 0.525
-79.575 29.475 0.975
-79.575 29.475 2.625
-79.575 28.275 0.525
-79.725 29.175 1.275
-77.625 29.175 0.525
-77.625 29.175 0.375
-77.625 29.175 1.275
-77.625 29.175 0.975
-77.625 29.175 1.125
-77.625 28.575 2.175
-78.975 27.825 1.875
-78.375 27.825 0.375
-78.975 27.825 0.825
-78.975 27.825 -0.075
-78.375 29.925 1.275
-79.725 29.325 -1.575
-77.625 28.425 1.725
-77.625 28.425 0.225
-77.625 28.425 -0.675
-77.625 29.325 -0.825
-77.625 29.325 0.975
-79.725 28.425 2.175
-77.625 29.325 0.375
-79.125 27.825 1.575
-78.225 27.825 0.825
-78.225 27.825 0.225
-79.125 29.925 0.675
-79.125 27.825 0.675
-79.125 29.925 0.525
-78.225 27.825 -1.125
-79.125 29.925 0.375
-77.775 28.125 0.225
-77.775 29.625 -0.075
-77.775 28.125 0.825
-77.775 28.125 -0.675
-79.425 27.975 -1.275
-77.925 27.975 0.825
-77.925 27.975 2.625
-79.425 27.975 -1.875
-77.925 27.975 0.375
-79.425 29.775 0.675
-79.425 29.775 0.825
-79.575 29.625 1.125
-78.675 30.075 0.825
-78.675 27.675 0.225
-78.675 27.675 -0.075
-78.675 30.075 0.525
-78.675 30.075 0.975
-79.875 28.875 -0.525
-77.475 28.875 -1.875
-78.075 27.825 -1.275
-78.075 27.825 0.375
-78.075 27.825 0.075
-78.075 27.825 1.875
-79.725 28.275 0.525
-79.725 28.275 0.075
-77.625 28.275 0.825
-77.625 29.475 -0.525
-77.625 29.475 2.175
-77.625 29.475 0.975
-77.625 28.275 0.225
-77.625 28.275 -0.075
-78.525 27.675 0.075
-78.525 27.675 0.225
-78.525 27.675 1.575
-78.525 27.675 0.375
-78.825 30.075 0.525
-77.475 28.725 1.275
-79.875 29.025 1.575
-79.875 28.725 -0.825
-79.875 29.025 -0.375
-77.475 29.025 1.125
-77.475 29.025 0.975
-77.475 28.725 1.725
-79.275 29.925 0.225
-79.275 29.925 0.675
-79.275 29.925 0.525
-78.375 30.075 1.425
-78.375 27.675 0.375
-78.375 27.675 0.075
-78.375 30.075 1.275
-78.375 27.675 0.225
-77.475 29.175 -1.125
-77.475 29.175 1.725
-77.475 29.175 1.125
-77.475 29.175 0.975
-79.875 29.175 1.725
-79.875 28.575 0.075
-77.475 28.575 1.875
-77.475 29.175 2.175
-77.475 29.175 0.525
-77.775 29.775 1.425
-77.775 29.775 -0.075
-77.775 27.975 0.375
-77.775 27.975 -0.825
-77.775 27.975 0.675
-79.575 29.775 2.325
-79.575 27.975 -0.975
-79.575 29.775 0.675
-79.575 29.775 0.825
-78.225 27.675 0.975
-78.225 27.675 2.025
-78.225 30.075 1.275
-79.125 30.075 1.125
-79.125 27.675 -1.275
-79.875 29.325 1.275
-79.875 29.325 -0.525
-77.475 28.425 0.375
-77.475 28.425 0.225
-77.475 29.325 0.525
-77.475 28.425 1.575
-79.875 28.425 -1.425
-79.875 29.325 1.575
-77.475 28.425 0.075
-77.625 29.625 -0.525
-77.625 28.125 0.375
-77.625 28.125 0.225
-77.625 28.125 -0.075
-77.625 29.625 -0.375
-77.625 29.625 1.425
-77.625 28.125 0.825
-79.725 28.125 0.525
-77.625 28.125 -0.825
-79.725 28.125 2.025
-77.625 29.625 1.725
-77.625 29.625 2.175
-77.925 27.825 -0.825
-77.925 27.825 2.025
-77.925 27.825 0.375
-79.425 29.925 0.825
-77.925 27.825 -0.225
-79.425 29.925 0.375
-77.925 29.925 2.175
-78.075 27.675 -0.825
-79.875 28.275 1.275
-79.875 28.275 -0.525
-77.475 28.275 0.225
-77.475 28.275 0.375
-77.475 29.475 2.025
-77.475 28.275 0.825
-77.475 29.475 2.625
-77.475 28.275 -0.825
-79.875 29.475 1.575
-77.475 28.275 -0.675
-79.275 30.075 0.975
-79.275 27.675 2.025
-79.275 30.075 0.375
-78.675 27.525 0.225
-78.675 27.525 -0.825
-78.675 27.525 -1.125
-80.025 28.875 0.525
-77.325 29.025 1.275
-77.325 28.725 -0.975
-78.525 27.525 0.075
-78.825 30.225 1.575
-78.825 27.525 0.225
-78.825 27.525 1.875
-78.825 30.225 0.375
-78.825 27.525 0.825
-80.025 29.025 0.075
-80.025 29.025 0.375
-80.025 29.025 0.525
-77.325 28.575 -3.825
-77.325 29.175 2.175
-77.325 29.175 1.275
-77.775 27.825 2.175
-77.775 27.825 1.725
-77.775 29.925 0.075
-77.775 27.825 0.075
-77.625 29.775 0.675
-79.725 29.775 0.825
-77.625 27.975 -0.975
-77.625 29.775 -2.325
-77.625 27.975 0.375
-77.625 29.775 -0.225
-78.975 30.225 0.225
-78.375 27.525 0.075
-78.975 27.525 0.375
-78.975 27.525 -0.825
-78.975 30.225 0.525
-79.575 29.925 1.425
-79.575 29.925 0.975
-79.575 29.925 2.175
-79.575 29.925 0.825
-79.575 29.925 0.675
-79.575 27.825 2.025
-79.575 29.925 2.025
-80.025 28.575 -0.075
-77.925 27.675 -0.525
-77.925 30.075 1.425
-79.875 28.125 -1.425
-77.475 28.125 0.825
-79.875 28.125 -0.225
-79.875 28.125 -1.275
-79.875 29.625 1.125
-79.875 28.125 -0.375
-77.475 29.625 -0.075
-77.475 28.125 0.375
-77.475 29.625 2.475
-79.875 28.125 1.575
-77.475 28.125 -0.675
-77.475 28.125 0.675
-77.325 29.325 1.125
-77.325 28.425 0.375
-77.325 28.425 -0.675
-77.325 28.425 -0.075
-77.325 28.425 0.225
-78.225 27.525 -0.375
-78.225 27.525 -1.125
-79.125 27.525 -0.375
-80.025 28.425 -0.675
-80.025 28.425 -0.375
-77.325 28.275 -0.225
-77.325 28.275 0.375
-77.325 28.275 0.225
-77.325 28.275 -2.025
-77.325 28.275 0.825
-78.075 27.525 -0.375
-79.275 27.525 -0.975
-79.275 27.525 -0.225
-80.025 28.275 -0.525
-80.025 28.275 0.375
-80.025 28.275 -0.225
-80.025 28.275 0.525
-80.025 28.275 -0.375
-77.625 29.925 1.575
-77.625 29.925 1.425
-77.625 29.925 1.125
-79.725 29.925 0.975
-79.725 29.925 0.675
-78.675 30.375 1.125
-80.175 28.875 0.825
-80.175 28.875 0.375
-77.475 27.975 -1.125
-77.475 27.975 0.225
-77.475 27.975 0.075
-79.875 29.775 0.825
-79.875 29.775 1.875
-79.875 27.975 -1.125
-77.475 27.975 0.375
-79.875 27.975 0.375
-79.875 27.975 0.225
-79.875 27.975 0.525
-77.475 29.775 0.975
-79.575 27.675 1.725
-79.575 27.675 0.375
-80.175 28.725 0.225
-80.175 28.725 0.375
-80.175 29.025 -0.975
-78.825 27.375 0.675
-78.825 27.375 0.225
-78.825 27.375 1.125
-78.825 27.375 1.275
-78.825 30.375 1.875
-78.375 30.375 0.675
-78.975 27.375 0.825
-78.975 27.375 1.125
-78.975 27.375 0.225
-78.975 27.375 0.675
-78.975 27.375 0.375
-78.375 27.375 -0.075
-78.375 27.375 0.375
-77.175 28.575 2.175
-80.175 28.575 -0.525
-77.325 28.125 0.375
-77.325 28.125 0.825
-79.425 27.525 0.525
-79.425 27.525 1.425
-79.425 30.225 0.225
-77.925 30.225 0.225
-80.025 28.125 0.375
-80.025 29.625 1.575
-80.025 28.125 0.825
-80.025 28.125 0.225
-80.175 28.425 0.375
-77.175 29.325 0.975
-80.175 28.425 0.525
-80.175 28.425 -0.225
-80.175 28.425 -0.825
-77.175 28.425 -0.375
-80.175 29.325 -0.825
-79.125 27.375 0.375
-79.125 27.375 0.225
-79.725 30.075 1.125
-79.725 30.075 0.675
-77.625 30.075 0.525
-79.725 27.675 0.975
-79.725 27.675 1.275
-77.625 27.675 -0.975
-77.625 27.675 -0.075
-79.725 27.675 0.375
-79.875 27.825 0.375
-77.475 27.825 1.725
-79.875 29.925 1.875
-77.475 27.825 -0.525
-79.875 29.925 1.125
-77.175 28.275 0.375
-80.175 28.275 0.075
-80.175 28.275 -0.975
-80.175 28.275 0.825
-77.175 28.275 0.825
-77.175 28.275 0.675
-77.175 28.275 -1.875
-77.175 28.275 0.225
-80.175 28.275 0.375
-79.275 27.375 -1.275
-79.275 27.375 0.375
-79.275 27.375 0.825
-77.325 27.975 0.225
-77.325 27.975 0.375
-77.775 27.525 -0.825
-77.775 30.225 1.425
-79.575 27.525 2.475
-79.575 30.225 1.275
-80.025 27.975 0.825
-80.025 29.775 0.675
-80.025 29.775 0.975
-80.025 27.975 1.725
-77.025 28.875 3.225
-78.675 27.225 0.675
-78.675 27.225 1.125
-78.675 27.225 2.025
-78.675 27.225 -0.975
-78.675 27.225 0.225
-78.675 27.225 1.275
-80.325 28.875 -0.675
-80.325 28.875 0.375
-80.325 28.875 1.275
-78.525 30.525 0.075
-78.525 27.225 -0.225
-78.525 27.225 -1.575
-78.525 27.225 0.225
-78.525 27.225 1.875
-78.825 27.225 1.725
-80.325 28.725 0.975
-80.325 28.725 0.375
-80.325 29.025 1.725
-80.325 29.025 0.375
-77.025 28.575 0.225
-77.025 29.175 1.425
-77.025 28.575 -0.975
-77.025 29.175 1.575
-78.975 27.225 -1.575
-78.975 27.225 0.075
-80.175 28.125 1.725
-79.425 27.375 -0.675
-77.175 28.125 0.225
-79.425 27.375 0.375
-77.175 28.125 0.825
-77.175 28.125 -1.575
-77.175 28.125 0.375
-79.425 30.375 0.675
-80.325 28.575 0.225
-80.325 28.575 0.825
-80.325 28.575 0.375
-80.325 29.175 0.375
-79.875 30.075 1.275
-77.475 27.675 -0.525
-79.875 27.675 0.825
-77.025 29.325 0.975
-77.025 28.425 -0.525
-77.025 28.425 0.375
-77.025 28.425 0.075
-77.025 28.425 0.225
-77.325 29.925 -0.075
-77.325 27.825 -0.825
-79.725 30.225 0.675
-79.125 27.225 0.075
-79.125 27.225 0.375
-79.125 27.225 1.425
-79.125 27.225 1.275
-77.625 27.525 0.975
-80.325 28.425 0.075
-80.325 28.425 0.375
-80.325 28.425 0.225
-80.325 29.325 1.875
-80.025 27.825 -0.525
-80.025 27.825 -0.825
-80.025 27.825 0.225
-80.025 27.825 0.375
-80.025 27.825 0.525
-80.025 29.925 0.825
-77.775 27.375 -0.225
-77.775 27.375 -0.825
-77.775 30.375 -2.925
-80.175 27.975 -0.225
-77.175 27.975 0.075
-80.175 29.775 0.975
-80.175 27.975 0.225
-79.575 27.375 0.075
-79.575 27.375 -0.525
-79.575 27.375 0.375
-77.025 29.475 2.025
-77.025 28.275 0.375
-77.025 28.275 0.825
-77.025 28.275 -1.425
-78.075 27.225 2.325
-79.275 30.525 -4.575
-79.275 27.225 0.375
-79.275 27.225 -1.125
-79.275 27.225 1.875
-80.475 28.875 0.375
-76.875 28.875 0.075
-80.475 28.875 -1.125
-80.475 28.875 0.225
-80.475 28.875 1.725
-78.675 27.075 -1.275
-78.675 27.075 -0.825
-78.675 27.075 1.125
-78.675 27.075 1.575
-77.325 30.075 -0.975
-77.325 27.675 -0.375
-80.475 29.025 -0.225
-76.875 28.725 -0.525
-80.475 29.025 0.825
-80.475 29.025 0.375
-80.475 29.025 1.125
-80.475 28.725 0.825
-80.475 29.025 -1.125
-80.475 28.725 0.375
-80.475 28.725 0.225
-76.875 29.025 -0.075
-80.475 28.725 0.075
-78.525 27.075 -0.075
-78.525 27.075 1.125
-78.525 27.075 -0.225
-79.875 27.525 -1.575
-79.875 30.225 0.525
-77.475 27.525 1.725
-77.475 27.525 1.125
-77.475 27.525 -0.075
-79.875 27.525 1.875
-80.025 30.075 1.575
-80.025 27.675 -1.125
-77.025 28.125 0.825
-77.925 27.225 2.925
-77.925 27.225 -0.825
-77.925 27.225 -0.675
-77.925 27.225 -0.375
-80.325 28.125 -0.525
-80.325 28.125 2.025
-80.325 29.625 1.275
-76.875 28.575 -0.375
-76.875 28.575 -0.075
-76.875 28.575 0.075
-80.475 29.175 1.575
-76.875 29.175 1.125
-80.475 28.575 2.175
-80.475 28.575 0.825
-80.475 29.175 0.075
-80.475 28.575 0.225
-78.375 27.075 -0.225
-78.375 27.075 2.175
-78.975 27.075 1.575
-77.625 27.375 -0.375
-77.625 27.375 -0.225
-77.625 27.375 1.575
-77.625 27.375 -0.075
-79.725 27.375 2.025
-77.625 30.375 0.975
-80.175 29.925 0.675
-80.175 27.825 -0.675
-80.175 27.825 -1.125
-80.175 27.825 6.075
-80.175 27.825 1.725
-76.875 28.425 -0.525
-76.875 28.425 0.675
-76.875 28.425 -0.225
-80.475 29.325 -0.825
-80.475 29.325 -0.975
-76.875 29.325 1.125
-80.475 28.425 0.225
-76.875 28.425 1.575
-79.125 27.075 0.825
-77.775 27.225 -0.525
-77.775 27.225 -0.675
-79.575 27.225 -0.825
-80.325 27.975 0.225
-80.325 29.775 0.375
-76.875 28.275 0.675
-80.475 29.475 -0.525
-80.475 29.475 -0.975
-80.475 28.275 -0.075
-78.075 30.675 -0.675
-78.075 27.075 -0.825
-79.275 27.075 -0.975
-79.275 27.075 -0.375
-77.325 27.525 -0.525
-77.325 27.525 -0.675
-77.325 27.525 1.125
-77.325 27.525 -0.375
-80.025 30.225 0.375
-80.025 30.225 2.475
-80.025 27.525 -0.375
-77.175 27.675 1.725
-77.175 30.075 -0.075
-77.175 30.075 2.325
-80.175 27.675 -0.825
-77.175 27.675 3.675
-77.475 27.375 -0.225
-76.875 28.125 1.725
-76.875 28.125 -0.825
-80.475 28.125 -0.375
-79.425 30.675 0.075
-79.425 27.075 -0.825
-79.425 27.075 -0.075
-80.625 28.875 0.075
-80.625 28.875 0.825
-77.025 27.825 -0.225
-77.625 27.225 -0.525
-78.525 26.925 0.675
-78.525 26.925 -0.075
-78.525 26.925 2.025
-78.525 26.925 -0.375
-78.825 26.925 -0.825
-80.625 29.025 -0.525
-80.625 29.025 -0.675
-76.725 28.725 1.425
-80.325 27.825 1.425
-80.325 27.825 -0.375
-80.325 27.825 1.275
-80.325 29.925 -0.975
-78.975 26.925 -0.225
-78.975 26.925 1.875
-76.725 28.575 -0.675
-76.725 29.175 -0.525
-76.725 29.175 1.875
-79.125 26.925 1.725
-78.225 26.925 1.875
-78.225 26.925 -0.225
-76.725 28.425 -0.375
-76.725 28.425 -0.525
-80.625 28.425 -0.375
-76.725 28.425 2.325
-76.725 28.425 -0.225
-76.725 28.425 2.475
-80.625 29.325 -0.675
-80.475 27.975 0.825
-80.475 29.775 0.225
-76.875 29.775 0.525
-76.875 27.975 0.375
-76.875 29.775 -0.525
-76.875 29.775 1.125
-77.775 27.075 2.775
-79.575 27.075 -1.275
-77.325 27.375 -0.675
-80.025 27.375 -0.675
-80.025 27.375 2.175
-80.025 30.375 1.125
-77.025 27.675 0.975
-77.025 27.675 2.925
-78.075 30.825 0.675
-79.275 26.925 -0.675
-80.625 28.275 1.725
-76.725 28.275 -1.425
-80.325 30.075 1.425
-80.325 30.075 1.575
-76.875 27.825 0.375
-80.475 27.825 0.525
-80.475 27.825 1.425
-77.625 27.075 -2.775
-77.625 27.075 -0.675
-79.725 27.075 -0.675
-76.725 28.125 0.525
-76.725 28.125 0.975
-76.725 28.125 0.825
-80.625 28.125 -0.675
-80.625 28.125 1.425
-76.575 28.875 0.675
-78.675 30.975 0.675
-78.675 26.775 0.075
-80.775 28.875 -0.675
-76.575 28.725 1.575
-76.575 28.725 1.875
-76.575 29.025 -0.525
-76.575 29.025 1.875
-78.825 26.775 -0.375
-80.775 28.725 -0.825
-80.775 28.725 -0.525
-80.775 28.725 -1.425
-80.775 29.025 -1.575
-80.775 29.025 -0.825
-76.575 28.575 -0.525
-76.575 29.175 -0.525
-76.575 28.575 -0.375
-76.575 28.575 -3.675
-77.175 27.375 2.625
-77.175 27.375 -0.675
-77.175 27.375 -0.375
-77.175 27.375 3.375
-77.175 27.375 2.925
-77.175 30.375 -0.225
-77.175 30.375 0.225
-78.975 26.775 1.125
-78.375 26.775 0.225
-80.775 29.175 -0.525
-80.775 29.175 1.725
-80.775 28.575 -1.125
-77.025 27.525 0.525
-77.025 27.525 0.075
-77.025 30.225 0.075
-77.025 30.225 1.275
-77.325 27.225 -0.375
-77.325 30.525 0.825
-80.025 30.525 1.125
-76.575 29.325 0.075
-76.575 29.325 -0.375
-76.575 28.425 -0.675
-76.575 28.425 -0.075
-76.575 28.425 -0.525
-76.725 29.775 2.325
-76.725 27.975 0.225
-80.625 27.975 1.875
-79.575 26.925 -0.375
-76.725 27.975 0.375
-76.725 27.975 1.125
-76.725 29.775 -0.225
-80.625 29.775 0.525
-78.225 26.775 1.725
-80.775 28.425 0.225
-80.775 28.425 -0.675
-80.475 27.675 -0.225
-76.875 27.675 -0.825
-76.875 27.675 0.825
-80.475 27.675 0.825
-76.875 30.075 -0.075
-80.475 30.075 1.725
-80.475 30.075 1.425
-79.875 27.075 -0.675
-76.575 29.475 -0.525
-76.575 28.275 0.375
-76.575 29.475 0.225
-76.575 28.275 0.075
-78.075 26.775 0.225
-78.075 26.775 1.275
-80.775 29.475 -1.425
-80.775 28.275 -0.375
-80.775 28.275 2.325
-79.725 26.925 -0.375
-77.625 26.925 -0.525
-76.725 29.925 1.725
-76.725 27.825 -0.675
-80.625 27.825 -0.825
-76.725 27.825 -0.525
-76.725 29.925 0.675
-80.625 27.825 0.675
-77.025 27.375 -0.675
-77.025 27.375 -0.375
-77.025 27.375 1.425
-77.025 30.375 0.825
-77.025 30.375 0.975
-76.575 28.125 0.075
-76.575 28.125 0.375
-76.575 29.625 0.225
-77.175 27.225 -0.375
-77.175 27.225 1.275
-77.175 27.225 1.875
-80.175 27.225 -2.025
-80.175 27.225 -0.825
-77.175 30.525 -2.475
-77.175 30.525 0.375
-77.925 26.775 2.325
-77.925 26.775 0.225
-77.925 26.775 -0.675
-79.425 26.775 -0.675
-80.325 27.375 -0.375
-80.775 28.125 0.975
-80.775 28.125 1.725
-80.775 29.625 -0.825
-80.775 29.625 0.675
-77.325 27.075 -0.825
-80.475 27.525 -0.975
-76.875 27.525 1.425
-76.875 27.525 1.875
-80.475 30.225 1.875
-80.925 28.875 1.275
-80.925 28.875 -0.825
-76.425 28.875 3.525
-78.675 26.625 0.375
-78.675 26.625 -0.225
-80.925 28.725 -1.125
-76.425 28.725 -0.525
-76.425 28.725 -0.375
-78.375 26.625 -0.075
-78.375 26.625 -0.525
-78.375 26.625 -0.675
-80.925 29.175 -0.675
-80.925 28.575 0.225
-80.925 28.575 2.025
-80.925 29.175 -0.825
-76.425 28.575 -0.525
-76.425 28.575 0.225
-76.575 29.775 1.425
-76.575 29.775 1.275
-76.575 27.975 0.375
-80.775 27.975 3.075
-80.775 29.775 1.575
-80.775 27.975 -0.975
-77.475 26.925 0.075
-77.475 30.825 0.525
-76.725 27.675 -0.225
-76.725 27.675 0.825
-76.725 30.075 -0.225
-76.425 29.325 1.425
-80.925 29.325 -0.225
-80.925 28.425 1.725
-76.425 29.325 -4.425
-80.925 29.325 -0.375
-76.425 28.425 0.375
-76.425 28.425 -0.075
-78.225 26.625 0.675
-78.225 26.625 -0.825
-79.125 26.625 -0.975
-78.075 26.625 2.625
-76.425 29.475 -0.375
-80.925 28.275 1.875
-76.425 29.475 -0.525
-80.925 28.275 0.225
-80.925 29.475 1.275
-80.925 29.475 1.425
-76.425 28.275 0.825
-76.425 28.275 0.525
-76.425 28.275 0.375
-79.275 26.625 -1.125
-77.025 27.225 1.575
-77.025 27.225 -0.975
-77.025 30.525 1.275
-77.025 30.525 0.825
-77.025 30.525 -0.525
-80.325 27.225 -0.975
-80.325 27.225 -0.825
-80.325 30.525 -0.525
-76.875 27.375 1.725
-80.475 30.375 0.675
-76.875 30.375 0.225
-76.575 29.925 -0.075
-76.575 29.925 0.675
-76.575 27.825 -0.075
-76.575 27.825 -0.225
-76.575 27.825 -1.275
-77.325 26.925 -0.825
-77.325 26.925 -0.075
-77.325 30.825 0.675
-80.925 28.125 -0.525
-80.925 28.125 1.425
-76.425 29.625 -0.375
-80.925 29.625 2.025
-76.425 28.125 -0.525
-76.425 28.125 2.325
-76.425 28.125 0.525
-76.725 27.525 -0.375
-80.625 27.525 -1.125
-76.725 30.225 0.225
-78.675 26.475 -0.675
-78.675 26.475 -0.825
-81.075 28.875 -0.825
-81.075 28.875 -0.525
-76.275 29.025 0.675
-76.275 28.725 -0.375
-76.275 28.725 -1.425
-76.275 28.725 0.675
-76.275 28.725 1.725
-76.275 28.725 1.275
-78.525 26.475 1.875
-78.825 26.475 2.325
-78.825 26.475 0.075
-81.075 29.025 2.025
-81.075 28.725 -0.975
-76.575 27.675 -0.525
-76.575 30.075 1.575
-76.575 30.075 0.375
-76.575 30.075 1.725
-76.575 27.675 -0.375
-76.575 27.675 1.425
-76.575 27.675 -0.975
-78.975 26.475 -0.525
-78.975 26.475 -0.825
-78.375 26.475 0.225
-78.975 26.475 0.075
-80.775 27.675 -0.975
-77.775 26.625 -0.525
-76.425 29.775 -0.225
-80.925 27.975 0.375
-76.425 27.975 -0.525
-79.575 26.625 -5.925
-76.275 29.325 0.075
-76.275 28.425 0.375
-76.275 28.425 -0.225
-77.025 27.075 -0.825
-77.025 27.075 -0.525
-77.025 27.075 1.725
-80.475 30.525 0.975
-76.875 27.225 2.025
-76.875 27.225 -0.225
-76.875 27.225 1.275
-76.875 27.225 -0.675
-76.875 30.525 0.975
-76.875 27.225 1.575
-79.125 26.475 -0.975
-79.125 26.475 0.075
-79.125 26.475 0.675
-78.225 26.475 1.875
-80.325 27.075 -0.075
-81.075 28.425 1.725
-80.175 26.925 -0.375
-80.175 26.925 -0.675
-80.175 26.925 0.075
-76.725 27.375 -0.675
-80.625 27.375 -0.675
-80.625 27.375 -0.825
-76.725 30.375 0.525
-76.275 28.275 0.525
-78.075 26.475 -3.075
-79.275 26.475 1.725
-79.275 26.475 -0.675
-79.725 26.625 0.075
-76.425 29.925 0.675
-80.925 27.825 1.425
-80.925 27.825 1.575
-80.925 27.825 0.225
-76.425 27.825 -0.075
-76.425 27.825 -0.225
-76.425 27.825 -0.375
-76.575 27.525 -0.525
-76.575 27.525 0.375
-80.025 26.775 -0.375
-80.775 30.225 -0.075
-76.275 29.625 2.175
-76.275 29.625 -0.075
-76.275 29.625 0.825
-76.275 28.125 0.225
-76.275 28.125 0.525
-76.275 28.125 -0.525
-81.075 29.625 -0.825
-81.075 28.125 0.375
-80.475 27.075 -1.575
-76.875 30.675 0.525
-76.875 27.075 -5.325
-76.875 27.075 1.425
-76.875 27.075 0.375
-76.875 27.075 -0.225
-81.225 28.875 1.275
-80.925 30.075 1.725
-76.425 30.075 -1.575
-76.425 30.075 0.225
-80.925 27.675 -0.825
-76.425 27.675 -0.375
-76.425 27.675 0.525
-80.925 30.075 -0.525
-77.025 26.925 1.425
-77.025 26.925 1.575
-76.125 29.025 0.375
-76.125 28.725 1.575
-76.125 28.725 0.375
-81.225 29.025 1.575
-81.225 28.725 -0.525
-78.525 26.325 -0.975
-76.725 27.225 1.575
-76.725 27.225 1.425
-76.725 30.525 0.225
-78.825 26.325 0.975
-76.275 29.775 0.825
-76.275 27.975 0.975
-77.775 26.475 0.225
-79.575 26.475 -0.075
-81.075 27.975 -0.225
-81.225 29.175 1.725
-81.225 29.175 1.275
-76.125 28.575 0.375
-81.225 28.575 0.075
-78.375 26.325 2.925
-76.575 27.375 0.225
-76.575 27.375 0.075
-76.575 30.375 0.375
-77.175 26.775 0.225
-80.175 26.775 -0.525
-77.175 26.775 -0.825
-80.775 27.375 -1.125
-81.225 29.325 -3.675
-76.125 28.425 -1.725
-76.125 28.425 0.375
-76.125 28.425 -0.225
-81.225 28.425 -3.975
-79.125 26.325 3.075
-79.125 26.325 0.525
-76.275 29.925 0.075
-76.275 27.825 -0.075
-76.125 29.475 1.125
-76.125 28.275 0.975
-76.125 28.275 0.225
-76.125 28.275 1.725
-76.125 28.275 0.825
-77.625 26.475 -0.375
-81.225 29.475 1.725
-81.225 29.475 1.425
-81.225 28.275 -0.675
-78.075 26.325 -0.225
-78.075 26.325 2.625
-78.075 26.325 -0.675
-81.075 29.925 1.425
-76.425 30.225 0.225
-76.425 30.225 0.375
-80.925 27.525 -0.525
-76.425 27.525 0.825
-80.025 26.625 -0.675
-76.875 26.925 -1.425
-76.875 26.925 1.275
-76.875 26.925 1.425
-80.475 26.925 1.875
-80.475 26.925 -1.275
-76.875 26.925 -0.825
-76.725 27.075 0.975
-76.725 27.075 2.175
-76.125 28.125 -0.225
-76.125 28.125 -0.975
-76.125 29.625 0.075
-76.125 29.625 1.275
-81.225 29.625 0.225
-77.925 26.325 2.175
-77.925 26.325 1.575
-76.575 27.225 1.125
-76.575 30.525 0.375
-77.025 26.775 1.425
-77.025 26.775 2.175
-80.325 30.975 -3.975
-80.775 30.525 0.375
-76.275 27.675 -2.325
-76.275 30.075 1.725
-76.275 30.075 -1.275
-79.875 26.475 -0.825
-77.475 26.475 -0.825
-81.075 30.075 1.875
-78.675 26.175 -0.675
-78.675 26.175 2.325
-75.975 28.875 1.425
-75.975 28.875 -0.075
-75.975 28.875 0.375
-76.125 27.975 -0.525
-76.125 29.775 1.125
-76.125 29.775 0.975
-81.225 27.975 -0.675
-77.775 26.325 1.575
-78.525 26.175 1.875
-78.825 26.175 1.275
-78.825 26.175 -0.225
-78.825 26.175 1.125
-76.425 27.375 -0.225
-76.425 27.375 0.075
-76.425 27.375 0.375
-76.425 30.375 -0.225
-75.975 29.025 0.075
-75.975 29.025 -0.525
-75.975 28.725 1.575
-75.975 28.725 0.075
-81.375 29.025 -0.075
-81.375 28.725 1.125
-75.975 29.175 -0.225
-75.975 29.175 -0.825
-81.375 29.175 -3.375
-75.975 28.575 -0.225
-75.975 28.575 0.075
-75.975 29.175 -0.075
-81.375 28.575 0.075
-78.225 26.175 1.725
-78.225 26.175 0.375
-75.975 29.325 -0.375
-75.975 29.325 3.825
-75.975 28.425 -0.375
-81.375 29.325 1.275
-81.375 29.325 0.075
-81.375 28.425 1.725
-76.275 30.225 0.375
-76.275 27.525 0.075
-76.275 27.525 0.375
-76.275 27.525 0.525
-77.325 26.475 0.075
-77.325 26.475 -0.075
-77.325 26.475 1.875
-80.025 26.475 -0.825
-80.025 26.475 -0.225
-81.075 30.225 0.975
-76.125 29.925 0.225
-76.125 29.925 -1.275
-76.125 27.825 0.525
-81.225 27.825 -1.125
-76.725 26.925 1.275
-76.575 27.075 0.975
-78.075 26.175 2.775
-78.075 26.175 0.225
-76.875 26.775 1.425
-76.875 26.775 0.225
-80.475 26.775 -0.825
-80.475 26.775 1.725
-80.475 26.775 -0.675
-79.275 26.175 -0.825
-75.975 29.475 -0.075
-75.975 29.475 -0.375
-81.375 29.475 -0.825
-81.375 29.475 0.225
-81.375 29.475 -0.675
-81.375 28.275 1.875
-80.775 27.075 -0.975
-77.025 26.625 0.225
-77.025 26.625 2.325
-80.925 30.525 0.975
-76.425 30.525 0.975
-75.975 29.625 1.575
-75.975 28.125 1.125
-75.975 29.625 1.425
-75.975 29.625 0.975
-75.975 29.625 0.075
-75.975 29.625 0.825
-75.975 28.125 0.975
-81.375 29.625 0.975
-81.375 29.625 0.825
-81.375 28.125 0.525
-81.225 30.075 -0.825
-81.225 30.075 0.225
-76.125 27.675 -0.675
-76.125 30.075 0.225
-81.225 30.075 0.375
-76.125 27.675 0.525
-79.875 26.325 -0.225
-76.275 27.375 0.675
-76.275 30.375 0.825
-76.275 30.375 0.375
-76.275 30.375 1.425
-81.075 27.375 0.375
-81.075 27.375 0.075
-77.775 26.175 0.975
-79.575 26.175 3.075
-79.575 26.175 -0.975
-75.975 29.775 0.075
-75.975 29.775 0.375
-75.975 29.775 0.975
-75.975 27.975 0.525
-75.975 27.975 0.675
-75.975 27.975 -0.375
-81.375 29.775 0.375
-81.375 29.775 0.975
-75.825 28.875 -0.225
-78.675 26.025 -1.275
-78.675 26.025 0.375
-75.825 29.025 -0.225
-78.525 26.025 0.525
-78.525 26.025 0.075
-81.525 28.725 -0.375
-81.525 28.725 -0.825
-81.525 28.725 -0.525
-75.825 29.175 -3.375
-75.825 28.575 1.425
-75.825 28.575 -0.075
-76.575 26.925 0.825
-76.575 26.925 0.975
-78.375 26.025 2.325
-76.725 26.775 1.425
-76.725 26.775 0.075
-76.725 26.775 0.825
-76.725 26.775 1.575
-80.775 30.825 0.825
-81.525 29.175 0.375
-81.525 29.175 0.525
-76.875 26.625 -0.375
-76.875 26.625 -0.075
-76.875 26.625 1.125
-76.875 26.625 2.475
-76.875 26.625 1.725
-76.425 27.075 0.675
-76.425 27.075 1.575
-76.425 27.075 1.275
-80.925 30.675 0.675
-75.825 29.325 3.825
-75.825 28.425 -0.375
-75.825 28.425 0.825
-81.225 30.225 1.425
-76.125 27.525 -0.825
-76.125 30.225 0.525
-76.125 30.225 1.425
-78.225 26.025 0.375
-78.225 26.025 0.525
-79.125 26.025 -0.525
-80.025 26.325 -0.075
-80.025 26.325 4.575
-81.525 29.325 -0.075
-77.625 26.175 0.525
-77.625 26.175 1.875
-75.975 29.925 0.075
-81.375 29.925 1.425
-81.375 29.925 0.375
-76.275 27.225 -0.225
-76.275 27.225 1.125
-76.275 27.225 2.325
-76.275 27.225 0.225
-76.275 30.525 1.275
-77.025 26.475 0.225
-75.825 29.475 -0.075
-75.825 29.475 0.675
-75.825 28.275 0.675
-75.825 28.275 0.375
-78.075 26.025 1.275
-78.075 26.025 0.525
-78.075 26.025 -0.075
-78.075 26.025 0.375
-78.075 26.025 1.125
-79.275 26.025 -0.675
-81.075 27.225 0.075
-81.525 28.275 0.225
-75.825 29.625 1.125
-75.825 29.625 -0.075
-75.825 28.125 -0.525
-75.825 29.625 2.325
-75.825 28.125 0.675
-77.925 26.025 0.375
-81.525 28.125 -1.425
-81.525 29.625 0.975
-81.525 29.625 0.675
-81.525 29.625 -0.675
-81.525 29.625 0.075
-81.525 29.625 0.375
-77.475 26.175 -3.375
-75.975 30.075 1.425
-75.975 30.075 -0.075
-75.975 30.075 0.075
-75.975 30.075 1.875
-75.975 30.075 0.375
-75.975 27.675 0.375
-81.375 30.075 1.275
-81.375 30.075 0.825
-81.225 30.375 0.825
-76.125 27.375 2.325
-76.125 27.375 -0.675
-76.125 30.375 0.675
-76.125 30.375 0.825
-77.175 26.325 1.425
-76.575 26.775 -0.825
-76.575 26.775 0.075
-76.575 26.775 0.675
-76.425 26.925 0.825
-76.725 26.625 -0.225
-76.725 26.625 2.325
-75.825 29.775 -1.125
-75.825 29.775 -0.225
-75.825 29.775 0.675
-75.825 29.775 0.075
-75.825 29.775 0.825
-75.825 27.975 -0.225
-75.825 27.975 -0.075
-77.775 26.025 -0.975
-77.775 26.025 1.575
-77.775 26.025 0.975
-81.525 27.975 -0.675
-81.525 27.975 -0.525
-81.525 29.775 0.525
-76.275 27.075 2.025
-76.275 27.075 0.675
-76.275 27.075 0.825
-76.275 27.075 1.425
-76.875 26.475 0.525
-75.675 28.875 1.275
-81.675 28.875 -3.375
-81.075 27.075 2.625
-78.525 25.875 1.125
-78.525 25.875 2.325
-78.525 25.875 -0.375
-78.525 25.875 -0.075
-75.675 29.025 -0.825
-75.675 29.025 1.275
-75.675 29.025 3.675
-75.675 28.725 -0.375
-75.675 28.725 -0.225
-81.675 29.025 -0.375
-81.675 28.725 -0.675
-78.375 25.875 0.375
-78.375 25.875 0.075
-78.975 25.875 -1.575
-75.675 29.175 1.725
-77.325 26.175 2.625
-75.675 28.425 0.525
-75.675 28.425 1.425
-81.675 29.325 1.725
-78.225 25.875 0.825
-79.125 25.875 -2.025
-75.825 29.925 0.375
-75.825 27.825 -0.675
-77.025 26.325 1.575
-76.125 27.225 -0.375
-76.125 27.225 2.325
-81.225 30.525 1.425
-81.225 30.525 0.675
-77.625 26.025 0.975
-77.625 26.025 1.125
-79.725 26.025 4.125
-80.325 31.425 -3.375
-81.525 29.925 0.525
-78.075 25.875 0.375
-78.075 25.875 -0.075
-78.075 25.875 1.125
-75.675 28.275 0.525
-75.675 28.275 -0.075
-75.675 29.475 0.525
-75.675 29.475 0.075
-75.675 29.475 0.825
-79.275 25.875 0.225
-76.575 26.625 2.175
-76.425 26.775 0.075
-76.425 26.775 0.825
-77.175 26.175 1.275
-81.375 27.375 -0.825
-75.975 27.375 0.675
-81.375 30.375 1.125
-76.275 26.925 0.525
-76.275 26.925 -0.075
-76.275 26.925 0.675
-76.275 26.925 -0.225
-75.825 30.075 0.375
-75.825 30.075 -0.075
-75.825 30.075 -0.225
-75.825 27.675 -0.375
-75.825 27.675 0.825
-75.675 29.625 2.775
-75.675 29.625 0.525
-75.675 29.625 -0.075
-75.675 29.625 2.175
-75.675 28.125 0.225
-75.675 28.125 0.525
-75.675 28.125 -0.075
-75.675 28.125 0.675
-77.925 25.875 -0.225
-77.925 25.875 0.975
-77.925 25.875 0.375
-81.675 29.625 0.675
-79.425 25.875 -1.875
-76.725 26.475 1.125
-76.725 26.475 0.675
-76.725 26.475 0.525
-80.625 26.475 -0.675
-77.475 26.025 1.125
-81.075 26.925 0.075
-81.525 30.075 0.675
-81.525 30.075 0.825
-76.125 27.075 0.975
-76.125 27.075 0.675
-76.125 27.075 0.825
-76.125 27.075 0.525
-76.125 27.075 0.375
-76.125 27.075 -0.075
-81.225 30.675 1.275
-76.875 31.425 -2.775
-76.875 26.325 1.425
-77.775 25.875 0.975
-77.775 25.875 1.575
-75.675 27.975 1.125
-75.675 27.975 -0.525
-75.675 29.775 0.525
-81.675 29.775 0.375
-81.675 29.775 -0.675
-78.675 25.725 0.075
-75.525 29.025 -0.225
-75.525 29.025 2.175
-75.525 29.025 0.075
-75.525 29.025 -0.075
-75.525 28.725 -0.525
-75.825 27.525 0.825
-75.825 27.525 0.375
-75.825 30.225 0.825
-78.525 25.725 1.275
-77.325 26.025 1.125
-77.325 26.025 0.225
-80.025 26.025 -0.375
-81.525 27.525 -0.525
-81.525 27.525 -0.825
-75.525 29.175 0.075
-75.525 29.175 -0.225
-75.525 28.575 -0.225
-75.525 28.575 -0.375
-75.525 28.575 0.525
-77.025 26.175 0.675
-77.025 26.175 0.825
-78.375 25.725 0.225
-78.975 25.725 3.225
-75.975 27.225 1.425
-75.975 27.225 0.825
-75.975 27.225 0.975
-81.375 30.525 0.975
-81.375 30.525 -3.825
-80.325 31.575 -3.075
-80.325 26.175 -0.975
-80.325 26.175 -0.825
-80.325 26.175 -0.525
-81.825 28.575 -0.675
-77.625 25.875 0.975
-77.625 25.875 1.275
-75.675 27.825 2.025
-75.675 27.825 0.525
-75.675 27.825 -0.225
-81.675 29.925 0.375
-81.675 29.925 0.525
-75.675 27.825 -0.825
-81.675 27.825 1.275
-81.675 27.825 1.425
-81.675 27.825 -0.075
-75.525 29.325 2.175
-75.525 28.425 0.525
-75.525 28.425 -0.375
-75.525 28.425 1.125
-75.525 28.425 -0.525
-76.425 26.625 4.575
-76.425 26.625 1.575
-81.825 28.425 0.075
-76.575 26.475 0.975
-76.575 26.475 -5.175
-76.575 26.475 0.525
-80.775 31.275 -3.825
-81.075 26.775 -0.225
-81.075 26.775 -0.075
-75.525 28.275 0.975
-75.525 28.275 -0.375
-75.525 28.275 0.675
-75.525 29.475 1.125
-75.525 29.475 0.675
-79.275 25.725 -0.225
-79.275 25.725 0.525
-81.825 29.475 1.575
-76.125 26.925 0.375
-76.725 26.325 1.875
-76.725 26.325 0.825
-76.725 26.325 -0.225
-75.825 27.375 0.675
-75.825 27.375 1.575
-75.825 27.375 1.725
-77.175 26.025 1.275
-80.175 26.025 -0.225
-75.675 27.675 0.825
-75.675 27.675 0.525
-75.675 27.675 -0.375
-75.675 30.075 0.675
-75.675 30.075 -2.175
-75.675 30.075 0.375
-81.675 30.075 0.675
-81.675 30.075 0.525
-81.675 30.075 0.225
-77.475 25.875 1.275
-75.525 28.125 0.375
-75.525 28.125 1.725
-75.525 28.125 0.675
-75.525 28.125 1.125
-77.925 25.725 0.975
-77.925 25.725 1.125
-79.425 25.725 0.975
-79.425 25.725 1.275
-76.875 26.175 0.975
-75.975 27.075 0.525
-75.975 27.075 0.825
-75.975 27.075 0.225
-75.975 27.075 0.975
-81.375 30.675 1.125
-75.525 27.975 0.525
-75.525 29.775 0.375
-77.775 25.725 -0.375
-77.775 25.725 0.975
-77.775 25.725 1.425
-79.575 25.725 1.125
-76.275 26.625 0.525
-76.275 26.625 0.375
-77.325 25.875 -0.375
-77.325 25.875 1.875
-76.425 26.475 0.825
-75.675 27.525 0.675
-75.675 27.525 0.375
-75.675 27.525 0.825
-75.675 27.525 0.525
-81.675 30.225 0.675
-81.675 30.225 0.825
-81.675 30.225 1.125
-80.025 25.875 -0.375
-75.825 27.225 1.125
-75.825 27.225 0.375
-75.825 27.225 0.975
-75.825 27.225 0.825
-77.025 26.025 -0.375
-81.525 27.225 2.175
-81.525 30.525 1.275
-81.975 28.875 -0.975
-75.375 28.875 2.325
-78.675 25.575 -0.075
-78.675 25.575 0.375
-78.675 25.575 1.425
-76.575 31.425 2.175
-76.575 26.325 1.125
-81.975 28.725 -0.525
-75.375 29.025 -1.725
-78.525 25.575 1.125
-78.525 25.575 1.425
-78.525 25.575 0.825
-75.375 29.175 -0.225
-75.375 29.175 -3.225
-75.375 29.175 -4.425
-75.375 28.575 -0.075
-75.375 28.575 0.525
-78.375 25.575 0.525
-78.975 25.575 -0.075
-75.525 27.825 -0.825
-75.525 27.825 -0.225
-75.525 29.925 0.525
-75.525 29.925 0.075
-77.625 25.725 0.675
-77.625 25.725 1.125
-77.625 25.725 1.275
-81.825 29.925 0.225
-81.825 29.925 0.525
-81.825 29.925 -0.525
-75.375 29.325 0.525
-75.375 29.325 1.125
-75.375 29.325 1.425
-75.375 28.425 1.425
-75.375 28.425 1.875
-75.375 28.425 0.525
-81.975 28.425 0.375
-79.125 25.575 0.375
-79.125 25.575 1.275
-76.725 26.175 0.375
-76.725 26.175 0.975
-76.725 26.175 1.275
-80.625 31.575 2.475
-75.975 26.925 0.825
-75.975 26.925 0.075
-75.975 26.925 0.675
-81.375 30.825 1.125
-75.375 28.275 0.825
-75.375 28.275 0.525
-75.375 28.275 2.025
-75.375 28.275 0.975
-81.975 29.475 0.525
-75.675 27.375 1.425
-75.675 27.375 0.375
-77.175 25.875 -0.225
-77.175 25.875 0.825
-77.175 25.875 -0.375
-81.675 27.375 0.825
-75.525 27.675 -0.675
-75.525 30.075 0.675
-75.825 27.075 0.825
-75.825 27.075 0.675
-75.825 27.075 0.525
-77.475 25.725 0.375
-80.475 31.725 2.625
-79.875 25.725 -0.075
-81.825 27.675 1.275
-75.375 29.625 0.525
-75.375 29.625 0.075
-75.375 28.125 0.675
-75.375 28.125 1.125
-75.375 28.125 3.075
-75.375 28.125 0.375
-81.975 28.125 0.225
-75.375 28.125 1.875
-79.425 25.575 0.975
-79.425 25.575 0.825
-76.275 26.475 0.975
-76.275 26.475 1.425
-76.425 26.325 0.375
-76.575 26.175 0.525
-76.575 26.175 0.975
-75.375 29.775 0.675
-75.375 29.775 1.275
-75.375 29.775 2.325
-75.375 29.775 1.425
-75.375 29.775 0.075
-75.375 27.975 0.675
-81.975 27.975 1.275
-81.975 27.975 0.375
-77.775 25.575 0.225
-77.775 25.575 1.725
-77.775 25.575 -0.975
-81.375 30.975 -3.225
-75.675 27.225 0.225
-75.675 27.225 0.825
-81.675 30.525 1.425
-81.675 30.525 0.525
-81.675 27.225 2.925
-75.525 27.525 -0.075
-75.525 27.525 -0.825
-77.325 25.725 0.675
-77.325 25.725 0.525
-81.825 30.225 0.375
-81.825 27.525 0.075
-78.675 25.425 1.725
-78.675 25.425 0.525
-75.225 28.875 -0.075
-75.825 26.925 0.525
-78.525 25.425 2.475
-78.525 25.425 1.125
-78.525 25.425 0.975
-78.525 25.425 -1.125
-78.525 25.425 0.525
-75.225 29.025 1.425
-75.225 29.025 1.575
-75.225 29.025 2.025
-75.225 28.725 2.175
-75.225 28.725 1.275
-75.225 29.025 0.975
-76.725 26.025 0.975
-82.125 28.725 -0.375
-81.525 30.825 1.125
-75.375 27.825 0.825
-78.975 25.425 0.825
-78.975 25.425 -0.675
-78.375 25.425 1.425
-77.625 25.575 0.975
-79.725 25.575 0.975
-75.225 29.175 -1.125
-75.225 29.175 1.725
-75.225 28.575 -0.225
-82.125 28.575 -0.675
-79.125 25.425 1.275
-79.125 25.425 0.675
-78.225 25.425 0.375
-75.225 29.325 1.575
-75.225 28.425 -0.375
-75.225 29.325 0.975
-75.225 29.325 1.125
-75.225 29.325 0.825
-75.225 28.425 1.125
-75.525 27.375 -0.375
-75.525 27.375 0.975
-75.525 27.375 0.525
-77.175 25.725 0.375
-81.825 27.375 0.825
-81.825 27.375 0.675
-81.825 27.375 0.975
-81.825 27.375 0.225
-76.875 25.875 0.525
-76.875 25.875 -0.375
-75.675 27.075 -0.525
-75.675 27.075 1.125
-81.675 30.675 1.875
-81.675 27.075 0.825
-81.675 27.075 2.025
-81.675 27.075 1.125
-76.125 26.475 0.975
-76.125 26.475 0.225
-78.075 25.425 1.125
-79.275 25.425 2.175
-75.225 29.475 1.125
-75.225 28.275 -0.375
-75.225 28.275 -0.525
-75.225 29.475 0.525
-75.225 28.275 -2.625
-82.125 28.275 0.075
-81.975 27.675 1.125
-79.875 25.575 2.925
-77.475 25.575 1.125
-77.475 25.575 0.375
-80.925 31.575 -2.925
-75.975 26.625 -0.075
-79.425 25.425 1.275
-79.425 25.425 0.375
-79.425 25.425 0.225
-75.225 29.625 0.975
-75.225 29.625 0.675
-75.225 28.125 0.675
-75.225 29.625 1.125
-82.125 28.125 -3.825
-75.825 26.775 1.125
-76.575 26.025 4.125
-76.575 26.025 0.075
-81.525 26.775 2.025
-81.525 26.775 1.425
-81.525 26.775 1.275
-75.525 27.225 1.125
-75.525 27.225 0.525
-75.525 27.225 0.975
-77.025 25.725 0.675
-77.025 25.725 1.125
-77.025 25.725 0.525
-80.325 32.025 2.625
-81.825 27.225 0.675
-81.825 27.225 0.375
-77.775 25.425 3.975
-77.775 25.425 0.375
-81.975 27.525 0.975
-81.975 27.525 0.675
-75.375 27.525 0.525
-75.375 27.525 0.375
-75.375 27.525 -0.075
-77.325 25.575 1.125
-77.325 25.575 1.725
-77.325 25.575 0.225
-79.575 25.425 0.975
-75.225 27.975 -0.825
-75.225 29.775 0.525
-75.225 29.775 1.275
-75.225 29.775 1.425
-75.225 27.975 -0.225
-75.225 27.975 -0.075
-75.225 27.975 0.675
-82.125 27.975 0.525
-75.675 26.925 0.525
-81.675 26.925 1.575
-81.675 26.925 0.675
-75.075 28.875 -0.075
-78.675 25.275 0.825
-75.075 29.025 0.975
-78.525 25.275 1.425
-78.525 25.275 0.525
-77.625 25.425 1.125
-77.625 25.425 1.425
-76.125 26.325 0.525
-76.125 26.325 0.975
-79.725 25.425 1.275
-75.225 29.925 1.125
-76.275 26.175 1.275
-75.075 29.175 1.425
-75.075 28.575 1.425
-75.075 28.575 2.325
-75.075 28.575 -0.075
-75.975 31.275 0.525
-75.975 26.475 0.825
-78.975 25.275 0.675
-78.375 25.275 1.575
-78.375 25.275 0.975
-78.375 25.275 0.375
-78.375 25.275 1.425
-81.975 27.375 1.425
-81.975 27.375 0.975
-75.375 27.375 1.125
-75.375 27.375 1.275
-75.375 27.375 0.975
-81.975 30.375 -0.225
-81.975 30.375 0.075
-77.175 25.575 0.825
-75.525 27.075 1.275
-75.075 28.425 0.975
-75.075 28.425 -0.375
-75.075 29.325 2.175
-75.075 29.325 0.975
-79.125 25.275 0.975
-79.125 25.275 1.575
-79.125 25.275 1.275
-78.225 25.275 0.975
-81.825 27.075 0.975
-81.825 27.075 2.025
-75.825 31.125 -1.425
-75.825 26.625 0.225
-75.825 26.625 0.675
-80.925 31.725 -3.075
-76.425 26.025 0.825
-81.525 26.625 1.575
-81.525 26.625 1.275
-75.075 29.475 0.375
-75.075 29.475 0.675
-75.075 29.475 0.975
-75.075 29.475 1.125
-75.075 29.475 1.275
-79.275 25.275 1.275
-79.875 25.425 0.525
-77.475 25.425 1.125
-75.225 27.675 0.525
-82.125 30.075 0.075
-75.675 26.775 0.225
-75.675 26.775 0.975
-75.675 26.775 -1.125
-81.675 26.775 1.275
-81.675 26.775 1.575
-75.075 29.625 0.975
-75.075 29.625 1.125
-75.075 29.625 0.525
-75.075 28.125 -0.525
-79.425 25.275 0.675
-81.975 27.225 0.525
-81.975 27.225 1.125
-77.025 25.575 0.825
-77.025 25.575 0.225
-77.025 25.575 1.125
-75.375 27.225 0.375
-75.375 27.225 0.525
-81.975 30.525 0.375
-80.025 25.425 1.725
-75.225 27.525 0.375
-75.225 27.525 1.425
-75.225 27.525 0.075
-82.125 27.525 1.425
-82.125 27.525 0.675
-81.825 26.925 0.675
-81.825 26.925 1.575
-81.825 26.925 0.975
-81.825 26.925 1.125
-81.825 26.925 2.025
-75.075 29.775 0.975
-75.075 29.775 0.675
-75.075 27.975 0.975
-75.075 27.975 0.375
-75.075 27.975 -0.525
-77.775 25.275 3.975
-79.575 25.275 1.725
-79.575 25.275 0.525
-79.575 25.275 -0.075
-75.975 26.325 1.425
-75.825 26.475 0.825
-75.825 26.475 0.375
-76.275 26.025 -0.225
-81.075 26.025 -0.825
-81.525 26.475 1.275
-75.075 29.925 1.125
-75.075 29.925 1.275
-75.075 29.925 0.975
-75.075 27.825 0.525
-75.075 27.825 -0.975
-74.925 28.875 -0.075
-78.675 25.125 1.125
-78.675 25.125 0.375
-78.675 25.125 0.825
-75.675 26.625 0.225
-81.675 26.625 2.175
-81.675 26.625 2.025
-81.675 26.625 0.975
-76.425 25.875 0.375
-77.625 25.275 1.575
-79.725 25.275 0.975
-79.725 25.275 0.225
-79.725 25.275 0.075
-79.725 25.275 1.125
-78.525 25.125 0.825
-74.925 28.725 0.375
-74.925 29.025 0.675
-74.925 29.025 1.425
-74.925 28.725 0.225
-74.925 28.725 1.725
-74.925 29.025 2.175
-78.825 25.125 1.725
-78.825 25.125 0.825
-78.825 25.125 1.875
-76.875 25.575 1.425
-80.175 25.425 0.225
-77.175 25.425 0.825
-78.375 25.125 1.275
-78.975 25.125 1.275
-78.975 25.125 0.375
-78.975 25.125 0.825
-74.925 29.175 0.975
-74.925 29.175 0.375
-74.925 29.175 1.275
-74.925 29.175 0.225
-74.925 29.175 0.675
-74.925 29.175 1.575
-75.225 27.375 0.225
-75.225 27.375 0.975
-75.225 27.375 0.675
-75.225 27.375 0.375
-75.225 27.375 1.575
-75.225 27.375 0.825
-75.225 30.375 0.225
-74.925 29.325 0.525
-74.925 29.325 1.875
-74.925 29.325 0.975
-74.925 28.425 2.025
-74.925 29.325 0.375
-78.225 25.125 0.525
-79.125 25.125 0.825
-79.125 25.125 0.975
-79.125 25.125 2.025
-75.525 26.775 0.075
-81.825 26.775 1.275
-81.825 26.775 1.575
-81.825 26.775 1.425
-79.875 25.275 1.575
-79.875 25.275 1.275
-79.875 25.275 1.425
-82.275 27.675 1.275
-82.275 30.075 0.375
-74.925 28.275 1.575
-79.275 25.125 1.425
-75.975 26.175 1.425
-75.825 26.325 0.375
-77.925 25.125 0.675
-79.425 25.125 1.275
-79.425 25.125 1.875
-79.425 25.125 2.025
-74.925 29.625 1.125
-79.425 25.125 1.425
-82.425 28.125 -3.225
-79.425 32.625 5.475
-74.925 28.125 0.375
-74.925 28.125 0.675
-82.125 27.225 0.675
-82.125 27.225 0.825
-75.225 27.225 0.825
-75.225 27.225 0.525
-75.225 27.225 1.125
-75.225 27.225 0.675
-82.125 27.225 0.225
-81.525 26.325 1.425
-81.975 26.925 -0.525
-81.975 26.925 0.675
-81.975 26.925 1.575
-81.975 26.925 2.025
-81.975 26.925 0.975
-76.725 25.575 0.825
-75.675 26.475 1.275
-75.675 26.475 3.075
-81.675 26.475 1.575
-81.675 26.475 0.975
-81.675 26.475 1.875
-75.675 26.475 0.975
-81.075 31.875 2.025
-75.075 27.525 0.225
-75.075 30.225 0.075
-77.325 25.275 4.275
-82.275 27.525 0.675
-82.275 27.525 1.275
-82.425 27.975 1.125
-74.925 29.775 0.975
-74.925 29.775 0.675
-74.925 29.775 1.125
-74.925 29.775 0.825
-74.925 27.975 0.525
-74.925 27.975 1.125
-79.575 25.125 1.275
-75.525 26.625 1.275
-81.825 26.625 1.725
-81.825 26.625 1.425
-81.825 26.625 0.975
-81.825 26.625 1.275
-76.875 25.425 1.275
-82.125 27.075 2.475
-82.125 27.075 0.975
-82.125 27.075 1.125
-82.125 27.075 0.825
