# .PCD v0.7 - Point Cloud Data file format
VERSION 0.7
FIELDS x y z
SIZE 4 4 4
TYPE F F F
COUNT 1 1 1
WIDTH 2048
HEIGHT 1
VIEWPOINT 0 0 0 1 0 0 0
POINTS 2048
DATA ascii
-56.925 59.775 -1.575
-56.775 59.775 0.675
-56.775 59.925 -0.675
-56.625 59.775 0.675
-56.625 59.775 -0.675
-56.625 59.775 -0.825
-56.625 59.775 0.375
-56.925 60.075 -0.675
-56.625 59.925 0.825
-56.625 59.925 -0.225
-56.625 59.925 2.025
-56.775 60.075 0.675
-56.775 60.075 -0.525
-56.775 60.075 0.075
-56.775 60.075 -0.825
-57.075 59.625 -0.375
-56.625 59.625 1.125
-56.925 59.475 -3.375
-57.225 59.775 0.675
-57.225 59.775 -0.975
-57.225 59.775 -0.675
-56.625 60.075 1.275
-56.625 60.075 2.025
-56.775 59.475 1.125
-56.775 59.475 -0.675
-57.225 59.925 0.375
-57.225 59.925 -1.275
-57.225 59.625 -0.225
-57.225 59.625 0.675
-56.475 59.775 2.025
-56.475 59.775 0.675
-56.475 59.775 -0.225
-56.925 60.225 1.275
-56.925 60.225 -1.575
-56.925 60.225 1.125
-56.775 60.225 1.875
-56.775 60.225 -1.125
-56.625 59.475 0.975
-56.475 59.625 -0.975
-56.475 59.625 1.275
-57.075 60.225 -1.275
-56.625 60.225 1.875
-56.625 60.225 2.175
-56.925 59.325 0.525
-56.925 59.325 -0.225
-57.375 59.775 0.675
-57.375 59.775 0.975
-56.775 59.325 0.825
-56.775 59.325 0.075
-56.775 59.325 0.525
-56.475 59.475 -0.375
-57.075 59.325 0.525
-56.325 59.775 2.925
-56.325 59.775 0.675
-56.625 59.325 -0.975
-56.625 59.325 0.525
-56.925 60.375 1.575
-56.925 60.375 0.675
-56.925 60.375 -0.375
-57.375 60.075 0.375
-57.375 60.075 3.375
-56.325 59.925 -1.425
-56.775 60.375 -0.525
-56.775 60.375 0.675
-56.775 60.375 2.025
-56.475 60.225 1.875
-56.325 59.625 -0.375
-57.075 60.375 2.025
-57.075 60.375 0.675
-57.075 60.375 0.075
-57.075 60.375 0.825
-57.075 60.375 0.375
-56.325 60.075 1.875
-56.325 60.075 2.025
-56.625 60.375 0.675
-56.625 60.375 -0.675
-56.625 60.375 4.725
-56.475 59.325 0.525
-56.475 59.325 0.225
-57.375 60.225 -0.825
-57.525 59.775 0.525
-57.525 59.775 -0.225
-56.325 59.475 1.275
-57.525 59.925 1.125
-57.525 59.925 -0.225
-56.325 60.225 1.875
-56.325 60.225 0.075
-56.475 60.375 1.575
-56.475 60.375 -0.525
-56.475 60.375 -0.675
-56.625 59.175 -0.675
-57.525 60.075 -0.225
-57.525 60.075 -0.975
-56.175 59.775 2.025
-56.175 59.775 0.825
-56.175 59.775 -0.825
-56.175 59.925 1.875
-56.775 60.525 1.725
-56.175 59.625 -0.675
-56.175 59.625 2.025
-56.175 59.625 2.175
-57.075 60.525 -0.225
-57.075 60.525 1.875
-57.075 60.525 2.025
-57.525 59.475 3.225
-57.375 60.375 -0.525
-56.475 59.175 0.675
-57.525 60.225 -5.025
-56.325 60.375 0.225
-56.325 60.375 1.575
-57.225 60.525 1.875
-56.925 59.025 -0.525
-57.675 59.775 0.675
-56.775 59.025 0.075
-56.775 59.025 -0.675
-57.675 59.925 1.125
-56.175 60.225 -1.575
-56.175 60.225 1.875
-56.475 60.525 0.825
-56.625 59.025 -0.975
-56.025 59.775 0.225
-57.525 60.375 -0.675
-57.525 60.375 -0.375
-56.925 60.675 -0.375
-56.925 60.675 -0.825
-56.025 59.925 1.725
-56.025 59.925 1.875
-56.175 59.325 0.375
-56.775 60.675 -0.225
-56.775 60.675 -0.525
-57.675 59.475 -0.225
-57.675 59.475 -3.675
-56.025 59.625 2.025
-57.075 60.675 -0.675
-57.075 60.675 1.875
-56.625 60.675 -0.525
-56.625 60.675 -3.375
-56.175 60.375 2.625
-57.675 60.225 -0.975
-57.675 60.225 -0.225
-57.525 59.175 -0.675
-56.025 59.475 0.225
-56.025 59.475 -0.225
-56.025 59.475 1.875
-57.225 60.675 -0.375
-57.225 60.675 4.425
-56.025 60.225 -1.125
-56.025 60.225 -0.375
-56.475 60.675 2.175
-56.475 60.675 0.675
-56.475 60.675 -0.975
-56.925 58.875 2.025
-57.825 59.775 -0.375
-57.825 59.775 0.675
-56.175 59.175 -0.525
-57.825 59.625 -0.225
-57.825 60.075 2.175
-56.025 59.325 -0.525
-56.025 59.325 0.675
-56.025 59.325 2.175
-56.025 59.325 -0.675
-57.375 60.675 1.875
-57.375 60.675 -0.825
-55.875 59.775 1.725
-55.875 59.775 -0.675
-55.875 59.925 1.275
-55.875 59.925 -1.425
-56.775 60.825 4.575
-56.775 60.825 -0.825
-57.825 59.475 6.075
-56.025 60.375 0.525
-56.325 60.675 -0.075
-57.675 59.175 -0.225
-57.675 59.175 -0.675
-57.825 60.225 -0.375
-55.875 60.075 -0.075
-55.875 60.075 0.825
-55.875 60.075 -0.225
-55.875 59.475 0.075
-55.875 59.475 2.025
-57.225 60.825 -0.225
-57.225 60.825 -0.075
-57.225 60.825 1.875
-56.025 59.175 2.025
-57.825 59.325 -0.225
-57.525 60.675 2.025
-55.875 60.225 -0.375
-55.875 60.225 1.425
-55.875 60.225 -0.225
-56.475 60.825 0.525
-56.475 60.825 0.225
-56.925 58.725 0.525
-56.025 60.525 -0.675
-56.025 60.525 -2.325
-56.175 60.675 0.075
-55.875 59.325 0.525
-57.375 60.825 2.025
-56.625 58.725 -0.675
-57.675 59.025 1.275
-57.975 60.075 -0.075
-57.975 60.075 -3.525
-57.825 59.175 0.975
-55.725 59.775 -0.375
-56.925 60.975 -0.225
-55.725 59.925 -1.875
-56.025 59.025 0.975
-56.025 59.025 -0.225
-55.725 59.625 -3.375
-56.175 58.875 -0.225
-56.175 58.875 0.375
-56.175 58.875 -0.375
-55.725 60.075 0.225
-55.725 60.075 0.525
-56.625 60.975 -0.075
-56.625 60.975 0.225
-55.875 59.175 -0.675
-55.875 59.175 2.025
-57.525 60.825 2.175
-57.525 60.825 1.875
-55.725 59.475 -0.675
-55.725 59.475 -0.525
-55.725 59.475 2.025
-57.375 58.725 1.725
-57.225 60.975 -0.075
-56.025 60.675 0.375
-56.475 60.975 0.075
-55.875 60.525 2.925
-56.175 60.825 2.325
-56.325 58.725 -0.375
-57.975 60.375 -0.375
-57.975 60.375 -0.975
-57.975 60.375 0.675
-57.825 59.025 -0.825
-56.775 58.575 2.025
-58.125 59.925 -0.225
-55.725 59.325 -2.775
-56.025 58.875 -0.825
-56.025 58.875 0.825
-56.025 58.875 0.375
-58.125 60.075 0.075
-56.325 60.975 2.625
-56.325 60.975 -3.225
-55.875 59.025 -0.825
-55.875 59.025 1.725
-57.675 60.825 2.025
-57.675 60.825 2.175
-58.125 59.475 0.225
-56.175 58.725 0.675
-55.575 59.775 -0.525
-57.975 60.525 0.375
-57.975 60.525 0.675
-56.925 61.125 -0.675
-56.775 61.125 1.425
-58.125 60.225 -0.525
-58.125 60.225 -0.075
-56.025 60.825 -1.275
-56.025 60.825 2.175
-55.725 59.175 0.075
-55.725 59.175 -0.375
-55.725 59.175 -0.525
-55.725 59.175 1.875
-57.525 60.975 1.275
-57.525 60.975 -0.825
-55.575 60.075 1.425
-55.575 59.475 -0.375
-55.725 60.525 -0.675
-56.175 60.975 -0.225
-56.325 58.575 -0.375
-56.475 61.125 -0.225
-58.125 60.375 -0.675
-58.125 60.375 -0.075
-55.875 58.875 0.975
-55.875 58.875 0.825
-56.025 58.725 -0.675
-56.025 58.725 0.975
-56.025 58.725 0.375
-56.025 58.725 0.675
-56.025 58.725 -0.375
-56.025 58.725 -0.225
-57.375 61.125 -0.675
-57.375 61.125 0.525
-58.275 59.775 -0.375
-55.725 59.025 -0.225
-55.725 59.025 -0.525
-58.275 59.925 -0.225
-57.675 60.975 1.275
-57.675 60.975 0.675
-57.675 60.975 -0.075
-57.675 60.975 0.225
-58.125 59.175 0.375
-55.575 60.375 0.525
-58.125 60.525 0.975
-58.125 60.525 0.675
-55.725 60.675 -0.825
-56.025 60.975 -0.675
-57.825 58.725 1.875
-55.425 59.775 -0.675
-55.425 59.775 0.675
-56.475 58.425 -0.525
-55.575 59.175 2.325
-58.275 60.225 -0.525
-58.275 60.225 -0.075
-57.525 61.125 2.025
-57.525 61.125 0.075
-57.525 61.125 -0.075
-56.775 61.275 1.125
-57.075 61.275 3.375
-55.425 60.075 -0.375
-55.425 60.075 2.325
-55.575 60.525 -0.675
-55.575 60.525 0.975
-55.575 60.525 0.525
-56.175 61.125 0.825
-56.175 61.125 -3.375
-58.275 59.325 1.125
-55.875 58.725 0.675
-55.875 58.725 -0.825
-55.875 58.725 0.525
-57.975 60.825 -0.375
-55.725 58.875 -0.375
-55.725 58.875 2.025
-55.425 59.475 -0.525
-55.425 59.475 0.225
-55.425 59.475 -0.675
-57.825 60.975 -0.225
-57.825 60.975 1.125
-57.825 60.975 2.775
-57.225 61.275 -1.725
-58.275 60.375 0.525
-58.275 60.375 -0.225
-58.275 60.375 0.675
-55.425 60.225 1.275
-55.425 60.225 0.525
-56.475 61.275 0.225
-56.475 61.275 0.075
-56.025 58.575 0.225
-56.025 58.575 1.125
-55.575 59.025 -0.825
-55.425 59.325 -0.525
-55.425 59.325 -0.825
-55.425 59.325 3.675
-57.375 61.275 0.825
-57.375 61.275 -0.525
-58.425 59.775 -0.375
-56.775 58.275 -0.375
-58.425 59.925 -0.975
-55.425 60.375 -0.375
-55.425 60.375 0.375
-56.325 61.275 0.225
-55.575 60.675 0.525
-58.275 60.525 1.125
-58.275 60.525 0.525
-58.425 60.075 -0.225
-55.425 59.175 0.225
-55.725 58.725 0.525
-55.725 58.725 2.775
-55.725 58.725 -0.375
-55.725 58.725 0.675
-55.725 58.725 -0.075
-55.725 58.725 -0.675
-57.525 61.275 0.825
-57.525 61.275 -3.375
-55.875 58.575 -0.975
-55.875 58.575 1.275
-58.425 60.225 -0.225
-58.125 60.825 1.425
-56.925 61.425 1.725
-56.925 61.425 0.675
-55.275 59.925 1.275
-55.275 59.925 -0.825
-56.775 61.425 -0.375
-55.575 58.875 -0.525
-55.575 58.875 2.025
-55.575 58.875 -1.125
-57.825 61.125 1.875
-57.825 61.125 0.825
-57.825 61.125 -0.075
-55.425 60.525 2.175
-55.425 60.525 0.525
-55.275 59.625 -0.075
-55.275 59.625 0.225
-55.275 59.625 1.575
-56.175 61.275 0.225
-55.275 60.075 -0.375
-55.725 60.975 2.475
-55.725 60.975 -1.125
-56.025 58.425 -0.675
-55.275 59.475 -0.975
-55.575 60.825 -0.825
-58.425 60.375 0.525
-58.425 60.375 0.225
-58.425 60.375 0.075
-55.275 60.225 -1.575
-55.275 60.225 2.025
-56.475 61.425 1.425
-56.475 61.425 2.325
-55.425 59.025 -0.975
-55.425 59.025 1.725
-55.425 59.025 -0.525
-57.675 61.275 0.825
-57.675 61.275 -0.525
-57.975 58.575 0.375
-55.275 59.325 -0.525
-56.025 61.275 0.675
-57.825 58.425 2.175
-55.275 60.375 0.525
-55.275 60.375 -0.225
-55.725 58.575 0.525
-56.775 58.125 1.725
-58.425 60.525 1.125
-55.575 58.725 0.675
-55.575 58.725 2.025
-55.575 58.725 0.225
-55.575 58.725 0.525
-57.975 61.125 0.825
-57.975 61.125 -0.375
-57.975 61.125 0.525
-57.075 58.125 2.025
-55.875 58.425 2.175
-55.875 58.425 -0.825
-55.875 58.425 -0.225
-55.275 59.175 -0.825
-58.575 59.475 0.675
-57.825 61.275 0.825
-55.575 60.975 2.475
-55.725 61.125 0.075
-57.675 58.275 0.825
-58.425 59.025 1.725
-58.575 60.225 0.525
-55.275 60.525 0.525
-55.275 60.525 0.675
-55.125 59.925 -4.125
-55.425 60.825 0.075
-55.425 60.825 0.825
-55.425 60.825 0.975
-57.075 61.575 -0.675
-58.425 60.675 0.225
-58.575 59.325 1.425
-55.125 60.075 -0.975
-55.125 60.075 1.575
-56.625 61.575 1.875
-57.975 58.425 1.425
-55.125 59.475 0.975
-55.275 59.025 1.875
-57.225 61.575 1.425
-56.475 61.575 1.725
-55.575 58.575 -0.075
-55.575 58.575 0.675
-55.575 58.575 0.975
-55.575 58.575 2.025
-58.125 61.125 0.525
-55.725 58.425 0.525
-55.725 58.425 1.275
-55.725 58.425 0.375
-55.275 60.675 0.525
-55.275 60.675 0.375
-55.275 60.675 0.675
-56.025 61.425 1.875
-56.025 61.425 0.825
-55.125 59.325 -0.675
-55.125 59.325 0.375
-57.975 61.275 0.825
-57.975 61.275 0.225
-56.175 58.125 2.925
-55.125 60.375 0.825
-55.125 60.375 0.075
-55.125 60.375 -0.225
-56.325 61.575 0.825
-56.325 61.575 1.125
-55.875 58.275 0.075
-55.875 58.275 -0.825
-55.575 61.125 2.475
-58.425 60.825 -0.075
-56.775 57.975 1.425
-58.725 59.925 -0.225
-58.725 59.925 -1.275
-58.725 59.925 1.425
-55.425 60.975 0.975
-55.725 61.275 0.525
-55.275 58.875 1.875
-57.825 61.425 2.625
-57.825 61.425 0.825
-57.825 61.425 -3.675
-58.725 60.075 -0.675
-58.725 60.075 -0.525
-58.725 60.075 -1.125
-55.125 59.175 0.075
-55.125 59.175 0.375
-55.125 60.525 0.975
-56.175 61.575 1.575
-56.175 61.575 1.425
-55.275 60.825 0.375
-55.275 60.825 1.275
-55.275 60.825 0.825
-55.275 60.825 0.525
-55.275 60.825 1.725
-55.875 61.425 0.675
-55.875 61.425 1.725
-58.575 60.675 0.675
-58.575 60.675 0.225
-56.925 61.725 1.875
-55.575 58.425 0.375
-55.425 58.575 -0.075
-55.425 58.575 1.125
-57.075 61.725 2.175
-54.975 60.075 2.625
-54.975 60.075 0.975
-56.625 61.725 0.825
-56.625 61.725 -1.875
-56.625 61.725 0.675
-55.125 59.025 -0.825
-55.725 58.275 -0.825
-58.425 60.975 -0.075
-58.425 60.975 2.175
-55.275 58.725 -1.425
-55.275 58.725 -0.225
-55.275 58.725 -0.375
-54.975 60.225 0.375
-57.975 61.425 -0.675
-56.475 61.725 1.575
-56.475 61.725 -0.675
-56.475 61.725 1.125
-55.125 60.675 1.125
-56.025 61.575 1.875
-56.025 61.575 1.125
-56.025 61.575 1.275
-55.425 61.125 1.125
-55.425 61.125 0.675
-55.575 61.275 -0.075
-55.575 61.275 0.975
-55.575 61.275 -0.525
-57.375 61.725 -0.225
-55.875 58.125 -1.125
-58.575 60.825 0.225
-58.575 60.825 0.525
-55.275 60.975 1.125
-55.275 60.975 -0.075
-55.275 60.975 0.675
-55.725 61.425 0.675
-55.725 61.425 0.375
-55.725 61.425 1.575
-58.725 60.525 -0.225
-54.975 60.375 0.075
-56.325 61.725 1.125
-56.325 61.725 0.825
-55.125 58.875 -0.675
-55.125 58.875 -0.225
-56.625 57.825 1.125
-55.425 58.425 0.975
-55.425 58.425 0.825
-58.875 60.075 1.125
-58.275 61.275 -1.875
-58.275 61.275 -0.825
-55.125 60.825 2.775
-55.875 61.575 1.425
-55.875 61.575 0.825
-55.875 61.575 1.725
-55.875 61.575 1.275
-55.575 58.275 -1.275
-55.575 58.275 0.075
-54.975 60.525 1.125
-54.975 60.525 1.875
-55.275 58.575 -0.075
-55.275 58.575 -0.675
-55.275 58.575 2.025
-58.125 61.425 -3.825
-58.125 61.425 -0.225
-58.725 60.675 0.525
-58.725 60.675 0.075
-58.875 60.225 -0.375
-58.875 60.225 -0.675
-55.725 58.125 -0.225
-54.825 59.775 -0.075
-58.575 60.975 -0.075
-58.575 60.975 -0.375
-55.425 61.275 0.675
-55.425 61.275 1.725
-56.925 61.875 1.725
-56.925 61.875 2.925
-56.775 61.875 1.275
-56.775 61.875 1.425
-54.975 59.025 1.575
-57.075 61.875 1.575
-57.075 61.875 1.275
-57.075 61.875 0.975
-57.075 61.875 -0.525
-57.675 61.725 -0.525
-55.275 61.125 0.825
-55.125 58.725 -2.325
-55.125 58.725 -0.675
-54.825 60.075 1.275
-56.625 61.875 0.075
-56.625 61.875 1.275
-57.975 61.575 -2.775
-57.225 61.875 2.775
-57.225 61.875 2.025
-57.225 61.875 0.975
-54.975 60.675 0.975
-56.025 61.725 1.575
-56.025 61.725 -2.475
-56.025 61.725 1.875
-56.025 61.725 1.275
-56.025 61.725 1.425
-54.825 60.225 -0.075
-54.825 60.225 1.125
-54.825 60.225 0.675
-56.475 61.875 1.275
-56.475 61.875 1.125
-55.125 60.975 0.675
-55.125 60.975 1.275
-55.125 60.975 1.425
-55.125 60.975 0.975
-55.725 61.575 0.825
-55.725 61.575 1.125
-55.875 57.975 -0.525
-58.725 60.825 1.125
-58.725 60.825 0.975
-57.375 61.875 -0.825
-57.375 61.875 0.975
-56.175 57.825 -1.275
-55.425 58.275 -0.525
-55.425 58.275 -1.275
-55.425 58.275 -2.175
-55.425 58.275 0.375
-54.825 60.375 0.525
-54.825 60.375 0.825
-54.825 60.375 0.675
-56.325 61.875 1.125
-56.325 61.875 0.675
-57.825 61.725 2.625
-57.825 61.725 -0.375
-58.275 61.425 -0.525
-58.575 61.125 -0.375
-55.125 58.575 -0.375
-55.125 58.575 2.025
-55.125 58.575 -0.825
-54.975 60.825 0.375
-54.975 60.825 1.425
-54.825 59.175 1.725
-59.025 59.925 -0.675
-55.875 61.725 1.425
-55.875 61.725 0.525
-55.875 61.725 0.825
-58.125 61.575 2.475
-58.125 61.575 -0.375
-57.525 61.875 0.075
-57.075 57.675 1.875
-55.275 61.275 1.275
-55.275 61.275 -0.225
-55.425 61.425 1.575
-59.025 60.075 0.975
-59.025 60.075 -0.525
-54.825 60.525 0.525
-54.825 60.525 2.025
-54.825 60.525 0.825
-54.825 60.525 1.725
-54.825 60.525 0.975
-56.025 57.825 -1.425
-56.175 61.875 1.425
-56.175 61.875 -0.525
-58.875 60.675 0.525
-55.725 57.975 1.275
-55.725 57.975 1.575
-55.125 61.125 1.575
-55.125 61.125 1.725
-55.575 61.575 -1.875
-55.575 61.575 1.125
-54.975 58.725 0.525
-54.975 58.725 2.025
-54.975 58.725 -0.975
-57.975 61.725 -0.525
-54.825 59.025 1.575
-54.825 59.025 -0.825
-54.675 59.775 1.275
-57.675 61.875 0.375
-57.675 61.875 -0.525
-54.675 59.925 0.675
-54.675 59.925 -0.825
-54.675 59.925 1.425
-54.675 59.925 1.125
-56.925 62.025 0.525
-56.775 62.025 1.125
-54.675 59.625 -0.825
-57.075 62.025 1.425
-57.075 62.025 0.975
-57.075 62.025 1.575
-54.675 60.075 1.425
-54.675 60.075 0.825
-54.675 60.075 1.125
-56.625 62.025 0.825
-56.625 62.025 0.675
-56.625 62.025 0.225
-59.025 60.375 -0.525
-54.825 60.675 0.675
-54.825 60.675 1.575
-54.825 60.675 0.975
-54.825 60.675 0.825
-54.825 60.675 3.375
-54.825 60.675 1.275
-54.825 60.675 1.875
-54.975 60.975 1.125
-54.975 60.975 0.675
-54.975 60.975 0.975
-55.275 58.275 0.075
-55.275 58.275 0.525
-58.725 58.575 0.975
-57.225 62.025 1.425
-57.225 62.025 1.125
-55.425 58.125 0.375
-55.425 58.125 -0.675
-55.875 57.825 -0.225
-54.675 60.225 0.975
-54.675 60.225 1.575
-55.125 58.425 -0.675
-55.125 58.425 2.025
-55.125 58.425 0.675
-56.475 62.025 1.425
-56.475 62.025 0.825
-54.675 59.325 -0.825
-55.575 57.975 1.125
-55.575 57.975 0.975
-54.825 58.875 -0.675
-54.825 58.875 1.275
-54.825 58.875 1.425
-54.825 58.875 0.075
-57.375 62.025 0.825
-59.025 60.525 -0.225
-58.725 61.125 -0.675
-58.725 61.125 -0.075
-57.825 61.875 -0.225
-57.825 61.875 -0.375
-55.275 61.425 -0.075
-54.675 60.375 1.425
-54.675 60.375 2.625
-56.325 62.025 -0.075
-56.325 62.025 1.425
-54.975 58.575 1.425
-55.125 61.275 1.575
-55.125 61.275 0.825
-55.425 61.575 2.025
-55.425 61.575 1.425
-58.125 61.725 1.725
-58.125 61.725 2.175
-58.125 61.725 2.475
-58.125 61.725 -1.425
-58.125 61.725 1.875
-54.825 60.825 0.825
-54.825 60.825 1.575
-54.825 60.825 0.375
-59.025 59.025 -0.225
-54.675 59.175 -0.825
-56.925 57.525 2.175
-56.775 57.525 0.825
-59.175 59.925 -0.675
-55.725 57.825 -0.525
-54.975 61.125 -0.375
-54.975 61.125 0.225
-58.875 60.975 -0.525
-54.675 60.525 1.725
-54.675 60.525 2.775
-54.675 60.525 1.575
-59.025 60.675 -0.375
-56.175 62.025 1.275
-59.175 59.475 0.675
-54.825 58.725 -0.975
-55.275 58.125 0.525
-55.275 58.125 -0.075
-55.275 58.125 0.375
-55.125 58.275 0.525
-58.575 61.425 -0.525
-58.425 61.575 -0.525
-54.675 59.025 1.575
-55.425 57.975 0.675
-54.525 59.775 1.575
-58.725 61.275 -0.675
-58.725 61.275 -0.075
-54.525 59.925 1.125
-54.825 60.975 0.825
-54.825 60.975 1.125
-54.825 60.975 1.875
-54.825 60.975 1.275
-58.125 57.825 1.875
-56.925 62.175 0.825
-56.925 62.175 0.225
-58.875 58.575 0.975
-54.975 58.425 0.975
-54.675 60.675 0.825
-57.075 62.175 0.825
-57.075 62.175 3.225
-57.075 62.175 1.725
-56.025 62.025 1.275
-56.025 62.025 0.375
-54.525 60.075 1.275
-54.525 60.075 1.875
-59.025 60.825 -0.075
-55.125 61.425 1.275
-55.275 61.575 1.875
-54.525 59.475 -1.125
-57.225 62.175 1.125
-57.225 62.175 0.975
-57.225 62.175 1.725
-57.225 62.175 1.575
-55.575 57.825 0.225
-55.575 57.825 1.875
-55.575 57.825 0.525
-54.525 60.225 0.525
-54.525 60.225 0.675
-54.975 61.275 -0.075
-54.975 61.275 0.675
-54.975 61.275 2.175
-55.425 61.725 2.025
-55.425 61.725 1.275
-55.425 61.725 0.225
-55.425 61.725 2.325
-54.675 58.875 1.425
-54.675 58.875 -0.075
-54.675 58.875 -0.675
-54.675 58.875 1.575
-54.825 58.575 0.975
-57.375 62.175 0.975
-57.375 62.175 -1.125
-58.725 58.275 0.525
-54.525 60.375 2.025
-54.525 60.375 2.175
-54.525 60.375 0.975
-56.325 62.175 1.125
-54.675 60.825 1.725
-54.675 60.825 1.125
-54.675 60.825 1.275
-54.675 60.825 0.675
-54.675 60.825 0.525
-54.675 60.825 2.325
-54.825 61.125 0.075
-55.575 61.875 1.425
-55.575 61.875 -0.225
-55.725 57.675 -0.525
-58.875 58.425 0.675
-55.125 58.125 0.825
-55.125 58.125 0.975
-57.525 62.175 -0.225
-55.275 57.975 -0.075
-55.275 57.975 -0.675
-55.275 57.975 0.375
-56.025 57.525 0.675
-59.325 59.775 -5.175
-59.175 60.675 -0.075
-59.175 60.675 1.275
-59.175 60.675 -0.225
-54.525 60.525 1.275
-54.525 60.525 0.825
-54.525 60.525 2.625
-56.175 62.175 0.975
-56.175 62.175 1.125
-59.325 59.625 0.675
-56.625 57.375 1.125
-55.425 57.825 0.525
-56.475 57.375 -1.425
-56.475 57.375 1.725
-55.125 61.575 1.425
-55.125 61.575 0.825
-54.825 58.425 -0.375
-54.525 59.025 -0.825
-57.825 57.525 1.725
-54.675 60.975 0.825
-54.675 60.975 1.425
-54.975 61.425 0.975
-54.975 61.425 0.375
-54.975 61.425 1.275
-55.275 61.725 1.725
-59.325 59.325 1.275
-54.525 60.675 1.275
-54.375 59.775 0.975
-56.025 62.175 1.425
-54.375 59.925 1.125
-54.375 59.925 0.975
-54.375 59.925 1.575
-56.925 62.325 0.975
-56.775 62.325 1.125
-59.175 60.825 -0.525
-59.175 60.825 1.575
-58.725 58.125 0.825
-58.725 58.125 0.375
-54.375 59.625 1.725
-54.375 59.625 1.125
-54.375 59.625 1.575
-59.325 60.375 -0.825
-57.075 62.325 0.975
-57.075 62.325 2.325
-59.025 61.125 -0.075
-59.025 61.125 0.675
-54.375 60.075 1.125
-54.375 60.075 1.425
-54.825 61.275 1.725
-54.825 61.275 0.375
-55.425 61.875 1.125
-56.625 62.325 1.425
-56.625 62.325 1.575
-57.225 62.325 1.725
-57.225 62.325 0.825
-54.675 58.575 1.575
-58.125 62.025 1.575
-54.375 60.225 1.575
-54.375 60.225 1.125
-54.525 58.875 0.375
-56.475 62.325 2.025
-57.825 62.175 1.275
-57.825 62.175 1.425
-56.175 57.375 0.225
-55.125 57.975 0.375
-57.975 57.525 1.725
-59.175 58.725 0.375
-54.975 58.125 -0.525
-54.975 58.125 -0.375
-58.725 61.575 -0.225
-58.575 61.725 2.175
-58.575 61.725 -0.375
-57.375 62.325 0.975
-57.375 62.325 1.425
-54.525 60.825 1.125
-54.525 60.825 1.575
-54.525 60.825 1.275
-55.875 62.175 1.575
-55.875 62.175 1.275
-55.875 62.175 0.525
-54.675 61.125 1.425
-55.275 57.825 -0.075
-55.275 57.825 0.525
-55.575 62.025 1.125
-55.575 62.025 1.425
-54.375 60.375 1.875
-54.375 60.375 1.125
-55.725 57.525 -0.975
-55.725 57.525 -0.675
-55.725 57.525 -0.375
-58.425 61.875 -3.375
-58.425 61.875 1.275
-57.525 62.325 1.425
-54.975 61.575 1.575
-56.025 57.375 -0.075
-55.425 57.675 0.975
-55.425 57.675 1.125
-54.525 58.725 1.725
-54.525 58.725 -0.825
-59.025 61.275 0.225
-59.025 61.275 0.525
-59.025 61.275 -0.825
-59.025 61.275 -0.675
-54.375 60.525 1.275
-56.175 62.325 1.125
-59.475 59.925 1.425
-59.475 59.925 -1.875
-54.825 61.425 1.875
-58.275 62.025 -0.975
-58.125 57.525 1.425
-54.525 60.975 1.425
-55.725 62.175 0.975
-58.875 58.125 0.525
-57.825 57.375 2.325
-54.375 59.025 1.875
-56.475 57.225 0.825
-56.475 57.225 1.875
-56.475 57.225 1.275
-57.675 62.325 1.725
-57.675 62.325 1.275
-57.675 62.325 1.575
-59.475 60.225 0.225
-59.475 60.225 1.575
-55.425 62.025 0.675
-55.425 62.025 0.975
-55.425 62.025 1.125
-55.575 57.525 -0.525
-55.575 57.525 -0.225
-55.575 57.525 0.825
-59.175 61.125 0.975
-59.175 61.125 0.525
-54.375 60.675 0.675
-54.375 60.675 2.175
-56.025 62.325 0.975
-59.475 59.325 0.825
-59.325 60.825 0.075
-59.025 58.275 0.525
-54.975 57.975 -0.525
-54.975 57.975 0.075
-54.975 57.975 0.525
-54.975 57.975 0.975
-54.225 59.775 1.275
-54.225 59.775 1.125
-54.225 59.775 1.725
-54.225 59.775 0.975
-56.925 62.475 1.275
-56.925 62.475 -0.075
-55.125 57.825 -0.975
-55.125 57.825 0.525
-55.125 57.825 0.375
-56.775 62.475 1.425
-56.775 62.475 0.225
-56.775 62.475 0.375
-56.775 62.475 1.275
-59.475 60.375 -0.975
-54.225 59.625 1.125
-54.225 59.625 1.275
-54.225 59.625 0.825
-54.225 59.625 1.425
-58.875 61.575 -0.525
-58.875 61.575 -0.825
-54.525 58.575 0.825
-54.525 58.575 -0.675
-57.075 62.475 0.825
-57.075 62.475 1.425
-54.225 60.075 1.425
-58.575 61.875 1.125
-56.625 62.475 0.675
-56.625 62.475 0.225
-56.625 62.475 0.825
-56.625 62.475 1.125
-57.225 62.475 0.825
-57.225 62.475 1.575
-55.275 57.675 0.525
-57.825 62.325 0.225
-59.325 58.725 1.275
-56.475 62.475 2.175
-56.475 62.475 1.425
-56.475 62.475 0.225
-58.275 57.525 2.175
-58.275 57.525 1.275
-54.525 61.125 1.125
-54.975 61.725 0.525
-58.425 62.025 2.625
-54.375 60.825 1.275
-55.875 62.325 1.725
-54.225 59.325 1.575
-55.125 61.875 1.125
-57.375 62.475 -0.375
-57.375 62.475 1.425
-57.375 62.475 0.675
-57.375 62.475 1.875
-55.725 57.375 2.025
-55.725 57.375 -0.375
-59.325 60.975 1.425
-59.325 60.975 0.975
-59.325 60.975 0.525
-56.325 62.475 1.425
-56.325 62.475 1.275
-56.325 62.475 1.575
-56.325 62.475 2.025
-57.675 57.225 2.025
-55.425 57.525 0.525
-59.475 59.025 0.375
-59.475 59.025 0.975
-59.475 59.025 0.525
-59.175 61.275 1.575
-58.875 57.975 0.675
-54.675 61.425 1.575
-54.675 61.425 0.825
-54.675 61.425 2.175
-54.675 61.425 2.025
-55.275 62.025 0.525
-54.225 59.175 -1.125
-54.525 58.425 1.725
-58.275 62.175 0.675
-54.225 60.525 1.575
-56.175 62.475 1.275
-56.175 62.475 1.875
-58.125 57.375 1.875
-59.325 58.575 1.425
-59.625 59.925 2.625
-54.375 60.975 1.425
-59.625 59.625 1.275
-55.725 62.325 1.275
-54.975 57.825 0.375
-54.975 57.825 -0.075
-54.825 57.975 0.075
-54.825 57.975 -0.675
-54.825 57.975 -0.525
-54.825 57.975 -0.825
-58.725 61.875 0.525
-58.725 61.875 0.675
-58.725 61.875 0.075
-57.825 57.225 0.675
-57.825 57.225 1.725
-57.825 57.225 1.275
-54.525 61.275 3.225
-55.425 62.175 0.975
-57.225 57.075 1.275
-55.125 57.675 0.525
-55.575 57.375 1.575
-57.675 62.475 1.425
-59.025 61.575 -0.675
-59.325 61.125 -0.525
-59.325 61.125 1.125
-56.475 57.075 1.425
-59.625 60.225 -0.525
-54.675 58.125 1.725
-55.875 57.225 -0.675
-58.575 62.025 1.275
-58.575 62.025 0.675
-58.575 62.025 -1.275
-54.225 60.675 0.975
-54.225 60.675 1.575
-59.475 60.825 0.975
-59.475 60.825 0.525
-56.025 62.475 1.575
-54.375 58.575 1.425
-54.375 58.575 1.575
-54.375 58.575 0.975
-54.825 61.725 1.425
-55.275 57.525 0.675
-55.275 57.525 -0.525
-55.275 57.525 0.975
-54.075 59.775 1.725
-54.075 59.775 1.125
-54.075 59.775 1.575
-54.075 59.775 0.825
-54.075 59.925 0.975
-56.925 62.625 0.975
-56.925 62.625 -0.225
-54.075 59.625 1.875
-54.075 59.625 1.425
-54.075 59.625 0.525
-57.075 62.625 -0.075
-57.075 62.625 1.275
-54.075 60.075 1.425
-54.525 58.275 0.525
-55.125 62.025 1.575
-56.625 62.625 -0.225
-56.625 62.625 0.825
-58.275 57.375 1.275
-58.275 57.375 1.425
-58.425 62.175 -0.525
-58.425 62.175 0.675
-57.825 62.475 1.875
-57.975 57.225 0.525
-57.975 57.225 2.025
-57.975 57.225 1.425
-59.475 58.725 0.975
-54.375 61.125 2.325
-55.575 62.325 0.825
-54.075 59.475 1.875
-54.075 59.475 1.275
-59.625 59.175 0.825
-59.625 59.175 0.525
-59.625 59.175 0.675
-58.875 57.825 3.225
-57.225 62.625 1.125
-56.475 62.625 2.925
-56.475 62.625 0.675
-55.875 62.475 1.425
-55.875 62.475 0.975
-59.475 60.975 0.525
-59.475 60.975 -0.525
-55.425 57.375 0.075
-54.525 61.425 1.575
-55.275 62.175 1.125
-55.275 62.175 0.225
-55.275 62.175 1.275
-54.075 60.375 1.125
-59.175 58.125 0.525
-59.175 58.125 0.675
-57.675 57.075 1.875
-59.625 59.025 0.975
-59.625 59.025 0.675
-54.825 57.825 0.525
-54.825 57.825 0.975
-54.375 58.425 1.425
-54.375 58.425 -0.525
-58.875 61.875 0.675
-58.875 61.875 0.375
-58.875 61.875 2.325
-54.975 57.675 1.575
-54.975 57.675 0.525
-54.975 57.675 -0.675
-54.075 59.175 1.425
-54.075 59.175 1.725
-54.075 59.175 1.125
-58.725 62.025 0.675
-57.525 62.625 2.175
-59.625 60.675 3.225
-58.125 57.225 0.675
-55.125 57.525 -0.975
-55.125 57.525 -0.075
-55.125 57.525 -0.375
-56.175 62.625 1.725
-59.175 61.575 -0.975
-54.225 60.975 1.275
-54.375 61.275 1.875
-54.375 61.275 2.175
-56.775 56.925 1.125
-59.775 59.775 0.225
-54.525 58.125 -0.525
-54.525 58.125 2.025
-54.525 58.125 2.325
-59.775 59.925 -2.175
-59.775 59.925 0.825
-58.575 62.175 2.175
-58.575 62.175 -0.525
-58.575 62.175 -2.475
-54.825 61.875 2.325
-59.775 59.625 -0.525
-59.775 59.625 0.525
-59.625 58.875 1.425
-56.625 56.925 1.275
-59.475 61.125 1.125
-54.975 62.025 2.025
-57.675 62.625 -0.375
-57.675 62.625 0.225
-59.775 59.475 1.725
-55.275 57.375 0.225
-55.275 57.375 0.525
-56.475 56.925 1.425
-59.625 60.825 0.825
-59.775 60.225 3.075
-59.325 61.425 -0.525
-54.075 60.675 1.875
-55.125 62.175 1.275
-58.425 62.325 0.075
-59.175 57.975 1.575
-59.175 57.975 -1.425
-53.925 59.775 1.725
-53.925 59.775 2.175
-53.925 59.775 1.425
-53.925 59.925 1.125
-53.925 59.925 1.275
-56.925 62.775 0.975
-56.775 62.775 0.675
-56.775 62.775 2.475
-56.775 62.775 0.825
-57.975 57.075 0.975
-59.625 58.725 0.375
-57.825 62.625 2.025
-57.075 62.775 1.725
-56.625 62.775 2.175
-57.525 56.925 1.725
-54.825 57.675 0.825
-54.825 57.675 0.375
-54.825 57.675 0.975
-54.825 57.675 -0.225
-59.775 59.175 0.975
-53.925 59.475 1.425
-53.925 59.475 0.675
-57.225 62.775 0.975
-58.875 62.025 1.125
-58.875 62.025 1.275
-58.875 62.025 0.825
-54.075 60.825 1.425
-55.875 62.625 3.675
-55.725 57.075 -0.675
-59.475 61.275 -0.525
-59.475 61.275 -0.675
-53.925 60.225 0.825
-59.625 60.975 -0.225
-59.625 60.975 -0.675
-54.975 57.525 0.075
-56.475 62.775 2.625
-56.475 62.775 2.325
-59.775 60.525 -0.675
-59.175 61.725 -0.675
-59.175 61.725 -0.825
-53.925 59.325 1.575
-53.925 59.325 1.275
-53.925 59.325 0.675
-57.375 62.775 1.125
-58.275 62.475 1.875
-53.925 60.375 2.025
-56.325 62.775 2.625
-59.775 59.025 -2.025
-59.775 59.025 2.025
-55.125 57.375 -0.225
-55.125 57.375 0.525
-54.675 61.875 1.125
-54.825 62.025 1.575
-57.975 62.625 1.275
-59.325 61.575 -0.525
-58.125 57.075 0.375
-59.625 58.575 0.675
-53.925 59.175 1.425
-53.925 59.175 0.375
-54.375 58.125 -0.225
-54.375 58.125 1.875
-57.525 62.775 1.275
-55.425 62.475 1.575
-55.425 62.475 1.425
-58.575 62.325 0.675
-54.975 62.175 1.425
-56.925 56.775 1.425
-57.825 56.925 0.975
-56.775 56.775 0.825
-56.775 56.775 0.675
-59.775 58.875 0.825
-55.275 57.225 0.075
-57.075 56.775 1.425
-59.475 61.425 -0.675
-59.475 61.425 -1.275
-59.925 59.625 0.375
-56.625 56.775 0.825
-56.625 56.775 0.975
-53.925 59.025 -0.525
-53.925 59.025 2.175
-59.925 60.075 0.225
-57.675 62.775 0.075
-57.225 56.775 2.175
-54.075 58.575 1.725
-54.075 58.575 1.125
-59.775 60.825 -1.125
-54.225 58.275 -0.075
-58.125 62.625 1.725
-56.475 56.775 1.575
-56.475 56.775 0.225
-58.425 62.475 -0.075
-54.675 57.675 0.225
-54.675 57.675 0.525
-59.025 62.025 2.025
-54.825 57.525 0.075
-54.825 57.525 0.825
-59.175 61.875 -0.825
-59.175 61.875 0.225
-54.525 57.825 0.375
-57.375 56.775 2.325
-58.875 62.175 0.675
-59.925 60.375 -0.375
-53.775 59.775 1.875
-53.775 59.775 0.825
-53.775 59.775 1.275
-53.775 59.775 3.525
-57.825 62.775 1.425
-57.825 62.775 1.875
-56.925 62.925 0.525
-56.775 62.925 0.975
-53.775 59.625 1.575
-53.775 59.625 1.275
-53.775 59.625 1.125
-54.375 57.975 -0.225
-57.075 62.925 1.725
-57.075 62.925 0.825
-57.075 62.925 1.425
-53.775 60.075 1.425
-58.725 62.325 0.675
-57.525 56.775 2.175
-59.925 59.175 1.575
-59.925 59.175 0.525
-59.925 59.175 0.975
-55.725 56.925 -0.525
-53.925 60.825 1.275
-59.775 60.975 -0.825
-53.775 59.475 0.975
-53.775 59.475 3.075
-54.525 61.875 0.975
-54.825 62.175 2.025
-57.225 62.925 1.125
-57.225 62.925 0.975
-57.225 62.925 2.325
-53.775 60.225 1.875
-55.125 57.225 -0.075
-55.125 57.225 0.975
-58.275 62.625 -0.525
-58.275 62.625 1.575
-59.475 61.575 -0.525
-59.475 61.575 -0.225
-53.775 59.325 2.175
-53.775 59.325 0.675
-57.375 62.925 1.575
-57.375 62.925 1.125
-59.025 57.525 1.125
-54.225 58.125 1.725
-54.225 58.125 0.825
-58.575 62.475 -0.075
-58.575 62.475 -0.375
-59.925 60.675 0.075
-53.775 59.175 1.575
-55.575 56.925 -0.825
-59.775 61.125 -0.375
-54.675 57.525 0.225
-54.675 57.525 -0.375
-54.675 57.525 0.525
-54.525 57.675 0.525
-59.175 62.025 0.675
-59.025 62.175 2.025
-59.025 62.175 0.975
-59.025 62.175 0.675
-54.825 57.375 0.525
-59.325 61.875 -0.675
-56.925 56.625 2.475
-56.925 56.625 0.675
-56.925 56.625 0.825
-56.775 56.625 0.825
-54.075 58.275 -0.375
-54.075 58.275 1.575
-54.375 57.825 -0.225
-57.075 56.625 0.825
-58.425 62.625 0.075
-53.925 58.575 1.725
-58.875 62.325 0.675
-58.875 62.325 0.375
-58.875 62.325 0.225
-60.075 59.625 0.675
-60.075 59.625 1.125
-60.075 59.625 0.375
-60.075 59.625 3.375
-60.075 59.625 -0.225
-55.875 56.775 -0.525
-55.875 56.775 -0.225
-58.125 62.775 0.975
-58.125 62.775 0.825
-59.925 60.825 0.375
-59.925 60.825 1.725
-57.225 56.625 1.875
-59.775 58.425 1.425
-60.075 59.475 0.825
-54.975 57.225 0.525
-56.475 56.625 1.125
-54.525 62.025 0.825
-58.725 62.475 -0.075
-58.725 62.475 -0.225
-60.075 59.325 0.825
-55.425 56.925 -0.075
-53.775 58.875 1.425
-53.625 59.925 0.825
-53.625 59.925 1.875
-56.925 63.075 1.425
-55.125 57.075 -0.525
-55.125 57.075 0.975
-53.625 59.625 1.725
-53.625 59.625 0.825
-53.625 59.625 1.275
-53.625 59.625 0.975
-59.925 60.975 0.975
-59.925 60.975 0.675
-59.925 60.975 0.525
-57.075 63.075 0.525
-57.075 63.075 1.275
-59.625 61.575 0.675
-59.625 61.575 -0.675
-59.625 61.575 -0.225
-53.625 60.075 1.425
-53.625 60.075 1.575
-53.625 60.075 1.125
-60.075 59.175 1.125
-56.625 63.075 1.425
-58.275 62.775 1.125
-57.225 63.075 1.125
-54.075 58.125 1.575
-60.075 60.525 0.075
-58.575 62.625 0.225
-56.475 63.075 2.175
-54.525 57.525 -1.275
-59.175 62.175 0.825
-59.175 62.175 0.375
-54.675 57.375 -0.225
-54.675 57.375 -0.825
-54.675 57.375 0.825
-57.375 63.075 2.025
-57.975 62.925 1.425
-57.975 62.925 1.575
-57.975 62.925 4.125
-57.975 62.925 3.075
-57.975 62.925 -0.075
-59.325 62.025 0.225
-54.375 57.675 0.075
-60.075 59.025 2.025
-56.025 56.625 2.025
-56.025 56.625 5.775
-54.825 57.225 0.525
-60.075 60.675 1.425
-60.075 60.675 -1.425
-59.475 61.875 -0.675
-59.775 61.425 0.075
-53.625 59.175 2.175
-53.625 59.175 1.125
-53.625 59.175 1.275
-58.425 62.775 -0.975
-60.075 58.875 2.175
-54.975 57.075 -0.975
-59.625 61.725 0.375
-59.625 61.725 0.675
-53.625 59.025 1.425
-53.625 59.025 1.275
-60.225 59.775 1.125
-55.875 56.625 0.675
-55.875 56.625 -0.525
-60.225 59.925 0.375
-57.675 63.075 0.525
-57.075 56.475 2.025
-57.075 56.475 2.475
-57.075 56.475 1.575
-60.075 60.825 0.375
-60.075 60.825 -1.275
-60.225 59.625 0.675
-60.225 59.625 1.125
-60.225 59.625 0.375
-54.075 57.975 -1.125
-54.075 57.975 1.575
-56.625 56.475 0.825
-56.625 56.475 1.275
-57.225 56.475 2.325
-57.225 56.475 0.975
-60.225 59.475 0.675
-56.475 56.475 2.925
-60.225 60.225 1.275
-60.225 60.225 0.975
-59.925 61.275 0.075
-55.125 56.925 -0.525
-60.225 59.325 1.425
-53.625 58.875 1.575
-53.625 58.875 1.875
-53.625 58.875 0.975
-59.775 61.575 0.075
-59.775 61.575 0.675
-59.775 61.575 0.975
-57.825 63.075 1.425
-56.325 56.475 1.125
-54.525 57.375 0.975
-60.225 60.375 -0.375
-59.325 62.175 0.825
-55.725 56.625 -0.525
-59.175 62.325 -0.075
-60.075 60.975 -0.675
-53.475 59.925 1.875
-54.675 57.225 0.525
-53.925 58.125 1.275
-56.925 63.225 1.125
-53.475 59.625 1.575
-59.475 62.025 -0.675
-57.075 63.225 1.875
-57.075 63.225 0.675
-60.225 59.175 0.675
-60.225 59.175 1.725
-60.225 59.175 2.625
-53.475 60.075 1.425
-54.225 57.675 -0.075
-54.225 57.675 -0.525
-53.475 59.475 2.025
-53.625 58.725 1.425
-53.625 58.725 1.875
-53.625 58.725 1.725
-59.625 61.875 -0.525
-60.075 58.575 0.675
-53.475 59.325 1.425
-54.075 57.825 -0.825
-57.375 63.225 1.125
-55.275 56.775 -0.375
-59.925 61.425 -0.525
-59.925 61.425 0.525
-56.325 63.225 2.775
-56.025 56.475 0.825
-60.075 61.125 -0.825
-53.475 59.175 1.725
-53.475 59.175 2.175
-54.975 56.925 0.225
-57.525 63.225 0.825
-57.525 63.225 1.125
-57.525 63.225 2.175
-59.775 61.725 -0.525
-58.725 62.775 -0.975
-55.875 56.475 1.725
-60.225 60.825 0.825
-56.925 56.325 1.725
-57.675 63.225 1.125
-57.675 63.225 2.175
-56.775 56.325 2.625
-56.775 56.325 0.975
-56.775 56.325 0.825
-60.375 59.775 1.125
-59.325 62.325 -0.975
-59.325 62.325 -4.725
-54.525 57.225 0.975
-54.525 57.225 0.525
-60.375 59.625 1.425
-60.375 59.625 1.575
-60.375 59.625 0.375
-59.475 62.175 -0.825
-59.175 62.475 1.125
-59.175 62.475 4.575
-60.075 61.275 0.675
-55.125 56.775 0.525
-60.375 59.475 0.525
-60.375 59.475 1.425
-59.925 61.575 1.125
-59.625 62.025 -0.525
-54.075 57.675 -0.375
-53.475 58.875 0.825
-53.475 58.875 2.475
-60.375 59.325 1.425
-60.375 59.325 2.625
-60.375 59.325 0.825
-57.825 63.225 1.275
-58.575 62.925 -0.375
-58.575 62.925 -0.825
-55.725 56.475 1.425
-55.725 56.475 -1.575
-54.525 62.475 0.525
-54.825 56.925 0.675
-53.325 59.775 1.575
-53.325 59.925 0.225
-60.375 59.175 1.425
-60.375 59.175 1.725
-53.925 57.825 1.425
-53.925 57.825 1.125
-53.925 57.825 1.725
-56.175 56.325 0.825
-53.325 59.475 1.275
-53.325 59.475 1.575
-60.375 60.525 1.575
-57.225 63.375 2.175
-57.225 63.375 0.975
-53.475 58.725 0.675
-53.475 58.725 1.425
-60.075 61.425 -0.675
-60.075 61.425 0.525
-53.325 59.325 1.425
-57.675 56.325 0.825
-57.375 63.375 0.825
-57.375 63.375 0.675
-57.375 63.375 1.275
-57.375 63.375 0.075
-54.975 56.775 0.525
-60.225 61.125 -0.225
-58.425 63.075 0.675
-58.425 63.075 1.125
-54.375 57.225 0.975
-59.475 62.325 0.975
-53.775 57.975 0.375
-53.325 59.175 1.875
-58.725 62.925 0.075
-58.725 62.925 -0.375
-54.525 57.075 0.525
-54.075 57.525 -0.225
-53.625 61.425 -3.075
-58.125 63.225 -0.075
-58.275 56.475 0.225
-58.275 56.475 -0.075
-60.225 58.425 2.025
-55.875 56.325 1.125
-57.675 63.375 2.175
-57.675 63.375 1.425
-57.675 63.375 1.275
-55.125 56.625 -0.675
-56.925 56.175 2.325
-56.925 56.175 1.125
-56.925 56.175 0.675
-56.925 56.175 2.025
-54.375 62.475 1.575
-56.775 56.175 0.225
-56.775 56.175 2.475
-60.075 61.575 1.125
-60.525 59.775 2.925
-60.525 59.925 1.275
-60.525 59.925 1.425
-60.525 59.925 0.675
-60.225 61.275 -0.525
-60.225 61.275 -0.225
-57.075 56.175 1.875
-60.525 59.625 1.725
-60.525 59.625 1.275
-56.625 56.175 2.175
-60.525 59.475 1.425
-56.475 56.175 0.825
-58.575 63.075 -0.075
-54.825 56.775 0.525
-53.325 58.875 0.525
-59.925 61.875 -0.375
-55.725 56.325 -0.075
-60.525 59.325 1.875
-53.775 57.825 -1.125
-53.775 57.825 1.575
-60.525 60.375 0.675
-60.525 60.375 -0.975
-53.325 60.825 -3.225
-58.875 62.925 -0.975
-58.875 62.925 -1.125
-60.525 59.175 2.625
-60.525 59.175 1.725
-60.525 59.175 1.575
-57.075 63.525 0.375
-55.275 56.475 -0.675
-54.225 57.225 -0.975
-59.475 62.475 1.125
-54.375 57.075 0.525
-53.325 58.725 0.525
-53.175 59.475 1.125
-53.175 59.475 1.725
-53.175 59.475 1.575
-59.625 62.325 -0.525
-54.975 56.625 1.275
-54.975 56.625 0.225
-54.075 57.375 -0.075
-54.075 57.375 -0.825
-54.075 57.375 0.675
-57.225 63.525 0.525
-60.075 61.725 -0.525
-59.325 62.625 0.525
-59.325 62.625 -0.525
-54.525 56.925 0.075
-54.525 56.925 -0.075
-60.375 61.125 0.375
-57.375 63.525 1.875
-57.375 63.525 2.025
-53.625 57.975 1.575
-53.925 57.525 1.875
-58.425 63.225 1.575
-59.175 62.775 0.675
-53.175 59.175 1.875
-54.675 56.775 0.975
-54.675 56.775 0.525
-57.525 63.525 1.425
-57.525 63.525 0.975
-57.525 63.525 2.175
-53.325 58.575 0.675
-53.325 58.575 1.725
-60.525 58.875 1.575
-56.175 63.525 2.625
-53.775 57.675 0.675
-55.125 56.475 0.675
-55.875 56.175 1.125
-55.425 56.325 -0.825
-55.425 56.325 -1.125
-53.175 59.025 2.325
-60.375 61.275 0.675
-57.675 63.525 0.675
-57.675 63.525 1.725
-57.675 63.525 0.975
-56.925 56.025 2.175
-56.775 56.025 1.725
-56.775 56.025 1.425
-54.825 56.625 -0.075
-60.675 59.775 0.975
-60.675 59.925 0.975
-60.675 59.925 1.575
-60.675 59.925 2.925
-60.675 59.925 1.875
-60.675 59.925 1.725
-56.025 63.525 1.575
-60.675 59.625 1.725
-56.625 56.025 1.725
-58.575 63.225 0.075
-60.675 60.075 2.475
-57.225 56.025 1.425
-60.675 59.475 1.875
-60.675 59.475 -0.825
-53.625 57.825 0.975
-53.325 58.425 -1.125
-54.225 57.075 0.225
-54.225 57.075 0.525
-54.225 57.075 -0.075
-54.225 57.075 -0.825
-58.875 63.075 -0.975
-58.875 63.075 -0.525
-60.675 60.225 1.125
-60.675 60.225 0.975
-53.175 58.875 2.625
-59.625 62.475 0.675
-59.475 62.625 -0.225
-59.475 62.625 0.525
-54.375 56.925 0.525
-54.375 56.925 0.075
-54.375 56.925 1.275
-54.375 56.925 -0.225
-60.525 60.975 2.025
-60.525 60.975 1.875
-59.775 62.325 0.675
-60.675 59.325 2.025
-53.925 57.375 -0.675
-53.925 57.375 0.375
-53.925 57.375 -0.975
-56.325 56.025 0.975
-59.325 62.775 1.875
-60.675 60.375 0.675
-54.525 56.775 -0.225
-54.525 56.775 1.125
-54.525 56.775 0.525
-54.525 56.775 -0.975
-54.975 56.475 -0.525
-57.075 63.675 0.675
-56.175 56.025 0.525
-56.175 56.025 0.675
-53.175 58.725 0.975
-60.675 60.525 0.525
-57.225 63.675 1.725
-53.475 57.975 -0.825
-55.575 56.175 0.825
-58.725 63.225 2.775
-60.525 61.125 1.725
-58.425 63.375 -0.075
-57.675 56.025 0.975
-54.675 56.625 0.975
-60.075 62.025 -0.225
-57.375 63.675 0.975
-57.375 63.675 0.825
-60.675 60.675 1.725
-53.625 57.675 0.825
-53.025 59.175 1.875
-53.175 58.575 0.825
-53.175 58.575 1.125
-57.525 63.675 0.975
-57.525 63.675 1.425
-58.125 63.525 0.525
-55.125 56.325 -0.375
-60.375 61.575 -0.825
-60.675 58.875 1.575
-54.825 56.475 0.075
-54.825 56.475 -1.275
-55.875 56.025 0.975
-54.225 56.925 1.125
-59.625 62.625 0.675
-60.675 60.825 1.875
-59.775 62.475 0.375
-59.775 62.475 -1.125
-59.775 62.475 0.675
-53.925 57.225 -0.675
-59.475 62.775 1.125
-59.475 62.775 -0.525
-53.325 58.125 0.675
-57.675 63.675 1.125
-57.675 63.675 2.325
-57.675 63.675 0.075
-57.675 63.675 1.425
-54.375 56.775 1.275
-54.375 56.775 0.525
-53.475 57.825 0.825
-59.925 62.325 -0.975
-59.925 62.325 3.825
-56.775 55.875 1.725
-56.775 55.875 2.175
-58.875 63.225 -0.225
-60.825 59.775 2.025
-53.775 57.375 3.825
-60.825 59.925 1.875
-60.825 59.925 0.975
-57.075 55.875 2.025
-56.625 55.875 2.025
-56.625 55.875 1.425
-53.175 58.425 1.275
-60.825 60.075 0.975
-60.825 60.075 2.325
-60.825 60.075 1.125
-60.825 60.075 1.725
-53.025 58.875 1.575
-53.025 58.875 2.625
-53.025 58.875 1.275
-53.025 58.875 3.675
-56.475 55.875 0.675
-56.475 55.875 2.175
-56.475 55.875 1.575
-56.475 55.875 1.425
-55.725 56.025 0.975
-55.725 56.025 2.925
-54.525 56.625 -0.225
-54.525 56.625 -0.825
-57.825 63.675 1.125
-60.825 60.225 1.725
-60.675 60.975 2.475
-60.075 62.175 2.025
-57.375 55.875 2.625
-54.975 56.325 0.525
-53.625 57.525 -0.375
-56.325 55.875 0.975
-56.325 55.875 1.125
-52.875 59.775 1.575
-53.025 58.725 0.825
-53.025 58.725 1.125
-54.675 56.475 -0.525
-54.675 56.475 -0.075
-54.675 56.475 0.225
-58.725 63.375 0.075
-58.725 63.375 0.825
-57.975 63.675 1.425
-56.175 55.875 0.825
-60.225 62.025 0.525
-60.225 62.025 0.675
-53.175 58.275 0.975
-53.175 58.275 1.125
-55.575 56.025 1.425
-58.425 63.525 1.725
-60.675 61.125 2.025
-59.025 63.225 1.275
-59.025 63.225 1.425
-59.025 63.225 -0.225
-54.075 56.925 0.825
-53.925 57.075 -0.375
-53.925 57.075 0.225
-59.775 62.625 -0.825
-59.625 62.775 -0.525
-56.025 55.875 0.525
-53.775 57.225 -0.675
-53.775 57.225 2.175
-53.775 57.225 -0.525
-53.025 58.575 2.025
-53.025 58.575 1.125
-53.025 58.575 0.825
-60.525 61.575 -0.225
-58.125 63.675 1.725
-54.825 56.325 -0.375
-57.525 63.825 1.875
-60.375 61.875 -0.675
-54.375 56.625 0.075
-54.375 56.625 0.525
-55.425 56.025 1.275
-55.875 55.875 2.775
-53.175 58.125 0.825
-53.175 58.125 0.975
-58.575 63.525 0.525
-58.875 63.375 0.675
-52.875 59.025 1.425
-54.525 56.475 0.975
-54.525 56.475 -0.375
-54.525 56.475 2.925
-54.525 56.475 0.675
-60.225 62.175 0.675
-60.225 62.175 0.375
-60.225 62.175 0.525
-60.225 62.175 -0.375
-53.025 58.425 1.125
-53.025 58.425 1.275
-60.975 59.925 2.025
-56.625 55.725 2.325
-56.625 55.725 0.975
-56.625 55.725 1.875
-60.975 60.075 2.325
-60.975 60.075 1.875
-60.975 60.075 1.275
-52.875 58.875 0.825
-52.875 58.875 2.475
-54.975 56.175 0.525
-57.825 63.825 1.275
-57.825 63.825 0.975
-60.525 61.725 -0.825
-60.525 61.725 -1.575
-56.475 55.725 1.125
-60.975 60.225 0.975
-56.325 55.725 1.125
-56.325 55.725 0.975
-53.925 56.925 1.275
-60.375 62.025 0.675
-60.375 62.025 0.375
-60.975 60.375 0.975
-53.175 57.975 0.675
-54.075 56.775 -0.225
-54.075 56.775 1.125
-59.775 62.775 -0.225
-59.775 62.775 1.425
-53.775 57.075 -0.225
-52.875 58.725 1.575
-53.025 58.275 2.625
-53.025 58.275 1.275
-57.975 63.825 1.575
-54.225 56.625 0.525
-59.025 63.375 1.125
-55.575 55.875 1.425
-55.575 55.875 1.575
-60.825 61.125 1.125
-60.825 61.125 2.475
-60.975 60.525 1.875
-57.675 55.725 0.825
-60.975 59.025 0.825
-54.375 56.475 1.575
-54.375 56.475 -0.225
-54.375 56.475 -0.075
-60.225 62.325 -0.375
-60.225 62.325 -0.225
-60.225 62.325 -0.075
-54.825 56.175 0.675
-54.825 56.175 -0.525
-56.025 55.725 0.675
-56.025 55.725 0.825
-57.375 63.975 1.575
-60.675 61.575 0.375
-60.975 60.675 0.825
-60.975 60.675 0.375
-60.975 60.675 -0.225
-53.475 57.375 -0.525
-57.525 63.975 0.975
-60.825 61.275 1.275
-53.025 58.125 1.125
-53.025 58.125 0.225
-58.875 63.525 0.975
-54.525 56.325 0.375
-54.525 56.325 0.225
-54.525 56.325 1.875
-60.375 62.175 -0.525
-60.375 62.175 -0.675
-60.375 62.175 1.125
-60.375 62.175 0.675
-60.975 60.825 0.675
-53.325 57.525 -0.675
-57.675 63.975 1.875
-57.675 63.975 1.125
-59.175 63.375 0.375
-53.775 56.925 -0.375
-53.775 56.925 0.975
-59.925 62.775 -0.525
-60.675 61.725 0.675
-60.675 61.725 -0.375
-54.075 56.625 -0.675
-54.075 56.625 0.975
-54.075 56.625 0.525
-57.075 55.575 0.975
-61.125 59.625 0.225
-52.725 58.875 1.575
-60.975 60.975 0.675
-55.275 55.875 -0.075
-57.825 63.975 0.825
-57.825 63.975 2.025
-60.825 61.425 2.475
-60.525 62.025 -0.525
-60.525 62.025 0.675
-61.125 60.225 0.975
-53.175 57.675 0.525
-53.475 57.225 -0.225
-56.325 55.575 1.875
-56.325 55.575 1.125
-56.325 55.575 3.825
-56.325 55.575 1.275
-59.025 63.525 0.825
-59.025 63.525 1.875
-59.025 63.525 1.575
-59.475 63.225 -0.075
-61.125 60.375 0.975
-61.125 60.375 3.975
-58.425 63.825 0.525
-52.725 58.725 1.425
-57.975 63.975 1.575
-55.575 55.725 -1.425
-54.375 56.325 -0.675
-54.375 56.325 -0.375
-60.975 61.125 0.075
-61.125 60.525 0.675
-56.625 64.125 1.875
-53.325 57.375 -0.525
-55.125 55.875 -0.075
-60.675 61.875 0.675
-60.825 61.575 -0.525
-60.825 61.575 -0.675
-60.825 61.575 -0.225
-52.725 58.575 0.675
-52.725 58.575 2.175
-53.025 57.825 1.575
-53.025 57.825 0.975
-54.525 56.175 -0.525
-55.425 55.725 3.225
-52.875 58.125 1.125
-53.775 56.775 -0.675
-53.775 56.775 -0.075
-58.575 63.825 0.675
-53.925 56.625 0.675
-53.925 56.625 -0.975
-53.925 56.625 -0.075
-53.925 56.625 0.225
-53.625 56.925 -0.675
-53.175 57.525 1.575
-59.775 63.075 -0.525
