# .PCD v0.7 - Point Cloud Data file format
VERSION 0.7
FIELDS x y z
SIZE 4 4 4
TYPE F F F
COUNT 1 1 1
WIDTH 2048
HEIGHT 1
VIEWPOINT 0 0 0 1 0 0 0
POINTS 2048
DATA ascii
15.675 59.625 -0.375
15.825 59.775 -0.675
15.975 59.775 0.675
15.975 59.775 0.525
15.675 59.325 -0.675
15.525 59.775 -0.225
15.975 59.925 0.375
15.975 59.925 0.525
15.975 59.175 -0.075
16.125 59.925 -0.075
15.825 60.075 -0.375
15.825 60.075 2.475
16.275 59.775 1.275
16.275 59.775 -0.075
15.975 60.075 -0.075
16.125 59.175 0.075
16.125 59.175 -0.375
16.125 59.175 -0.075
15.825 59.025 -0.375
16.275 59.925 -0.075
16.125 60.075 -0.975
15.975 59.025 0.375
15.375 59.175 0.525
16.275 59.175 -0.825
16.425 59.775 -0.225
15.825 60.225 -0.075
15.525 59.025 -1.575
15.525 59.025 -1.425
16.125 59.025 -0.075
16.125 59.025 0.075
15.225 59.325 1.275
15.975 60.225 0.075
15.975 60.225 0.225
16.425 59.925 -0.075
15.825 58.875 2.325
15.225 59.175 1.275
16.275 59.025 -0.075
15.675 58.875 -1.275
15.975 58.875 -0.075
15.975 58.875 0.525
15.975 58.875 -0.375
16.425 59.175 0.075
15.075 59.475 0.975
15.075 59.775 -1.425
16.575 59.775 -0.375
15.075 59.325 0.975
15.075 59.325 0.825
15.975 60.375 -0.675
15.975 60.375 -0.825
15.225 59.025 1.125
16.575 59.925 0.525
15.375 58.875 0.375
16.275 58.875 -0.075
16.575 59.175 0.375
16.575 59.175 -0.075
15.675 58.725 -1.275
16.425 60.225 0.075
15.975 58.725 0.525
15.975 58.725 0.375
14.925 59.475 0.675
15.375 60.375 0.975
16.275 60.375 -0.225
16.275 60.375 -0.075
14.925 59.775 0.825
14.925 59.775 0.675
15.525 58.725 -1.125
16.125 58.725 -0.075
16.125 58.725 -0.975
16.725 59.775 -2.925
15.225 58.875 0.675
15.225 58.875 1.275
15.075 59.025 0.075
15.825 60.525 0.375
15.825 60.525 1.425
16.425 58.875 -1.875
16.425 58.875 -1.725
15.975 60.525 -0.225
16.725 59.925 1.425
15.375 58.725 0.525
15.375 58.725 1.275
15.075 60.225 0.675
16.275 58.725 -0.075
16.125 60.525 -0.225
15.225 60.375 0.975
15.225 60.375 0.825
14.925 59.175 0.825
16.575 60.225 0.675
15.675 58.575 1.875
15.975 58.575 0.525
16.725 60.075 0.975
15.075 58.875 -0.075
16.575 58.875 1.125
15.225 58.725 1.125
16.425 58.725 -0.075
16.425 58.725 -2.025
15.525 58.575 -0.825
14.925 59.025 0.075
16.725 59.025 1.425
16.875 59.775 0.675
15.825 60.675 -0.375
15.825 60.675 -0.075
15.825 60.675 0.225
15.675 60.675 -0.675
15.975 60.675 -0.075
14.925 60.225 0.825
14.925 60.225 0.675
14.925 60.225 0.975
15.375 58.575 0.525
16.875 59.925 0.525
16.275 58.575 -0.075
16.275 58.575 -1.125
16.275 58.575 -0.975
15.075 58.725 2.475
14.925 58.875 0.675
14.925 58.875 0.825
14.925 58.875 0.225
16.575 58.725 -0.075
14.775 60.075 0.975
16.725 58.875 0.825
15.975 58.425 0.375
15.225 58.575 1.275
14.775 59.025 0.975
14.775 59.025 0.825
14.775 59.025 0.225
14.775 59.025 0.525
14.925 60.375 0.375
14.925 60.375 0.525
14.925 60.375 1.125
14.625 59.625 0.375
15.075 60.525 0.825
16.725 60.375 -0.075
14.625 59.475 0.825
14.625 59.775 0.525
14.775 60.225 0.825
14.775 60.225 0.525
14.775 60.225 0.675
16.875 60.225 0.975
15.825 60.825 -0.075
15.225 60.675 -0.075
15.675 60.825 -0.075
14.925 58.725 -0.675
15.975 60.825 0.075
15.375 58.425 0.375
15.375 58.425 0.075
14.625 59.175 0.375
14.625 59.175 0.825
14.775 58.875 0.975
16.575 58.575 -0.075
16.125 60.825 -0.825
17.025 60.075 0.225
17.025 60.075 0.975
16.725 60.525 -0.225
14.775 60.375 0.825
15.225 58.425 0.825
15.225 58.425 0.525
16.425 58.425 -0.075
15.075 60.675 -1.125
16.875 60.375 1.575
16.875 60.375 0.075
16.575 60.675 0.675
14.475 59.625 0.375
14.475 59.625 0.675
15.525 58.275 -1.125
14.475 59.475 0.525
16.125 58.275 -1.725
14.925 58.575 0.075
14.925 58.575 -0.675
14.775 58.725 0.825
14.775 58.725 0.225
14.775 58.725 0.975
14.475 59.775 0.975
14.475 59.775 0.375
17.175 59.475 0.075
17.175 59.475 -0.225
17.025 60.225 1.425
16.875 58.725 0.975
14.475 59.325 0.675
14.475 59.325 0.375
15.225 60.825 0.225
17.175 59.325 -1.425
15.075 58.425 0.975
14.475 59.925 0.975
14.475 59.925 0.525
16.575 58.425 0.075
14.625 58.875 0.675
15.975 60.975 -0.975
14.775 60.525 1.275
14.775 60.525 0.675
14.775 60.525 0.975
14.775 60.525 0.825
14.925 60.675 0.525
14.925 60.675 0.975
14.475 59.175 0.525
14.475 59.175 0.075
16.725 60.675 0.825
15.525 60.975 1.425
14.475 60.075 1.275
14.475 60.075 0.825
17.175 60.075 0.675
15.075 60.825 -0.975
15.075 60.825 -1.575
15.075 60.825 -1.275
16.575 60.825 0.675
16.575 60.825 -2.925
15.375 60.975 1.575
15.375 60.975 0.075
14.475 59.025 -0.075
15.825 58.125 -1.275
14.625 58.725 -0.975
14.625 58.725 0.225
14.475 60.225 1.275
14.475 60.225 0.375
14.325 59.625 -0.075
14.325 59.625 0.525
15.525 58.125 0.675
17.175 60.225 0.375
14.325 59.475 0.075
14.325 59.475 0.525
14.325 59.475 0.225
14.775 60.675 1.125
14.775 60.675 0.975
17.325 59.625 0.525
17.325 59.625 -0.375
17.325 59.475 0.375
17.325 59.475 -0.075
15.075 58.275 0.975
15.075 58.275 1.125
16.875 60.675 0.675
17.325 59.775 -0.375
17.325 59.775 0.525
14.925 60.825 0.975
17.025 60.525 0.675
17.325 59.325 -0.075
15.375 58.125 0.825
15.825 61.125 0.375
15.975 61.125 -0.825
17.325 59.925 0.675
14.325 59.175 -0.075
15.525 61.125 -1.425
14.775 58.425 0.225
16.125 61.125 -0.975
14.325 60.075 0.225
14.325 60.075 0.525
15.075 60.975 -0.975
15.225 58.125 0.975
14.325 59.025 0.375
15.375 61.125 1.425
16.275 61.125 -0.975
16.275 61.125 0.225
17.325 59.025 -0.375
14.625 60.675 -0.975
14.775 60.825 -0.075
14.775 60.825 -0.975
15.675 57.975 2.925
15.675 57.975 -1.575
17.025 60.675 2.025
15.975 57.975 -0.375
17.325 60.225 0.525
17.325 60.225 0.375
17.325 60.225 0.825
17.175 60.525 1.425
14.925 60.975 0.825
16.425 61.125 0.975
14.175 59.775 0.375
14.175 59.775 0.675
16.725 60.975 1.125
14.325 58.875 -0.075
17.475 59.625 0.375
17.475 59.475 -0.225
17.475 59.775 0.675
17.325 58.875 -0.375
17.325 58.875 -0.225
14.625 58.425 -0.075
15.375 57.975 0.825
14.175 59.925 0.225
14.175 59.925 0.375
17.475 59.325 0.075
17.475 59.325 0.375
15.825 61.275 -0.225
14.325 60.375 -0.225
17.475 59.925 0.675
17.475 59.925 0.375
15.675 61.275 0.375
15.675 61.275 0.225
15.675 61.275 -1.125
15.975 61.275 -0.225
16.575 61.125 1.125
16.125 61.275 -0.075
14.175 60.075 0.375
14.175 60.075 0.675
14.625 60.825 1.125
17.475 60.075 0.375
17.475 60.075 0.675
14.775 60.975 0.975
17.175 60.675 0.825
17.175 60.675 0.375
17.325 58.725 0.075
15.375 61.275 -1.125
14.175 60.225 0.675
14.325 60.525 0.525
15.825 57.825 1.425
15.825 57.825 -1.125
15.825 57.825 0.825
15.675 57.825 -0.225
15.975 57.825 -0.375
17.475 60.225 0.525
17.475 60.225 0.825
14.625 58.275 -0.375
16.725 61.125 1.275
15.225 61.275 -1.425
15.525 57.825 -0.525
15.525 57.825 -0.225
15.525 57.825 0.825
16.425 61.275 1.275
14.175 58.875 -0.075
14.025 59.625 0.375
17.475 58.875 -0.075
17.625 59.625 0.525
17.625 59.775 1.275
17.325 58.575 0.375
17.325 58.575 -0.225
16.275 57.825 0.975
14.025 59.925 0.675
17.625 59.325 0.525
14.625 60.975 0.975
14.625 60.975 2.325
17.475 60.375 0.675
17.175 60.825 0.825
15.825 61.425 -0.075
15.825 61.425 -0.225
17.025 60.975 0.975
17.625 59.925 0.075
17.625 59.925 0.525
17.625 59.925 0.975
15.675 61.425 -0.375
15.675 61.425 -0.075
14.325 60.675 0.375
14.925 57.975 -0.225
16.725 57.975 1.125
14.775 61.125 0.825
17.325 60.675 0.225
14.025 60.075 0.225
15.525 61.425 -0.075
16.125 61.425 0.225
16.875 61.125 1.125
17.475 58.725 -0.225
17.475 58.725 0.975
17.625 60.075 0.975
14.625 58.125 -0.525
14.625 58.125 0.225
14.175 60.525 -0.075
14.325 58.425 -0.525
17.025 58.125 1.275
14.025 60.225 0.375
14.025 60.225 0.225
14.925 61.275 0.375
14.925 61.275 0.825
14.925 61.275 0.225
16.725 61.275 1.125
15.825 57.675 -1.125
15.825 57.675 0.675
15.825 57.675 -0.825
15.675 57.675 -0.225
16.875 57.975 -0.825
15.525 57.675 -0.975
15.525 57.675 0.075
15.525 57.675 0.675
15.525 57.675 -1.275
15.525 57.675 0.375
17.175 60.975 0.825
17.175 60.975 1.125
17.175 60.975 0.525
17.475 58.575 0.375
17.475 58.575 0.075
14.625 61.125 0.825
13.875 59.475 0.375
17.325 60.825 0.075
17.025 61.125 0.525
17.025 61.125 1.575
17.025 61.125 0.975
14.025 60.375 0.225
14.025 60.375 0.375
17.775 59.775 1.275
15.375 57.675 0.825
15.375 57.675 0.975
15.375 57.675 1.425
14.175 60.675 -0.075
16.275 57.675 -1.575
17.775 59.325 0.675
15.075 61.425 -0.825
15.075 61.425 -1.575
14.775 61.275 0.525
14.775 61.275 0.675
14.775 61.275 -0.825
16.725 57.825 -0.225
14.475 58.125 -0.675
15.675 61.575 -0.075
14.325 58.275 0.075
17.625 58.725 -0.075
15.225 57.675 1.125
14.025 60.525 0.525
14.025 60.525 0.075
14.025 60.525 0.225
14.025 60.525 0.375
15.375 61.575 0.525
14.475 61.125 -0.075
14.475 61.125 1.275
14.925 61.425 0.825
14.925 61.425 -0.075
17.325 60.975 1.275
17.325 60.975 0.825
16.725 61.425 1.275
17.175 61.125 1.725
14.775 57.825 0.075
14.175 60.825 -0.225
16.875 57.825 0.075
15.825 57.525 -0.375
17.475 60.825 0.225
17.475 60.825 0.675
15.675 57.525 0.825
15.675 57.525 1.125
15.675 57.525 -0.375
15.675 57.525 1.425
15.975 57.525 0.825
17.625 58.575 0.225
17.625 58.575 0.525
16.425 61.575 -0.075
15.525 57.525 0.225
15.525 57.525 0.975
15.525 57.525 2.025
15.525 57.525 0.375
15.525 57.525 0.525
14.325 58.125 -0.075
14.325 58.125 -0.225
13.875 60.375 0.375
14.025 60.675 -0.075
14.025 60.675 -0.225
14.475 57.975 0.375
14.475 57.975 -0.075
14.475 57.975 1.275
17.325 58.125 0.675
14.175 58.275 0.375
13.725 59.325 5.175
17.475 58.275 0.375
17.475 58.275 0.825
16.725 57.675 1.875
14.625 57.825 0.375
15.825 61.725 -0.075
17.025 57.825 2.325
15.675 61.725 -0.075
17.775 58.725 1.425
15.975 61.725 -0.225
14.175 60.975 0.525
14.175 60.975 0.075
14.175 60.975 -0.075
15.225 57.525 1.125
17.625 58.425 -0.525
17.625 58.425 0.075
17.625 58.425 1.875
17.325 61.125 -0.375
17.325 61.125 0.375
15.525 61.725 -0.075
17.475 60.975 0.825
17.175 61.275 -3.825
17.175 61.275 0.825
14.025 60.825 0.375
14.025 60.825 -0.075
14.025 60.825 -0.225
15.375 61.725 -1.275
15.375 61.725 -0.975
15.375 61.725 -1.125
15.375 61.725 0.375
17.925 59.025 0.375
14.775 57.675 -0.525
15.075 57.525 0.975
15.075 57.525 1.575
17.025 61.425 0.825
16.575 57.525 0.825
17.925 60.225 1.575
14.325 57.975 -0.375
14.325 57.975 -0.225
17.775 58.575 1.275
15.225 61.725 0.225
15.825 57.375 1.275
15.825 57.375 -0.375
15.825 57.375 1.125
15.825 57.375 -0.525
15.675 57.375 0.675
15.525 57.375 0.225
15.525 57.375 1.125
15.525 57.375 0.975
15.525 57.375 0.525
15.525 57.375 1.575
15.525 57.375 -0.225
14.775 61.575 1.425
14.925 57.525 0.675
14.925 57.525 1.575
14.925 57.525 -1.125
16.725 57.525 2.775
14.625 57.675 0.525
15.375 57.375 1.725
15.375 57.375 0.975
15.375 57.375 1.275
17.325 61.275 0.675
15.075 61.725 -0.975
15.075 61.725 -1.275
16.575 61.725 -0.675
14.025 60.975 -0.075
17.625 60.975 0.225
17.775 58.425 0.525
17.775 58.425 0.375
17.925 58.725 1.125
17.175 61.425 0.975
15.225 57.375 -0.675
15.225 57.375 -0.375
14.325 57.825 -0.075
14.325 57.825 -0.225
14.925 61.725 -1.125
14.925 61.725 -0.975
17.025 61.575 0.825
17.025 61.575 0.675
17.025 61.575 1.425
15.375 61.875 -0.075
14.475 57.675 -0.225
14.475 57.675 1.125
14.475 57.675 -0.375
14.475 57.675 0.225
16.575 57.375 0.975
17.175 57.675 1.875
13.725 60.675 0.375
17.775 58.275 0.975
15.225 61.875 -0.075
15.225 61.875 -0.375
14.025 61.125 0.225
14.025 61.125 -0.225
17.475 61.275 0.825
16.425 61.875 1.275
15.825 57.225 -0.675
15.825 57.225 0.825
15.675 57.225 0.525
17.325 61.425 1.125
16.875 61.725 2.025
15.525 57.225 1.275
15.525 57.225 0.225
15.525 57.225 -0.375
14.925 57.375 0.675
14.925 57.375 1.275
17.025 57.525 2.025
17.775 60.975 0.525
17.175 61.575 1.275
17.175 61.575 0.825
15.375 57.225 0.075
15.375 57.225 -0.375
15.375 57.225 0.975
17.925 58.425 0.675
14.175 57.825 0.825
14.025 57.975 0.225
14.025 57.975 0.525
18.075 58.725 1.125
14.325 57.675 0.825
14.325 57.675 -0.075
14.325 57.675 0.225
13.725 60.825 0.225
13.875 58.125 0.825
15.825 62.025 -0.075
17.325 57.675 0.525
15.225 57.225 0.675
15.225 57.225 0.825
15.975 62.025 0.825
15.975 62.025 0.525
17.775 58.125 1.275
17.775 58.125 0.375
14.775 57.375 0.675
14.775 57.375 -1.275
17.025 61.725 0.675
14.025 61.275 0.075
14.475 57.525 0.225
14.475 57.525 -0.225
17.625 61.275 1.575
17.625 61.275 0.675
17.175 57.525 1.125
15.375 62.025 -0.075
15.375 62.025 -0.975
15.375 62.025 0.075
18.075 58.575 0.675
13.875 61.125 0.225
16.275 62.025 1.575
16.275 62.025 1.725
17.925 58.275 1.275
17.925 58.275 1.575
16.575 57.225 1.725
17.325 61.575 0.975
13.425 58.875 -0.375
15.225 62.025 -0.825
14.625 57.375 0.375
14.025 57.825 0.375
17.025 57.375 1.425
14.925 57.225 0.225
14.925 57.225 0.525
14.925 57.225 0.375
17.175 61.725 1.575
17.475 57.675 0.525
15.525 57.075 -0.375
15.525 57.075 0.375
15.525 57.075 0.825
15.525 57.075 -0.525
18.075 58.425 1.275
15.075 62.025 -1.125
14.325 57.525 0.375
15.375 57.075 0.225
15.375 57.075 0.525
15.375 57.075 1.125
17.325 57.525 1.425
14.025 61.425 0.075
17.925 58.125 0.675
13.875 61.275 0.375
13.875 61.275 0.225
17.775 61.275 0.975
15.225 57.075 0.825
14.775 57.225 0.675
14.775 57.225 1.425
14.775 57.225 -0.075
15.675 62.175 1.275
15.675 62.175 1.425
15.975 62.175 1.275
16.875 57.225 2.325
14.475 57.375 -0.075
14.925 62.025 -1.125
14.925 62.025 -1.725
16.125 62.175 1.725
18.075 58.275 0.225
17.325 61.725 1.725
15.075 57.075 0.375
15.075 57.075 0.525
17.625 57.675 0.525
14.175 57.525 0.225
14.175 57.525 -0.075
13.275 58.875 0.075
14.775 62.025 -0.975
14.625 57.225 1.425
14.625 57.225 -0.225
14.625 57.225 0.525
14.625 57.225 -0.075
17.925 57.975 1.575
17.925 57.975 1.275
15.675 56.925 -0.525
14.925 57.075 -0.675
15.975 56.925 -0.075
14.325 57.375 0.075
14.325 57.375 -0.375
14.325 57.375 0.375
13.875 61.425 0.225
14.025 61.575 0.075
17.325 57.375 1.725
15.525 56.925 1.125
15.525 56.925 0.525
17.775 61.425 1.275
15.075 62.175 -0.675
18.075 58.125 0.975
14.175 61.725 0.225
17.925 61.275 0.375
17.475 61.725 -3.975
15.375 56.925 0.975
14.775 57.075 -0.675
14.775 57.075 0.225
14.775 57.075 0.675
14.775 57.075 -1.125
13.875 57.675 0.375
14.325 61.875 -0.825
15.825 62.325 0.525
14.925 62.175 -1.125
14.025 57.525 0.225
17.775 57.675 1.275
13.725 57.825 0.075
15.975 62.325 -0.375
18.225 58.275 -0.075
17.625 57.525 1.425
15.525 62.325 -0.075
16.125 62.325 -0.375
14.175 57.375 0.225
14.175 57.375 0.075
14.175 57.375 -0.525
15.075 56.925 0.825
15.375 62.325 -1.275
14.625 57.075 0.375
14.625 57.075 0.525
17.775 61.575 0.525
17.175 62.025 1.875
17.175 62.025 1.125
17.175 62.025 2.625
17.175 62.025 1.425
14.775 62.175 -1.275
14.775 62.175 -1.125
14.025 61.725 0.075
14.325 57.225 0.225
17.325 57.225 1.275
14.175 61.875 0.375
16.725 56.925 1.575
15.975 56.775 0.375
17.475 61.875 1.425
15.525 56.775 -0.375
15.075 62.325 0.375
15.075 62.325 -0.525
16.575 62.325 1.275
14.625 62.175 0.675
15.375 56.775 1.275
15.375 56.775 1.125
15.375 56.775 -0.075
14.025 57.375 0.075
14.475 57.075 0.225
16.275 56.775 -2.775
17.175 57.075 0.375
14.775 56.925 -0.675
16.875 56.925 2.175
14.925 62.325 -0.975
14.925 62.325 -0.675
14.175 57.225 0.225
13.725 61.575 0.225
13.875 61.725 0.225
15.675 62.475 3.225
15.975 62.475 -0.075
18.225 57.975 -1.575
15.525 62.475 2.025
15.525 62.475 -0.075
16.125 62.475 -0.075
14.025 61.875 0.225
15.075 56.775 0.825
15.075 56.775 0.075
15.375 62.475 -0.075
14.325 57.075 0.375
14.775 62.325 -0.975
14.775 62.325 -1.125
16.875 62.325 -0.825
16.875 62.325 1.575
16.875 62.325 1.425
17.325 57.075 0.525
14.175 62.025 1.275
14.925 56.775 -0.075
15.825 56.625 0.375
15.675 56.625 0.225
15.975 56.625 -1.125
15.975 56.625 0.525
15.525 56.625 0.075
15.525 56.625 -0.375
14.625 62.325 1.125
14.625 62.325 1.275
14.625 62.325 1.575
14.475 56.925 0.225
14.475 56.925 -1.125
14.475 56.925 0.075
17.025 62.325 -0.375
13.725 61.725 -1.875
17.325 62.175 1.725
15.375 56.625 1.725
15.375 56.625 -0.375
15.375 56.625 1.575
15.375 56.625 0.825
13.875 61.875 0.075
14.775 56.775 0.375
18.075 61.575 1.275
16.875 56.775 -1.575
17.775 61.875 1.275
17.475 57.075 1.425
17.475 57.075 0.825
14.925 62.475 1.275
14.925 62.475 -0.375
16.725 62.475 -0.675
14.025 62.025 0.075
15.225 56.625 -0.525
15.225 56.625 -0.675
15.825 62.625 0.825
15.825 62.625 0.075
14.475 62.325 1.275
15.525 62.625 1.125
14.325 56.925 -1.125
14.325 56.925 0.375
15.075 56.625 0.225
15.075 56.625 -0.825
17.325 56.925 -0.375
15.375 62.625 -0.075
18.675 58.425 1.725
14.025 57.075 0.525
15.225 62.625 -0.075
13.725 61.875 -0.225
18.075 61.725 0.675
18.075 61.725 1.275
14.325 62.325 2.625
15.675 56.475 -0.675
15.675 56.475 -0.375
18.225 61.575 1.425
14.475 56.775 0.375
17.775 62.025 1.875
17.775 62.025 1.125
15.075 62.625 -0.075
16.125 56.475 -0.225
14.175 56.925 0.525
14.175 56.925 0.075
14.775 56.625 1.575
15.375 56.475 1.875
14.925 62.625 0.675
14.925 62.625 -1.125
14.925 62.625 -0.375
14.925 62.625 0.375
14.925 62.625 -0.075
16.725 62.625 1.125
15.225 56.475 -0.975
15.225 56.475 -0.375
16.425 56.475 -1.725
13.125 61.275 4.875
14.475 62.475 -1.425
17.775 57.075 0.525
16.125 62.775 0.675
15.075 56.475 0.225
15.075 56.475 0.825
15.075 56.475 0.375
16.575 56.475 0.975
16.575 56.475 -0.975
14.775 62.625 -1.275
13.725 62.025 -0.225
18.075 61.875 0.675
18.225 61.725 0.375
18.225 61.725 0.225
17.925 62.025 1.275
17.925 62.025 0.525
17.625 56.925 1.725
17.625 56.925 1.425
17.625 56.925 0.225
13.875 62.175 0.225
13.875 62.175 -0.075
15.225 62.775 2.025
14.925 56.475 0.375
16.725 56.475 -0.675
14.475 56.625 -0.225
14.475 56.625 1.275
14.475 56.625 -0.075
14.475 56.625 0.375
14.175 56.775 0.075
14.625 62.625 -0.075
15.825 56.325 -0.525
17.475 56.775 -0.375
15.675 56.325 -0.225
15.675 56.325 -0.525
15.975 56.325 -0.525
15.075 62.775 -1.725
15.075 62.775 2.175
14.025 62.325 0.225
14.775 56.475 1.425
14.775 56.475 -0.075
15.375 56.325 -0.675
14.925 62.775 0.375
14.925 62.775 0.675
14.925 62.775 -0.075
18.225 61.875 1.125
15.225 56.325 1.125
18.075 62.025 1.275
18.075 62.025 1.725
14.175 62.475 -1.575
14.325 56.625 0.525
16.425 56.325 -1.125
16.425 56.325 -5.925
17.175 62.625 -0.225
13.725 62.175 0.075
13.725 62.175 -0.225
17.475 62.475 1.275
17.325 56.625 -0.225
14.625 56.475 0.675
14.625 56.475 -0.375
14.625 56.475 0.375
14.025 56.775 0.075
17.625 56.775 0.075
15.075 56.325 0.225
15.075 56.325 -0.075
14.775 62.775 -1.275
14.775 62.775 -0.075
13.875 62.325 0.225
13.875 62.325 0.975
13.875 62.325 0.075
13.875 62.325 0.825
15.225 62.925 -0.075
15.225 62.925 -0.225
16.725 56.325 0.975
13.725 56.925 0.375
13.725 56.925 1.275
14.175 56.625 0.075
14.025 62.475 0.675
17.925 56.925 0.375
14.625 62.775 -0.375
14.625 62.775 -1.125
17.625 62.475 -0.225
15.825 56.175 -0.375
15.825 56.175 0.075
15.675 56.175 -0.375
13.575 62.175 0.075
18.225 62.025 0.525
15.525 56.175 -0.525
15.525 56.175 -0.225
14.775 56.325 1.275
18.075 62.175 0.975
13.725 62.325 0.375
13.725 62.325 0.075
18.525 61.725 2.325
14.925 62.925 -1.725
14.325 56.475 -0.225
16.725 62.925 1.425
15.225 56.175 0.675
15.225 56.175 0.225
15.225 56.175 0.975
17.625 56.625 -0.525
14.625 56.325 0.375
13.875 62.475 0.375
17.025 56.325 0.075
15.975 63.075 1.425
14.775 62.925 0.375
15.075 56.175 3.525
15.075 56.175 0.525
14.175 56.475 -0.075
17.475 56.475 0.675
18.375 62.025 -0.075
14.925 56.175 -0.075
17.175 56.325 -0.225
14.625 62.925 1.575
18.525 61.875 2.025
13.875 56.625 0.225
15.075 63.075 -0.075
13.725 62.475 0.225
13.725 62.475 0.375
13.725 62.475 0.075
15.825 56.025 0.225
15.975 56.025 0.075
15.975 56.025 -0.375
17.925 62.475 0.825
17.925 62.475 2.025
13.125 57.225 -1.875
14.325 56.325 -0.075
14.325 56.325 0.225
14.325 56.325 0.525
14.925 63.075 -0.675
14.925 63.075 -0.075
14.925 63.075 -1.275
16.725 63.075 1.275
17.775 62.625 2.625
17.775 62.625 1.575
17.775 62.625 0.825
14.625 56.175 0.525
14.625 56.175 -0.075
15.825 63.225 0.525
14.775 63.075 -1.125
14.775 63.075 -0.075
17.925 56.625 0.825
17.925 56.625 0.675
18.525 62.025 -0.375
15.075 56.025 0.525
18.225 62.325 0.225
15.525 63.225 0.975
15.525 63.225 -0.225
17.325 62.925 2.925
17.475 56.325 -0.675
17.475 56.325 0.825
17.475 56.325 -0.825
17.475 56.325 -0.075
17.175 56.175 2.475
17.175 56.175 -0.075
14.925 56.025 2.625
14.925 56.025 0.525
14.625 63.075 -0.075
14.625 63.075 -0.525
14.625 63.075 -0.375
13.725 62.625 1.125
17.025 63.075 2.175
14.175 62.925 -0.825
15.675 55.875 -0.075
17.475 62.925 3.375
17.475 62.925 1.425
14.025 56.325 -0.375
14.025 56.325 -0.225
18.075 56.625 0.375
18.075 56.625 1.575
14.325 56.175 0.225
16.125 55.875 -0.525
16.125 55.875 0.075
17.325 56.175 0.375
17.325 56.175 -0.225
14.475 63.075 -0.675
17.775 62.775 1.425
17.175 63.075 -4.125
14.925 63.225 -0.975
13.425 62.475 1.425
16.425 55.875 -0.825
16.425 55.875 3.075
13.575 62.625 0.525
14.775 63.225 -0.825
14.775 63.225 1.875
18.075 62.625 1.275
18.075 62.625 1.725
16.875 63.225 1.575
14.025 62.925 -0.825
15.975 63.375 -0.675
15.975 63.375 1.425
15.075 55.875 0.525
14.175 56.175 -0.075
16.575 55.875 -0.075
15.525 63.375 -0.225
17.475 56.175 -0.375
13.875 56.325 -0.225
17.775 56.325 0.825
14.475 56.025 -0.225
14.475 56.025 0.225
15.375 63.375 -0.375
17.925 62.775 1.125
14.925 55.875 0.225
14.625 63.225 0.075
17.025 63.225 1.425
15.225 63.375 -0.225
19.425 58.275 -0.075
18.075 56.475 0.375
18.075 56.475 0.525
15.075 63.375 0.075
17.475 63.075 0.225
16.575 63.375 3.225
16.575 63.375 -0.525
16.875 55.875 0.675
16.875 55.875 0.075
13.425 62.625 0.825
13.425 62.625 0.075
13.425 62.625 0.525
15.825 55.725 -1.575
14.325 56.025 0.375
15.975 55.725 -0.075
17.325 56.025 0.075
17.325 56.025 2.175
14.475 63.225 0.525
16.125 55.725 -0.075
19.275 57.825 0.825
16.725 63.375 1.725
16.725 63.375 1.575
16.425 55.725 1.575
14.775 63.375 -1.125
14.775 63.375 -0.075
14.175 56.025 0.525
17.475 56.025 1.875
17.475 56.025 -0.675
17.475 56.025 0.375
15.825 63.525 -0.375
15.825 63.525 1.275
15.825 63.525 1.425
15.075 55.725 0.225
15.075 55.725 0.675
18.225 56.475 0.375
13.725 62.925 1.425
16.575 55.725 -0.975
16.575 55.725 -0.825
16.125 63.525 1.575
17.175 55.875 3.225
14.925 55.725 0.375
14.625 63.375 -0.075
14.625 63.375 -1.275
18.075 56.325 0.525
17.025 63.375 2.025
16.425 63.525 -0.825
13.425 62.775 0.525
13.425 62.775 0.075
17.625 56.025 -0.675
17.625 56.025 0.525
17.625 56.025 1.575
16.875 55.725 1.125
16.875 55.725 0.075
17.325 55.875 -0.375
12.375 57.525 -2.625
15.825 55.575 -0.525
15.825 55.575 -0.225
15.975 55.575 -0.225
15.975 55.575 0.225
13.575 62.925 0.375
13.575 62.925 -0.075
16.125 55.575 -0.225
18.975 57.075 0.075
16.725 63.525 1.575
16.275 55.575 -0.225
17.025 55.725 -0.075
13.125 62.625 0.675
15.225 55.575 -0.675
16.425 55.575 -5.325
14.175 55.875 0.675
17.775 56.025 -0.075
17.475 55.875 2.025
17.475 55.875 -0.525
17.475 55.875 -0.075
14.325 63.375 0.375
14.325 63.375 0.525
17.325 63.375 1.275
16.875 63.525 1.725
13.275 62.775 0.375
13.275 62.775 0.075
15.075 55.575 -0.225
16.125 63.675 2.025
17.175 55.725 -0.375
17.175 55.725 0.675
13.425 62.925 -0.075
16.275 63.675 1.725
14.625 63.525 -0.975
14.925 55.575 0.375
16.725 55.575 -0.675
17.625 55.875 -0.375
17.625 55.875 0.225
13.575 63.075 0.225
14.775 55.575 -3.375
16.875 55.575 -0.225
16.875 55.575 1.425
14.475 63.525 -0.075
15.825 55.425 -0.825
16.125 55.425 -1.425
16.125 55.425 0.225
18.225 56.175 0.525
16.275 55.425 -1.275
16.275 55.425 -0.375
17.025 55.575 0.225
17.625 63.375 1.275
13.275 62.925 0.075
13.275 62.925 -0.375
14.175 55.725 -0.825
17.475 55.725 0.525
20.025 59.625 3.225
15.225 55.425 -1.575
14.325 63.525 -0.375
14.325 63.525 -0.075
16.425 55.425 -0.225
14.775 63.675 0.225
15.075 55.425 0.225
16.575 55.425 -0.525
16.575 55.425 -0.375
17.175 55.575 -0.225
19.125 56.925 -4.575
14.925 55.425 0.225
14.175 63.525 -0.075
17.925 55.875 0.075
16.425 63.825 1.875
13.125 62.925 0.075
13.125 62.925 -0.375
13.125 62.925 -0.075
16.875 55.425 1.725
13.275 63.075 0.225
13.275 63.075 0.075
13.725 63.375 -0.825
16.125 55.275 -0.825
14.925 63.825 -2.025
17.625 63.525 0.825
14.625 55.425 0.525
17.025 55.425 1.125
17.025 55.425 0.225
17.025 55.425 -0.075
16.275 55.275 -1.275
16.275 55.275 0.225
14.325 63.675 0.075
14.775 63.825 -1.875
17.175 55.425 -0.075
17.175 55.425 1.125
16.575 55.275 -0.225
12.975 62.925 -0.075
12.975 62.925 0.075
13.875 63.525 -1.125
16.125 63.975 -0.825
14.175 63.675 2.325
13.125 63.075 -0.075
13.125 63.075 -0.225
13.125 63.075 1.125
14.925 55.275 0.375
16.425 63.975 1.875
11.475 58.725 -0.525
17.325 55.425 0.075
17.325 55.425 1.725
17.325 55.425 1.575
17.325 55.425 -0.225
17.325 55.425 0.675
14.475 63.825 -1.125
14.475 63.825 -0.975
16.875 55.275 0.525
15.825 55.125 -2.175
15.675 55.125 -1.125
14.925 63.975 -0.825
12.675 62.775 0.375
12.825 62.925 0.825
12.825 62.925 0.675
17.025 55.275 0.225
18.975 62.775 1.275
15.375 55.125 0.675
19.125 62.625 1.125
12.975 63.075 -0.375
12.975 63.075 -0.075
16.425 55.125 0.525
14.475 55.275 -0.225
13.875 63.675 -0.525
13.125 63.225 -0.825
13.125 63.225 -0.225
17.175 55.275 0.225
17.175 55.275 0.825
17.175 55.275 1.125
17.175 55.275 -0.075
15.075 55.125 0.525
15.075 55.125 0.975
13.575 63.525 -1.125
16.575 55.125 0.075
17.625 55.425 -5.625
14.175 63.825 -1.425
14.175 63.825 0.375
14.925 55.125 0.525
14.925 55.125 0.375
16.275 64.125 -0.375
16.275 64.125 -0.075
17.325 55.275 0.075
17.325 55.275 -1.275
17.325 55.275 -0.075
16.425 64.125 0.225
12.525 62.775 0.225
12.675 62.925 0.975
14.475 63.975 -1.125
12.375 62.625 0.075
13.875 55.425 0.075
14.025 63.825 -0.225
12.975 63.225 -0.375
17.475 55.275 -0.225
17.475 55.275 -0.975
17.025 55.125 1.275
14.325 63.975 -0.075
12.525 56.325 -2.325
16.275 54.975 -0.075
16.425 54.975 -0.075
13.875 63.825 -0.525
13.875 63.825 -0.375
17.175 55.125 0.225
14.025 55.275 -0.225
14.025 55.275 0.075
15.075 54.975 0.525
16.575 54.975 -0.075
17.625 55.275 -0.975
14.175 63.975 -0.075
12.525 62.925 0.975
18.675 55.875 1.125
15.975 64.275 1.725
14.625 64.125 -0.225
14.625 64.125 0.825
12.375 62.775 0.675
17.025 64.125 0.525
14.925 54.975 0.825
14.925 54.975 0.525
16.725 54.975 0.675
17.325 55.125 0.825
17.325 55.125 0.975
12.975 63.375 -0.975
16.875 54.975 1.275
14.025 63.975 -0.075
14.025 63.975 0.825
16.575 64.275 0.075
14.175 55.125 0.225
17.475 55.125 -0.375
17.475 55.125 -0.225
16.275 54.825 -0.375
16.275 54.825 -0.075
12.375 62.925 0.675
12.375 62.925 -0.075
12.525 63.075 0.375
13.875 63.975 -0.075
13.875 63.975 -0.375
13.875 63.975 0.525
13.875 63.975 0.375
18.075 63.825 4.725
16.425 54.825 -0.225
12.675 63.225 -0.675
17.625 55.125 0.075
14.175 64.125 -0.675
14.175 64.125 -0.825
15.075 54.825 0.825
15.075 54.825 0.675
12.825 63.375 -0.375
16.575 54.825 -0.375
15.675 64.425 -0.675
15.975 64.425 -0.675
15.975 64.425 -0.825
15.525 64.425 0.675
15.525 64.425 -0.675
16.125 64.425 -0.375
16.125 64.425 -0.825
14.925 54.825 -1.725
14.925 54.825 0.825
14.925 54.825 0.975
15.375 64.425 -0.825
16.275 64.425 -0.225
13.725 63.975 -0.375
13.725 63.975 -0.075
16.425 64.425 -0.225
17.775 55.125 1.275
14.025 64.125 -0.075
14.775 54.825 0.975
14.775 54.825 0.825
16.875 54.825 0.675
12.375 63.075 -0.075
12.225 62.925 0.675
17.475 54.975 -0.075
19.725 56.625 -4.575
14.625 54.825 0.075
17.025 54.825 -4.875
16.725 64.425 0.675
12.675 63.375 -0.825
12.675 63.375 -0.075
15.525 54.675 -1.425
16.425 54.675 0.225
16.425 54.675 0.375
17.625 54.975 0.225
17.625 54.975 0.375
17.625 54.975 -2.475
17.625 54.975 -0.375
15.075 54.675 0.525
15.075 54.675 0.675
16.575 54.675 -0.225
15.825 64.575 0.225
15.675 64.575 0.225
15.975 64.575 0.225
15.525 64.575 -1.275
16.125 64.575 -0.075
13.725 64.125 -0.075
14.925 54.675 1.125
14.925 54.675 0.975
16.725 54.675 -0.225
12.225 63.075 -2.175
12.375 63.225 0.675
12.075 62.925 0.525
12.525 63.375 -0.375
12.525 63.375 -0.075
15.225 64.575 0.525
12.675 63.525 -0.375
17.475 54.825 -0.375
11.175 61.575 -0.225
14.625 54.675 0.825
12.825 63.675 0.375
17.925 54.975 -1.875
14.025 54.825 -0.225
14.475 54.675 0.675
15.225 54.525 0.225
16.425 54.525 0.375
14.175 64.425 0.225
12.225 63.225 0.675
12.225 63.225 -0.225
12.075 63.075 0.225
12.375 63.375 -0.375
13.725 64.275 -0.825
12.525 63.525 -0.525
15.825 64.725 0.075
15.825 64.725 -0.375
15.675 64.725 -0.225
15.675 64.725 -0.525
15.975 64.725 -0.225
15.525 64.725 -0.375
15.525 64.725 -0.525
16.125 64.725 -0.375
14.925 54.525 0.675
16.725 54.525 -0.225
17.775 54.825 0.825
10.725 60.375 -1.575
16.275 64.725 0.075
16.275 64.725 -0.075
15.225 64.725 -0.675
14.775 54.525 4.275
16.875 54.525 -0.225
11.475 56.775 -3.675
14.175 54.675 0.375
14.175 54.675 0.675
12.825 63.825 -0.375
17.475 54.675 0.075
17.475 54.675 -0.525
13.575 64.275 -0.675
14.625 54.525 0.825
17.025 54.525 -0.375
17.925 54.825 -0.525
12.075 63.225 -0.075
12.225 63.375 1.425
17.625 54.675 0.075
17.625 54.675 -0.225
14.475 54.525 0.825
11.775 62.925 0.825
12.525 63.675 -0.675
12.525 63.675 -0.825
15.225 54.375 0.975
16.425 54.375 -1.275
16.425 54.375 -1.425
17.475 64.575 4.725
13.425 64.275 -0.975
10.725 58.275 0.225
16.575 54.375 0.375
14.625 64.725 0.675
13.125 64.125 3.975
17.025 64.725 3.225
14.325 54.525 1.125
14.325 54.525 1.425
15.975 64.875 -0.225
15.975 64.875 -0.525
17.775 54.675 0.075
15.525 64.875 0.825
15.525 64.875 -1.125
14.025 64.575 -0.225
17.625 64.575 1.275
15.375 64.875 -0.375
15.225 64.875 -1.575
15.225 64.875 -1.275
16.875 54.375 -0.375
12.075 63.375 -0.225
14.175 54.525 0.525
11.925 63.225 1.275
17.475 54.525 -0.675
17.475 54.525 -0.825
17.475 54.525 0.075
15.075 64.875 -0.975
11.775 63.075 0.375
12.375 63.675 -0.675
13.725 54.675 1.425
14.625 54.375 0.825
14.625 54.375 0.975
11.625 62.925 0.675
11.625 62.925 0.225
14.925 64.875 1.725
17.625 54.525 0.225
17.625 54.525 -0.675
14.475 54.375 0.675
13.425 64.425 0.525
15.225 54.225 0.675
15.225 54.225 0.525
16.425 54.225 0.075
13.725 64.575 -0.075
14.625 64.875 0.075
16.575 54.225 0.075
16.575 54.225 -0.225
14.325 54.375 0.975
11.925 63.375 -0.075
11.925 63.375 -0.225
14.025 64.725 1.725
12.225 63.675 0.075
12.225 63.675 0.525
15.525 65.025 -1.275
11.625 63.075 0.825
12.375 63.825 -0.825
12.375 63.825 -0.675
13.275 64.425 0.375
13.575 64.575 -0.075
14.775 54.225 0.675
10.725 61.575 -0.375
15.225 65.025 -0.075
16.425 65.025 -0.225
14.175 54.375 0.525
14.175 54.375 1.275
17.475 54.375 0.525
17.475 54.375 0.375
17.475 54.375 -0.825
18.225 54.675 -2.775
18.225 54.675 -5.025
17.925 54.525 -0.525
13.875 64.725 1.575
17.775 64.725 1.575
14.625 54.225 0.825
16.725 65.025 1.575
17.625 54.375 -0.675
17.625 54.375 0.075
17.625 54.375 -0.375
13.425 64.575 -0.225
14.775 65.025 -1.125
14.775 65.025 -0.225
14.775 65.025 -0.075
13.125 64.425 -0.375
13.125 64.425 -0.075
13.125 64.425 -1.725
13.125 64.425 0.375
11.925 63.525 -0.075
11.925 63.525 -0.225
11.775 63.375 0.825
13.725 64.725 -1.575
11.625 63.225 0.375
17.925 64.725 1.425
12.225 63.825 0.825
12.225 63.825 1.125
15.075 54.075 0.675
15.075 54.075 1.275
13.875 54.375 0.075
17.025 65.025 0.225
16.575 54.075 0.525
16.575 54.075 0.375
16.575 54.075 -0.075
11.475 63.075 0.375
14.325 54.225 0.525
17.775 54.375 0.825
16.725 54.075 -0.075
13.275 64.575 -0.075
14.475 65.025 0.675
14.475 65.025 0.375
15.375 65.175 -0.225
15.375 65.175 -0.375
13.575 64.725 -1.575
12.975 64.425 -0.075
14.175 54.225 0.675
14.775 54.075 0.375
17.475 54.225 -0.225
11.175 62.775 -0.075
14.325 65.025 0.375
14.625 54.075 0.675
11.475 63.225 1.125
11.475 63.225 0.225
13.125 64.575 2.175
13.125 64.575 -0.075
12.225 63.975 -0.825
12.225 63.975 0.075
14.475 54.075 0.525
14.775 65.175 -0.225
13.725 64.875 1.725
14.625 65.175 0.675
14.625 65.175 -0.075
14.625 65.175 -1.725
14.625 65.175 -0.225
17.775 54.225 -0.075
17.775 54.225 -0.975
17.775 54.225 0.525
17.775 54.225 -0.225
17.025 65.175 1.725
15.075 53.925 0.675
16.575 53.925 -2.025
14.925 53.925 1.125
14.925 53.925 0.975
15.975 65.325 -0.075
15.975 65.325 -0.525
14.475 65.175 -0.225
14.475 65.175 0.375
11.775 63.675 0.375
17.475 54.075 -0.375
13.725 54.225 0.075
14.775 53.925 0.525
14.775 53.925 0.975
16.875 53.925 -0.075
15.225 65.325 1.125
15.225 65.325 -0.675
15.225 65.325 -0.075
12.075 63.975 0.975
11.325 63.225 0.075
11.325 63.225 -0.225
11.325 63.225 -1.725
14.325 65.175 0.525
14.325 65.175 0.675
15.075 65.325 -0.675
15.075 65.325 0.525
12.225 64.125 -2.325
12.225 64.125 0.225
14.625 53.925 0.525
13.425 64.875 1.425
13.425 64.875 2.775
14.925 65.325 -0.825
17.625 54.075 0.075
18.375 54.375 0.075
20.475 63.075 1.725
18.075 54.225 0.675
17.175 53.925 -0.225
14.775 65.325 -0.825
16.875 65.325 1.575
17.775 54.075 0.075
17.775 54.075 -0.075
11.775 63.825 0.375
14.625 65.325 -0.675
14.325 53.925 0.075
15.075 53.775 0.675
15.075 53.775 0.825
15.075 53.775 2.625
15.075 53.775 0.975
13.275 64.875 0.975
12.975 64.725 1.425
18.225 54.225 0.075
14.925 53.775 1.425
14.925 53.775 1.275
14.475 65.325 -0.675
14.475 65.325 -1.425
14.475 65.325 0.375
16.125 65.475 1.575
17.475 53.925 -0.075
17.925 54.075 -0.075
17.925 54.075 -0.525
14.775 53.775 0.675
16.875 53.775 0.675
15.225 65.475 -0.075
15.225 65.475 -0.375
15.075 65.475 0.825
13.125 64.875 1.425
14.625 53.775 0.375
13.425 65.025 1.425
17.025 53.775 0.075
18.375 54.225 0.675
17.625 53.925 0.525
14.925 65.475 0.825
14.925 65.475 -0.825
14.925 65.475 0.075
18.075 54.075 -0.375
11.775 63.975 -0.975
14.475 53.775 1.275
14.475 53.775 0.075
11.325 63.525 1.875
11.325 63.525 0.825
11.325 63.525 0.525
11.325 63.525 0.225
15.525 53.625 -1.575
14.775 65.475 -0.075
14.775 65.475 0.975
14.775 65.475 0.375
11.925 64.125 0.075
11.175 63.375 0.975
14.625 65.475 -0.075
14.625 65.475 0.075
14.025 65.325 0.225
18.075 65.175 2.175
14.925 53.625 0.975
16.725 53.625 0.375
16.725 53.625 0.225
16.725 53.625 0.525
15.825 65.625 0.075
15.825 65.625 0.675
17.925 53.925 -0.225
17.925 53.925 -0.075
17.925 53.925 -0.825
17.475 53.775 0.075
17.475 53.775 -1.875
15.375 65.625 -0.825
13.875 65.325 0.225
13.875 65.325 0.075
13.875 65.325 -0.525
14.775 53.625 0.525
14.775 53.625 0.675
15.225 65.625 0.975
13.125 65.025 -0.225
13.125 65.025 -0.075
11.475 63.825 0.075
11.325 63.675 0.225
12.825 64.875 0.375
12.825 64.875 -1.575
14.625 53.625 0.375
17.625 53.775 -0.975
17.625 53.775 -0.225
17.625 53.775 0.525
17.625 53.775 0.675
20.475 63.525 2.325
18.075 53.925 -0.225
13.725 65.325 0.075
13.725 65.325 -0.525
12.075 64.425 -0.225
15.675 53.475 0.675
15.525 53.475 0.075
14.775 65.625 -0.075
16.875 65.625 1.425
15.375 53.475 0.225
12.975 65.025 -0.225
17.775 53.775 -0.525
16.425 53.475 0.975
12.675 64.875 0.225
12.675 64.875 0.375
14.625 65.625 0.825
14.025 65.475 -0.825
18.975 64.875 -0.825
13.575 65.325 -0.525
15.075 53.475 0.825
15.075 53.475 0.975
15.075 53.475 0.225
16.575 53.475 -0.225
16.575 53.475 0.075
18.075 65.325 2.025
11.475 63.975 -0.225
11.325 63.825 1.575
11.325 63.825 -0.075
14.475 65.625 0.975
12.375 64.725 -1.125
16.725 53.475 0.075
11.175 63.675 0.525
17.925 53.775 -0.675
11.775 64.275 -0.075
11.775 64.275 -0.225
17.475 53.625 0.525
15.525 65.775 -1.875
13.875 65.475 -0.375
13.875 65.475 -1.425
15.375 65.775 -1.575
14.775 53.475 0.825
14.775 53.475 0.525
12.825 65.025 -0.225
12.525 64.875 -0.525
12.525 64.875 -0.225
15.075 65.775 1.425
14.025 53.625 -2.625
14.625 53.475 0.375
14.625 53.475 0.675
17.625 53.625 -0.225
17.625 53.625 0.375
17.625 53.625 -0.075
17.625 53.625 0.225
17.025 53.475 0.375
18.075 53.775 -0.525
14.925 65.775 0.075
12.375 54.375 -2.025
16.725 65.775 1.275
14.475 53.475 0.525
17.175 53.475 -0.225
15.525 53.325 0.075
12.675 65.025 -0.225
11.325 63.975 0.075
11.325 63.975 0.225
17.775 53.625 1.125
17.775 53.625 -0.525
17.775 53.625 -0.375
15.375 53.325 0.225
11.175 63.825 0.375
11.175 63.825 -0.375
15.225 53.325 1.875
15.225 53.325 -0.075
14.025 65.625 1.425
14.325 53.475 0.375
11.025 63.675 0.525
11.025 63.675 2.475
15.075 53.325 0.075
16.575 53.325 0.525
17.925 53.625 -0.525
14.925 53.325 1.575
14.925 53.325 0.825
14.925 53.325 0.675
16.725 53.325 0.075
16.725 53.325 -0.375
17.475 53.475 -1.275
17.475 53.475 0.525
15.675 65.925 2.625
13.875 65.625 -0.975
13.875 65.625 1.425
17.775 65.625 1.125
17.775 65.625 0.675
16.275 65.925 1.275
14.775 53.325 0.525
14.775 53.325 0.675
14.775 53.325 0.825
14.775 53.325 2.625
16.875 53.325 0.075
12.075 64.725 0.075
12.525 65.025 -0.075
16.425 65.925 1.275
17.625 53.475 0.675
14.625 53.325 0.675
11.325 64.125 -0.075
11.175 63.975 1.425
13.725 65.625 1.425
13.725 65.625 -0.975
13.725 65.625 -0.375
12.225 64.875 -1.125
14.175 65.775 -1.125
14.175 65.775 -1.425
14.475 53.325 1.125
12.675 65.175 -0.075
11.775 64.575 -0.525
17.775 53.475 0.075
17.775 53.475 -0.375
13.575 65.625 -0.525
14.325 53.325 1.425
18.075 65.625 1.125
17.925 53.475 -0.225
17.925 53.475 -0.975
17.925 53.475 0.375
13.125 65.475 -0.075
14.925 53.175 1.275
14.175 53.325 0.825
17.475 53.325 0.675
17.475 53.325 0.525
12.525 65.175 0.075
13.275 53.625 0.375
17.775 65.775 1.875
15.525 66.075 1.275
13.425 65.625 -1.275
11.025 63.975 0.375
11.025 63.975 0.225
14.775 53.175 0.675
14.775 53.175 0.525
14.325 65.925 1.275
14.325 65.925 1.725
12.225 65.025 -1.125
12.225 65.025 -0.975
20.775 63.825 2.475
17.625 53.325 0.525
17.625 53.325 0.375
17.625 53.325 -0.825
14.625 53.175 0.225
14.625 53.175 0.675
14.625 53.175 0.525
10.725 63.675 0.825
12.975 65.475 0.225
11.775 64.725 -1.875
19.875 64.725 -1.125
14.175 65.925 1.425
14.475 53.175 0.375
11.925 64.875 -1.125
17.775 53.325 0.225
15.825 53.025 0.825
14.025 65.925 1.425
15.225 53.025 0.825
14.625 66.075 -0.975
11.025 64.125 0.225
12.825 65.475 0.075
10.875 63.975 0.825
10.875 63.975 1.125
13.125 65.625 0.225
16.575 53.025 -0.075
16.575 53.025 0.225
17.925 53.325 -0.075
10.725 63.825 0.825
13.875 65.925 0.225
14.925 53.025 0.675
14.925 53.025 0.525
16.725 53.025 0.375
11.625 64.725 -1.125
13.425 65.775 -0.225
13.425 65.775 -0.525
13.425 65.775 0.225
12.225 65.175 -0.975
16.875 53.025 0.375
18.075 53.325 2.325
15.225 66.225 2.925
17.625 53.175 0.375
17.625 53.175 -0.225
17.625 53.175 0.825
17.625 53.175 -0.825
12.975 65.625 -0.075
12.975 65.625 0.225
13.725 65.925 1.575
13.725 65.925 0.075
18.975 65.475 2.025
11.925 65.025 -1.275
13.275 65.775 0.225
13.275 65.775 -0.225
18.525 53.475 1.425
11.025 64.275 0.075
13.425 53.325 0.975
17.775 53.175 0.375
10.875 64.125 0.375
10.875 64.125 0.975
18.225 53.325 -0.075
18.225 53.325 -1.425
15.825 52.875 0.825
13.575 65.925 0.075
13.575 65.925 -0.825
10.725 63.975 0.675
10.725 63.975 0.525
10.725 63.975 0.075
15.525 52.875 0.825
12.075 65.175 0.375
12.075 65.175 0.525
12.075 65.175 0.225
14.025 66.075 0.375
15.375 52.875 1.425
16.275 52.875 -1.125
17.625 66.075 -0.375
14.325 53.025 0.375
12.825 65.625 0.075
12.825 65.625 -0.375
10.575 63.825 0.675
15.225 52.875 0.525
18.825 65.625 1.275
13.125 65.775 0.075
18.675 53.475 -2.175
16.575 52.875 0.675
13.275 53.325 0.375
13.875 66.075 -0.075
17.475 53.025 0.375
13.425 65.925 0.525
17.175 66.225 0.075
11.775 65.025 -1.425
11.775 65.025 -1.575
14.925 52.875 0.375
14.925 52.875 0.225
18.225 65.925 0.975
16.725 52.875 0.225
16.725 52.875 2.175
14.775 52.875 0.375
14.775 52.875 0.525
16.875 52.875 0.225
15.375 66.375 1.425
16.275 66.375 1.725
17.325 66.225 0.375
12.675 65.625 -0.225
11.025 64.425 0.225
17.625 53.025 0.525
17.625 53.025 0.075
17.625 53.025 0.375
16.425 66.375 1.575
10.725 64.125 0.225
10.725 64.125 -0.075
17.025 52.875 0.375
13.275 65.925 2.025
13.275 65.925 -0.075
13.275 65.925 0.075
13.275 65.925 1.275
18.375 65.925 1.275
10.575 63.975 0.075
10.575 63.975 0.375
17.475 66.225 1.425
17.475 66.225 0.375
19.875 54.075 -2.625
17.775 53.025 -0.225
17.775 53.025 -0.075
17.775 53.025 0.525
17.175 52.875 -0.075
10.425 63.825 0.525
13.575 66.075 -0.225
13.575 66.075 -0.375
11.625 65.025 -0.075
11.625 65.025 -1.425
12.825 65.775 -0.375
15.525 52.725 0.675
16.125 52.725 2.025
16.125 52.725 1.725
12.525 65.625 -0.375
19.125 65.625 1.425
19.125 65.625 2.475
19.725 53.925 -3.375
13.125 65.925 -0.075
13.125 65.925 1.725
18.525 65.925 1.275
18.525 65.925 1.725
15.225 52.725 -3.975
11.775 65.175 0.225
12.225 65.475 -1.125
17.925 53.025 -0.075
13.425 66.075 -0.225
13.875 66.225 0.375
10.875 64.425 0.225
17.475 52.875 -0.375
17.475 52.875 0.375
10.725 64.275 -0.225
14.925 52.725 -5.025
10.575 64.125 0.075
10.575 64.125 -0.075
15.825 66.525 2.175
15.975 66.525 2.925
12.675 65.775 0.225
12.675 65.775 0.075
12.675 65.775 -0.075
12.975 65.925 0.525
16.875 52.725 0.225
12.375 65.625 -0.375
16.275 66.525 1.275
17.325 66.375 1.725
14.025 52.875 0.825
19.275 65.625 0.825
17.625 52.875 -0.825
17.625 52.875 0.375
17.625 52.875 0.525
13.275 66.075 1.725
13.275 66.075 -0.225
15.075 66.525 1.425
15.075 66.525 -0.825
12.075 65.475 -0.225
10.275 63.825 -0.225
19.575 65.475 -0.825
17.475 66.375 -0.825
14.925 66.525 1.575
13.575 66.225 -0.975
12.825 65.925 -0.225
12.825 65.925 0.825
12.825 65.925 0.075
12.525 65.775 0.225
11.775 65.325 0.225
14.025 66.375 -0.075
14.025 66.375 1.875
14.025 66.375 1.125
13.125 66.075 -0.225
13.125 66.075 -0.075
10.725 64.425 0.225
10.725 64.425 0.375
12.225 65.625 -0.375
15.375 52.575 1.575
15.375 52.575 -4.575
15.375 52.575 1.125
16.275 52.575 -1.125
10.575 64.275 0.225
17.025 66.525 1.875
15.225 52.575 1.725
18.375 53.025 -1.575
10.425 64.125 -0.075
10.425 64.125 0.375
10.425 64.125 0.675
10.425 64.125 0.225
13.425 66.225 -0.825
13.425 66.225 -0.375
13.425 66.225 -0.225
11.925 65.475 -0.225
11.925 65.475 -1.425
11.925 65.475 -1.575
13.875 66.375 -0.375
17.475 52.725 0.075
17.175 66.525 0.675
10.275 63.975 0.525
12.675 65.925 0.825
16.725 52.575 -1.125
16.725 52.575 0.525
12.975 66.075 -0.375
12.975 66.075 -0.525
12.975 66.075 -0.075
19.275 65.775 1.275
18.675 66.075 1.875
15.675 66.675 1.875
14.325 66.525 1.125
14.325 66.525 0.825
17.325 66.525 0.225
17.625 52.725 0.075
17.625 52.725 0.525
17.625 52.725 0.825
13.725 66.375 -0.225
11.625 65.325 -0.525
11.625 65.325 -0.225
13.275 66.225 -0.825
13.275 66.225 -0.525
13.275 66.225 0.225
13.275 66.225 -0.075
9.075 61.875 0.225
16.575 66.675 1.125
10.875 64.725 1.725
17.475 66.525 0.525
10.575 64.425 -0.225
17.775 52.725 -0.225
17.775 52.725 0.075
17.775 52.725 0.225
11.775 65.475 -0.225
11.775 65.475 -1.125
12.825 66.075 -0.075
12.825 66.075 -0.375
12.825 66.075 0.375
16.725 66.675 1.125
10.425 64.275 0.525
10.425 64.275 0.075
17.175 52.575 0.075
13.575 66.375 -0.375
19.275 53.325 -4.275
13.125 66.225 0.375
13.125 66.225 0.225
13.125 66.225 0.075
10.275 64.125 0.225
10.275 64.125 -0.225
10.275 64.125 0.825
14.025 66.525 1.725
14.025 66.525 0.675
14.025 66.525 1.575
16.875 66.675 0.975
17.625 66.525 3.675
17.625 66.525 0.075
15.525 52.425 -4.425
16.275 52.425 1.275
14.625 66.675 1.875
14.625 66.675 0.375
