# .PCD v0.7 - Point Cloud Data file format
VERSION 0.7
FIELDS x y z
SIZE 4 4 4
TYPE F F F
COUNT 1 1 1
WIDTH 2048
HEIGHT 1
VIEWPOINT 0 0 0 1 0 0 0
POINTS 2048
DATA ascii
-18.675 35.775 -0.525
-18.825 35.925 0.225
-18.825 35.925 1.725
-18.675 35.925 -0.975
-18.675 35.925 1.275
-18.675 35.925 1.875
-18.675 35.925 1.575
-18.675 35.925 1.125
-18.825 35.625 1.575
-18.675 35.625 0.975
-18.675 35.625 1.875
-18.675 35.625 1.725
-18.975 35.775 -0.525
-18.975 35.775 0.225
-18.975 35.925 1.275
-18.975 35.925 0.075
-18.975 35.925 0.675
-18.975 35.925 -0.075
-18.975 35.925 1.575
-18.525 35.925 -0.375
-18.825 36.075 0.375
-18.825 36.075 -0.375
-18.825 36.075 -0.525
-18.975 35.625 2.475
-18.525 35.625 1.875
-18.975 36.075 0.375
-18.975 36.075 0.825
-18.975 36.075 1.275
-19.125 35.925 0.225
-19.125 35.925 2.175
-19.125 35.925 0.825
-18.375 35.925 1.425
-18.375 35.925 0.975
-18.825 36.225 1.575
-18.675 36.225 -0.225
-18.675 36.225 0.975
-18.975 35.475 -1.425
-18.975 35.475 0.225
-18.975 35.475 1.725
-18.975 35.475 -0.075
-18.525 35.475 0.225
-18.525 35.475 0.525
-19.125 35.625 0.675
-19.125 35.625 0.825
-19.125 35.625 0.375
-18.375 35.625 1.275
-18.375 35.625 1.125
-19.125 36.075 -0.675
-19.125 36.075 1.725
-18.375 36.075 0.975
-18.375 36.075 1.275
-18.975 36.225 0.375
-18.975 36.225 0.825
-18.975 36.225 0.675
-18.975 36.225 0.075
-18.675 35.325 2.025
-19.125 35.475 0.225
-18.375 35.475 0.675
-19.275 35.775 1.125
-19.275 35.775 0.075
-19.275 35.925 -0.675
-19.275 35.925 0.225
-18.225 35.925 1.125
-18.225 35.925 -1.125
-18.225 35.925 -1.725
-19.125 36.225 0.375
-18.375 36.225 0.975
-18.825 36.375 0.375
-18.525 35.325 2.025
-19.275 35.625 1.125
-19.275 35.625 0.075
-18.225 35.625 -0.075
-18.225 35.625 0.975
-19.275 36.075 0.225
-18.225 36.075 0.225
-18.525 36.375 1.125
-19.125 35.325 0.675
-19.125 35.325 0.225
-19.125 35.325 0.525
-19.275 35.475 2.325
-18.375 35.325 -0.375
-18.375 35.325 0.675
-18.225 35.475 0.975
-18.225 35.475 1.575
-18.225 35.475 1.125
-18.225 35.475 0.825
-19.275 36.225 1.125
-19.125 36.375 0.375
-19.125 36.375 0.225
-18.225 36.225 1.425
-18.225 36.225 0.825
-19.425 35.775 -0.075
-19.425 35.775 1.875
-19.425 35.925 0.075
-19.425 35.925 0.975
-18.075 35.775 1.275
-18.075 35.775 0.375
-18.075 35.925 -2.775
-18.075 35.925 0.375
-18.975 35.175 -3.675
-18.975 35.175 -0.075
-18.975 35.175 0.225
-18.825 36.525 0.375
-18.675 36.525 -0.225
-18.675 36.525 0.075
-18.675 36.525 0.375
-18.675 36.525 -1.275
-19.425 35.625 2.175
-19.425 35.625 1.875
-18.075 35.625 0.075
-18.075 35.625 0.975
-19.425 36.075 0.225
-19.425 36.075 1.275
-18.075 36.075 1.125
-18.975 36.525 0.225
-19.275 35.325 0.075
-19.275 35.325 3.075
-18.525 36.525 1.125
-18.525 36.525 -0.675
-18.225 35.325 1.275
-18.225 35.325 1.125
-18.225 35.325 0.075
-18.225 35.325 0.525
-18.225 35.325 0.375
-19.125 35.175 0.225
-18.375 35.175 0.225
-18.375 35.175 0.825
-18.375 35.175 0.375
-18.375 35.175 -1.875
-19.425 35.475 1.275
-19.425 35.475 0.075
-19.425 35.475 0.525
-18.075 36.225 1.725
-18.375 36.525 0.675
-18.825 35.025 2.475
-18.675 35.025 -0.225
-19.575 35.775 1.725
-19.575 35.925 0.375
-19.575 35.925 -0.675
-17.925 35.775 0.225
-17.925 35.775 0.675
-18.975 35.025 -0.225
-18.975 35.025 -1.725
-18.525 35.025 1.275
-18.525 35.025 1.425
-18.825 36.675 0.375
-18.825 36.675 0.825
-18.825 36.675 0.675
-18.675 36.675 0.375
-18.675 36.675 -0.225
-18.075 35.325 0.075
-18.075 35.325 0.525
-18.075 35.325 -0.225
-17.925 35.625 0.375
-19.575 36.075 0.225
-19.575 36.075 0.375
-17.925 36.075 0.975
-19.275 36.525 0.225
-18.975 36.675 0.075
-18.525 36.675 -0.525
-19.125 35.025 0.225
-18.375 35.025 0.825
-19.575 35.475 -0.675
-17.925 35.475 1.275
-19.575 36.225 0.675
-17.925 36.225 0.225
-18.075 35.175 0.825
-18.825 34.875 -3.675
-18.825 34.875 0.675
-18.675 34.875 -0.225
-19.425 36.525 0.675
-18.225 35.025 0.675
-18.225 35.025 1.125
-18.225 35.025 1.275
-18.225 35.025 1.425
-18.225 35.025 1.875
-18.225 35.025 0.225
-19.575 35.325 1.425
-18.075 36.525 1.425
-18.075 36.525 0.075
-17.925 35.325 0.525
-17.925 35.325 -1.875
-19.725 35.775 1.125
-19.725 35.775 0.225
-19.725 35.775 0.075
-19.725 35.775 1.875
-19.725 35.925 0.675
-19.725 35.925 -0.075
-19.725 35.925 0.375
-18.975 34.875 1.275
-18.975 34.875 -0.075
-19.575 36.375 -1.725
-19.575 36.375 0.675
-18.525 34.875 1.275
-19.275 36.675 1.425
-19.725 35.625 0.225
-19.725 35.625 1.575
-18.825 36.825 0.975
-18.675 36.825 0.825
-18.675 36.825 0.675
-18.675 36.825 0.375
-19.725 36.075 0.375
-19.725 36.075 0.825
-19.725 36.075 0.225
-17.775 36.075 1.725
-18.975 36.825 0.375
-18.975 36.825 0.225
-18.525 36.825 -1.875
-18.525 36.825 0.075
-18.525 36.825 0.375
-18.525 36.825 -0.525
-19.125 34.875 0.075
-19.125 34.875 1.125
-19.125 34.875 -0.825
-19.125 34.875 0.525
-19.125 34.875 -0.225
-19.125 34.875 0.675
-18.375 34.875 0.825
-19.725 35.475 0.075
-19.725 35.475 0.225
-19.725 35.475 1.425
-19.725 36.225 0.675
-19.725 36.225 0.525
-19.725 36.225 0.825
-19.725 36.225 0.975
-19.425 35.025 0.075
-19.575 35.175 0.225
-18.075 35.025 0.075
-18.075 35.025 1.125
-18.075 35.025 0.525
-17.925 35.175 0.075
-17.925 35.175 0.525
-17.925 35.175 0.375
-19.125 36.825 -1.425
-19.125 36.825 0.375
-18.375 36.825 2.025
-18.375 36.825 1.125
-19.575 36.525 0.375
-19.575 36.525 0.675
-19.425 36.675 1.425
-19.425 36.675 0.675
-17.925 36.525 0.825
-18.075 36.675 0.675
-18.075 36.675 1.425
-19.275 34.875 0.075
-18.225 34.875 0.825
-18.225 34.875 0.525
-18.225 34.875 1.275
-19.725 35.325 0.075
-19.725 35.325 1.425
-18.825 34.725 0.675
-18.825 34.725 0.825
-18.675 34.725 1.125
-18.675 34.725 0.525
-18.675 34.725 0.825
-19.725 36.375 0.825
-19.725 36.375 2.325
-19.725 36.375 0.525
-19.725 36.375 0.075
-17.775 36.375 0.975
-19.275 36.825 0.525
-19.275 36.825 0.975
-19.875 35.775 0.375
-19.875 35.775 0.225
-19.875 35.925 0.075
-19.875 35.925 0.675
-19.875 35.925 0.225
-19.875 35.925 0.975
-18.975 34.725 0.075
-18.975 34.725 1.275
-18.975 34.725 -0.225
-18.975 34.725 0.225
-17.625 35.775 1.725
-18.525 34.725 -2.475
-18.525 34.725 -0.825
-17.625 35.925 1.575
-19.875 35.625 0.525
-19.875 35.625 0.225
-19.875 35.625 0.375
-19.875 35.625 1.125
-18.825 36.975 0.225
-19.875 36.075 0.975
-19.875 36.075 0.675
-19.875 36.075 0.375
-19.575 35.025 0.075
-17.925 35.025 0.825
-18.975 36.975 -0.375
-18.525 36.975 -0.675
-18.525 36.975 0.375
-19.125 34.725 0.825
-19.125 34.725 0.225
-18.375 34.725 1.875
-18.375 34.725 0.825
-18.375 34.725 0.075
-19.725 35.175 1.425
-19.725 35.175 0.225
-18.075 34.875 0.975
-18.075 34.875 0.525
-19.575 36.675 2.175
-19.575 36.675 0.825
-19.875 35.475 1.125
-19.875 35.475 0.825
-19.875 35.475 1.425
-19.875 35.475 0.375
-19.875 35.475 0.075
-17.925 36.675 -0.675
-17.925 36.675 1.125
-19.875 36.225 1.425
-19.875 36.225 0.525
-19.875 36.225 0.375
-19.875 36.225 0.825
-19.725 36.525 0.525
-19.725 36.525 0.675
-19.425 36.825 0.675
-19.425 36.825 0.525
-19.425 36.825 1.575
-19.425 36.825 1.425
-18.375 36.975 0.375
-19.275 34.725 0.975
-19.875 35.325 0.675
-19.875 35.325 0.225
-19.875 35.325 0.825
-19.875 35.325 -0.825
-19.875 35.325 0.075
-19.875 35.325 0.975
-19.875 35.325 1.125
-19.875 36.375 0.825
-19.875 36.375 0.675
-19.875 36.375 0.975
-19.875 36.375 0.375
-17.625 36.375 1.275
-19.275 36.975 -0.075
-19.275 36.975 0.675
-19.275 36.975 -5.475
-18.225 36.975 -0.375
-18.225 36.975 -1.875
-18.675 34.575 0.675
-18.675 34.575 0.375
-18.675 34.575 0.525
-18.675 34.575 0.975
-19.725 35.025 0.225
-17.925 34.875 0.825
-17.775 35.025 3.975
-17.775 35.025 0.825
-20.025 35.775 0.975
-20.025 35.925 0.075
-20.025 35.925 0.375
-20.025 35.925 -0.675
-20.025 35.925 0.225
-20.025 35.925 0.525
-18.975 34.575 -0.075
-18.975 34.575 -0.675
-18.525 34.575 0.375
-18.525 34.575 0.825
-18.525 34.575 1.575
-18.525 34.575 1.125
-17.475 35.925 0.675
-19.725 36.675 -0.075
-19.725 36.675 0.675
-19.725 36.675 0.525
-20.025 35.625 1.125
-20.025 35.625 0.975
-20.025 35.625 0.825
-20.025 35.625 2.625
-20.025 35.625 0.675
-20.025 35.625 1.275
-20.025 35.625 -1.275
-20.025 35.625 0.225
-19.575 36.825 1.575
-19.575 36.825 0.825
-19.575 36.825 0.525
-19.575 36.825 0.975
-17.775 36.675 0.675
-17.925 36.825 0.675
-17.925 36.825 1.125
-17.925 36.825 1.275
-18.825 37.125 -0.225
-18.825 37.125 0.225
-19.425 34.725 2.925
-19.425 34.725 0.075
-19.425 34.725 0.225
-18.675 37.125 -0.525
-18.675 37.125 0.375
-18.675 37.125 -5.325
-18.075 34.725 0.225
-18.075 34.725 -2.475
-18.075 34.725 0.975
-18.075 34.725 0.825
-19.875 35.175 -0.225
-19.875 35.175 0.225
-19.875 35.175 0.675
-19.875 35.175 0.975
-19.875 35.175 1.575
-19.125 34.575 0.675
-18.975 37.125 0.375
-18.975 37.125 1.125
-18.975 37.125 -0.525
-18.525 37.125 0.975
-18.525 37.125 0.375
-18.525 37.125 0.075
-18.525 37.125 0.825
-18.525 37.125 -0.825
-18.375 34.575 0.225
-19.875 36.525 0.825
-19.875 36.525 0.975
-19.875 36.525 0.675
-20.025 35.475 0.075
-20.025 35.475 -1.875
-19.425 36.975 -0.375
-19.425 36.975 0.825
-19.425 36.975 1.425
-18.075 36.975 1.125
-17.475 36.225 -0.225
-19.125 37.125 0.525
-18.375 37.125 1.125
-19.275 34.575 -0.075
-19.275 34.575 0.075
-19.725 34.875 0.225
-18.225 34.575 0.225
-18.225 34.575 0.825
-20.025 35.325 -0.075
-20.025 35.325 1.425
-19.875 35.025 0.225
-20.025 36.375 1.125
-20.025 36.375 1.575
-19.725 36.825 0.975
-19.725 36.825 0.525
-19.725 36.825 0.375
-19.725 36.825 0.675
-19.725 36.825 0.825
-19.275 37.125 0.525
-17.775 36.825 -0.525
-18.225 37.125 -0.375
-19.875 36.675 1.725
-19.875 36.675 0.975
-19.875 36.675 0.825
-19.875 36.675 0.675
-19.875 36.675 0.375
-19.575 36.975 -0.225
-19.575 36.975 0.375
-20.175 35.775 1.875
-20.175 35.775 -0.825
-20.175 35.775 -1.425
-20.175 35.925 -0.975
-18.975 34.425 -1.275
-18.975 34.425 -0.075
-18.975 34.425 0.225
-19.425 34.575 0.075
-18.525 34.425 -1.725
-18.075 34.575 -0.675
-18.075 34.575 0.975
-18.075 34.575 -0.975
-20.025 35.175 0.375
-20.025 35.175 0.825
-20.025 35.175 0.975
-20.175 35.625 -0.975
-17.475 35.175 1.425
-20.175 36.075 1.275
-18.675 37.275 0.825
-18.675 37.275 0.375
-18.675 37.275 2.025
-19.125 34.425 0.225
-19.125 34.425 -2.775
-19.425 37.125 0.825
-19.425 37.125 0.675
-18.375 34.425 0.375
-18.075 37.125 1.275
-18.525 37.275 0.375
-19.725 34.725 0.225
-19.875 34.875 0.225
-19.875 34.875 0.525
-20.175 36.225 -0.525
-19.875 36.825 1.125
-19.875 36.825 -0.075
-19.875 36.825 0.375
-19.725 36.975 1.275
-19.275 34.425 3.075
-19.275 34.425 -0.975
-19.275 34.425 0.075
-17.625 36.825 0.225
-18.225 34.425 0.375
-18.225 34.425 0.525
-18.225 34.425 -0.075
-17.775 36.975 1.275
-20.025 35.025 0.225
-20.025 35.025 1.125
-20.025 35.025 0.825
-20.175 35.325 0.225
-20.175 35.325 1.725
-20.175 35.325 -2.475
-20.025 36.675 0.075
-19.575 37.125 0.975
-19.575 37.125 0.375
-19.575 37.125 1.425
-19.575 37.125 1.275
-19.275 37.275 0.525
-18.225 37.275 1.425
-18.225 37.275 0.825
-18.825 34.275 0.675
-18.675 34.275 0.825
-18.075 34.425 0.825
-18.075 34.425 0.375
-20.175 35.175 0.825
-20.175 35.175 1.275
-20.175 35.175 0.975
-20.175 35.175 -0.975
-18.975 34.275 -0.075
-20.325 35.925 2.025
-20.325 35.925 1.425
-18.525 34.275 1.425
-18.525 34.275 0.975
-19.875 34.725 0.375
-19.875 34.725 0.075
-19.875 34.725 0.225
-19.725 34.575 0.225
-20.325 36.075 -1.425
-19.425 37.275 0.525
-19.425 37.275 0.825
-19.425 37.275 -2.175
-20.025 34.875 0.525
-20.025 34.875 0.675
-18.825 37.425 0.375
-19.875 36.975 1.125
-19.875 36.975 0.225
-19.125 34.275 0.675
-19.125 34.275 0.075
-19.125 34.275 0.225
-18.375 34.275 -0.525
-18.375 34.275 0.975
-17.625 36.975 1.275
-18.525 37.425 -0.825
-20.325 35.475 1.425
-20.325 35.475 -0.225
-20.325 35.475 1.275
-20.325 35.475 1.575
-20.025 36.825 0.375
-19.725 37.125 -0.075
-19.725 37.125 0.675
-17.475 36.825 0.225
-19.575 34.425 0.225
-17.925 34.425 0.675
-20.175 35.025 -0.975
-20.175 35.025 0.975
-20.175 35.025 -2.475
-20.175 35.025 -1.275
-20.175 35.025 1.275
-20.175 35.025 -2.175
-20.175 35.025 0.225
-19.125 37.425 -0.225
-19.125 37.425 0.525
-19.125 37.425 1.425
-18.375 37.425 0.375
-18.375 37.425 0.675
-18.375 37.425 1.125
-18.375 37.425 1.425
-18.225 34.275 0.375
-18.225 34.275 0.525
-20.325 35.325 -1.275
-20.325 35.325 0.225
-20.325 35.325 0.975
-20.325 35.325 1.125
-20.175 36.675 -0.075
-17.175 35.325 -1.125
-19.575 37.275 0.825
-19.575 37.275 1.275
-19.575 37.275 -3.975
-19.575 37.275 0.975
-20.325 36.375 -0.825
-19.275 37.425 1.125
-19.275 37.425 0.525
-19.275 37.425 -0.225
-18.225 37.425 -0.525
-18.225 37.425 1.275
-18.225 37.425 1.125
-19.875 34.575 0.075
-19.875 34.575 0.675
-19.875 34.575 0.225
-20.025 34.725 0.525
-20.025 34.725 0.075
-17.475 34.725 1.575
-18.075 34.275 0.825
-18.075 34.275 0.525
-20.325 35.175 0.825
-20.325 35.175 -0.225
-20.325 35.175 0.975
-20.325 35.175 -1.725
-18.825 34.125 3.675
-18.675 34.125 0.975
-18.675 34.125 2.475
-20.025 36.975 0.075
-20.025 36.975 1.275
-20.025 36.975 -0.675
-17.175 35.175 -1.125
-19.875 37.125 0.375
-20.175 34.875 0.375
-20.175 34.875 0.825
-20.175 34.875 0.525
-20.175 34.875 0.225
-17.625 37.125 0.525
-17.625 37.125 1.575
-18.975 34.125 0.225
-18.975 34.125 1.425
-20.475 35.925 -1.725
-19.425 37.425 0.675
-19.425 37.425 2.025
-19.425 37.425 0.525
-18.075 37.425 2.175
-20.175 36.825 1.275
-20.475 35.625 -0.075
-20.475 35.625 2.625
-20.475 35.625 -0.375
-20.475 35.625 1.275
-20.475 36.075 1.275
-20.475 36.075 1.425
-19.725 37.275 0.375
-19.725 37.275 0.075
-17.775 37.275 1.275
-17.775 37.275 1.125
-18.675 37.575 -0.375
-19.125 34.125 -1.275
-19.125 34.125 0.675
-18.375 34.125 0.525
-18.975 37.575 1.275
-18.975 37.575 -0.975
-18.975 37.575 1.575
-18.975 37.575 -0.225
-18.525 37.575 0.375
-20.475 35.475 1.275
-17.925 34.275 -3.375
-20.325 36.675 1.575
-18.375 37.575 0.975
-18.375 37.575 2.025
-18.375 37.575 1.425
-18.375 37.575 0.375
-18.375 37.575 1.275
-18.375 37.575 0.075
-18.375 37.575 0.825
-18.375 37.575 -0.075
-19.275 34.125 0.975
-18.225 34.125 0.675
-18.225 34.125 0.375
-18.225 34.125 0.525
-18.225 34.125 1.275
-20.025 34.575 0.525
-20.025 34.575 0.225
-20.025 34.575 0.075
-20.025 34.575 -0.225
-20.025 34.575 0.375
-20.025 34.575 0.825
-19.575 37.425 0.675
-19.575 37.425 -1.125
-19.575 37.425 0.375
-17.925 37.425 1.125
-20.175 34.725 0.375
-20.175 34.725 -0.225
-20.175 34.725 0.825
-20.175 34.725 0.525
-17.025 35.325 1.425
-20.475 36.375 1.125
-20.025 37.125 0.825
-20.025 37.125 -0.225
-20.025 37.125 0.675
-17.475 37.125 2.025
-19.275 37.575 -5.025
-19.275 37.575 0.075
-18.225 37.575 -0.225
-18.225 37.575 1.425
-18.225 37.575 0.375
-19.875 37.275 0.075
-19.875 37.275 0.525
-17.625 37.275 1.575
-19.425 34.125 0.225
-18.075 34.125 0.525
-18.075 34.125 0.675
-18.075 34.125 -0.225
-18.075 34.125 0.975
-17.175 34.875 -1.275
-17.025 35.175 -0.525
-20.475 36.525 2.625
-18.675 33.975 1.875
-18.675 33.975 2.025
-19.725 37.425 0.675
-19.725 37.425 -4.125
-19.725 37.425 0.225
-19.425 37.575 0.975
-19.425 37.575 0.375
-19.425 37.575 0.675
-19.425 37.575 0.525
-17.775 37.425 1.125
-18.075 37.575 0.975
-18.075 37.575 -0.075
-18.525 33.975 2.325
-20.625 35.925 0.375
-20.625 35.925 1.125
-20.625 35.625 0.975
-20.625 36.075 0.825
-19.125 33.975 0.825
-19.125 33.975 0.225
-18.675 37.725 0.375
-20.025 34.425 0.375
-20.025 34.425 -0.375
-20.025 34.425 0.225
-20.175 34.575 -1.425
-20.175 34.575 0.675
-20.175 34.575 -0.075
-20.175 34.575 0.225
-20.175 34.575 0.525
-20.175 34.575 0.075
-17.925 34.125 0.675
-20.475 35.025 0.825
-20.625 35.475 0.075
-20.625 35.475 0.225
-18.975 37.725 1.275
-18.975 37.725 1.125
-18.525 37.725 0.375
-20.475 36.675 1.125
-20.175 37.125 0.075
-20.325 34.725 0.075
-17.025 36.675 0.675
-19.575 37.575 0.225
-19.575 37.575 0.525
-19.575 37.575 -0.525
-19.575 37.575 0.675
-19.125 37.725 0.225
-19.125 37.725 1.575
-19.275 33.975 0.225
-19.275 33.975 0.075
-17.925 37.575 1.875
-17.925 37.575 0.675
-17.925 37.575 1.125
-17.925 37.575 1.725
-18.375 37.725 1.575
-18.375 37.725 0.375
-18.375 37.725 0.975
-18.375 37.725 1.275
-20.625 35.325 1.725
-20.625 35.325 -2.475
-17.625 37.425 1.425
-19.275 37.725 0.675
-19.275 37.725 1.425
-18.225 37.725 0.975
-18.225 37.725 0.075
-18.225 37.725 -0.375
-18.225 37.725 0.825
-18.225 37.725 -0.225
-18.225 37.725 0.375
-17.775 34.125 -0.825
-20.475 34.875 -0.375
-19.425 33.975 1.425
-18.075 33.975 0.675
-19.725 37.575 -0.225
-19.725 37.575 0.075
-17.775 37.575 1.275
-17.775 37.575 0.975
-20.175 34.425 0.375
-19.425 37.725 0.825
-19.425 37.725 0.525
-18.825 33.825 0.675
-18.825 33.825 -0.525
-18.825 33.825 0.225
-18.675 33.825 -1.275
-18.675 33.825 0.825
-18.675 33.825 1.125
-20.025 34.275 0.525
-18.075 37.725 -0.225
-18.075 37.725 -0.375
-20.325 34.575 0.675
-20.325 34.575 0.225
-18.975 33.825 0.975
-18.975 33.825 -0.075
-18.525 33.825 0.825
-20.775 35.775 -1.725
-17.325 37.275 0.975
-19.575 33.975 1.125
-17.925 33.975 0.675
-20.025 37.425 -0.075
-20.625 35.025 -1.125
-19.125 33.825 0.825
-19.125 33.825 0.225
-19.125 33.825 0.675
-19.875 34.125 0.075
-17.475 37.425 1.425
-17.475 37.425 2.475
-17.475 37.425 0.375
-18.375 33.825 2.325
-18.375 33.825 0.825
-18.675 37.875 -0.075
-18.675 37.875 0.375
-20.475 34.725 0.675
-20.775 35.475 1.575
-18.975 37.875 -0.375
-18.525 37.875 0.075
-18.525 37.875 0.375
-16.875 36.675 0.975
-19.575 37.725 0.525
-20.475 36.975 1.425
-17.925 37.725 1.275
-17.925 37.725 0.825
-16.725 36.225 0.825
-19.875 37.575 -0.375
-19.875 37.575 0.375
-19.275 33.825 0.675
-19.275 33.825 0.225
-18.225 33.825 0.375
-17.625 37.575 1.575
-20.175 34.275 0.225
-20.175 34.275 0.375
-20.175 34.275 3.075
-20.175 34.275 0.075
-20.325 34.425 0.675
-20.325 34.425 0.375
-18.225 37.875 -0.825
-18.225 37.875 1.125
-18.225 37.875 -0.375
-19.425 33.825 1.575
-20.625 36.825 0.525
-19.725 37.725 0.375
-19.725 37.725 -0.075
-20.025 34.125 0.225
-20.475 34.575 0.825
-20.475 34.575 0.375
-20.175 37.425 0.075
-17.175 37.275 0.975
-17.175 37.275 0.675
-17.325 37.425 0.375
-19.425 37.875 0.675
-19.425 37.875 1.125
-18.075 37.875 0.975
-18.825 33.675 -0.525
-18.825 33.675 -0.375
-18.675 33.675 -0.525
-18.675 33.675 0.825
-18.675 33.675 0.975
-18.675 33.675 2.175
-18.975 33.675 0.225
-18.975 33.675 1.275
-19.575 33.825 0.225
-19.575 33.825 1.425
-18.525 33.675 0.975
-19.875 33.975 -1.275
-19.875 33.975 0.975
-16.575 35.925 1.575
-19.125 33.675 0.225
-18.375 33.675 0.375
-18.375 33.675 3.975
-18.375 33.675 0.825
-18.375 33.675 1.275
-18.825 38.025 -0.975
-18.675 38.025 -0.075
-18.675 38.025 0.375
-19.875 37.725 -0.225
-19.875 37.725 -0.675
-19.575 37.875 -1.125
-19.575 37.875 0.375
-19.575 37.875 -4.425
-17.625 37.725 1.275
-17.625 37.725 1.125
-18.525 38.025 0.375
-20.325 34.275 0.975
-20.325 34.275 0.675
-19.275 33.675 1.275
-19.275 33.675 1.575
-19.275 33.675 0.075
-18.225 33.675 0.675
-18.225 33.675 0.375
-20.175 34.125 0.375
-20.175 34.125 0.975
-20.175 34.125 0.675
-20.175 34.125 0.825
-20.175 34.125 0.225
-18.375 38.025 -0.075
-19.725 33.825 0.975
-16.575 35.325 -1.425
-17.175 37.425 0.375
-20.025 33.975 0.375
-19.275 38.025 0.975
-19.275 38.025 0.375
-19.275 38.025 0.525
-20.625 34.575 -0.375
-20.625 34.575 0.225
-18.225 38.025 0.375
-18.225 38.025 0.975
-18.225 38.025 0.825
-18.225 38.025 1.425
-19.425 33.675 0.075
-19.425 33.675 1.575
-19.425 33.675 2.025
-18.075 33.675 0.525
-18.075 33.675 0.675
-18.075 33.675 0.375
-17.775 37.875 1.425
-18.075 38.025 0.375
-18.075 38.025 1.275
-19.875 33.825 0.525
-19.575 33.675 -2.025
-18.825 33.525 0.825
-18.675 33.525 1.125
-20.925 35.025 0.225
-18.975 33.525 1.275
-18.525 33.525 0.675
-18.525 33.525 1.725
-20.475 34.275 0.075
-20.475 34.275 1.275
-20.775 36.975 0.075
-21.075 35.925 -1.125
-21.075 36.075 0.675
-17.625 37.875 1.725
-19.125 33.525 -3.525
-19.125 33.525 2.775
-19.125 33.525 0.975
-18.375 33.525 0.225
-18.375 33.525 1.125
-18.375 33.525 0.525
-20.175 33.975 1.875
-20.175 33.975 0.675
-20.175 33.975 1.275
-20.625 34.425 -1.275
-19.575 38.025 0.825
-18.675 38.175 1.125
-17.925 38.025 2.625
-17.925 38.025 1.275
-17.175 37.575 0.225
-18.975 38.175 0.375
-18.975 38.175 0.525
-18.975 38.175 1.575
-18.975 38.175 0.675
-19.275 33.525 0.675
-19.275 33.525 0.825
-19.275 33.525 0.225
-19.275 33.525 -0.975
-19.725 33.675 -1.725
-18.225 33.525 0.375
-19.125 38.175 0.675
-19.125 38.175 0.825
-19.125 38.175 0.525
-18.375 38.175 -0.225
-20.025 33.825 0.375
-19.725 38.025 0.675
-20.775 37.125 1.425
-19.275 38.175 0.975
-19.275 38.175 0.525
-17.775 38.025 1.125
-18.225 38.175 0.825
-18.225 38.175 0.075
-18.225 38.175 0.375
-20.475 34.125 -1.125
-20.475 34.125 1.275
-20.325 33.975 1.275
-20.325 33.975 1.125
-20.325 33.975 0.525
-20.325 33.975 1.425
-20.625 34.275 -0.675
-19.425 38.175 0.675
-19.425 38.175 0.375
-18.075 38.175 0.075
-18.075 38.175 0.825
-16.875 34.275 2.175
-19.575 33.525 1.425
-20.625 37.425 1.125
-18.825 33.375 0.975
-18.675 33.375 1.125
-18.675 33.375 0.675
-18.675 33.375 1.575
-18.675 33.375 -0.525
-18.675 33.375 0.525
-20.175 33.825 0.525
-20.175 33.825 1.725
-20.175 33.825 0.375
-19.875 38.025 2.925
-17.625 38.025 1.125
-17.625 38.025 0.975
-18.975 33.375 1.575
-18.975 33.375 1.275
-18.975 33.375 -0.825
-18.975 33.375 -0.675
-18.525 33.375 0.675
-18.525 33.375 0.075
-18.525 33.375 0.375
-18.525 33.375 1.125
-18.525 33.375 -1.725
-19.575 38.175 0.675
-19.125 33.375 1.425
-19.125 33.375 -0.075
-19.125 33.375 0.225
-18.375 33.375 -0.225
-18.375 33.375 0.525
-18.375 33.375 0.675
-20.175 37.875 5.025
-17.325 37.875 0.525
-17.325 37.875 0.825
-17.325 37.875 0.375
-18.825 38.325 1.875
-18.825 38.325 0.675
-18.975 38.325 1.575
-20.025 33.675 0.525
-20.025 33.675 1.425
-20.925 34.575 1.275
-19.275 33.375 2.175
-19.275 33.375 -0.075
-19.275 33.375 0.225
-19.275 33.375 1.725
-18.225 33.375 0.675
-19.125 38.325 0.825
-19.125 38.325 0.525
-18.375 38.325 0.075
-18.375 38.325 0.375
-20.475 33.975 1.725
-20.475 33.975 1.125
-20.475 33.975 0.975
-20.475 33.975 1.275
-20.625 34.125 -0.525
-20.625 34.125 1.725
-19.725 38.175 0.075
-19.725 38.175 0.675
-17.475 38.025 1.875
-17.775 38.175 1.875
-17.775 38.175 1.425
-19.275 38.325 0.375
-19.275 38.325 0.825
-18.225 38.325 0.375
-18.225 38.325 1.275
-20.325 33.825 1.725
-20.325 33.825 0.825
-20.325 33.825 0.525
-20.775 34.275 1.575
-20.775 34.275 0.075
-20.775 34.275 1.425
-21.225 35.175 0.675
-20.775 37.425 1.425
-19.425 38.325 -0.825
-19.425 38.325 -4.575
-19.425 38.325 0.975
-19.425 38.325 0.525
-17.175 37.875 0.675
-20.175 33.675 1.275
-20.175 33.675 0.675
-20.175 33.675 0.525
-18.075 38.325 0.225
-19.575 33.375 0.225
-16.425 36.975 0.075
-19.875 38.175 -0.075
-21.225 35.025 0.675
-17.625 38.175 1.275
-18.825 33.225 0.975
-18.825 33.225 1.425
-18.675 33.225 0.675
-18.675 33.225 1.125
-18.675 33.225 -0.225
-18.975 33.225 0.975
-17.325 38.025 0.975
-17.325 38.025 0.825
-18.525 33.225 2.325
-18.525 33.225 -0.525
-18.525 33.225 0.375
-18.525 33.225 0.075
-18.525 33.225 -1.725
-21.375 35.775 2.925
-19.575 38.325 0.075
-19.575 38.325 0.225
-17.925 38.325 -1.275
-17.925 38.325 -0.375
-21.375 35.625 3.675
-19.125 33.225 1.425
-18.375 33.225 0.525
-20.625 33.975 -0.225
-20.625 33.975 0.825
-21.075 34.575 0.375
-18.825 38.475 1.725
-18.825 38.475 -0.675
-18.825 38.475 1.575
-20.475 33.825 0.975
-20.475 33.825 0.675
-20.475 33.825 1.725
-20.475 33.825 -0.225
-20.475 33.825 1.425
-20.775 34.125 0.675
-18.975 38.475 0.675
-18.975 38.475 0.825
-18.975 38.475 1.575
-18.975 38.475 0.525
-18.975 38.475 1.275
-18.525 38.475 0.375
-19.275 33.225 1.875
-21.225 36.825 1.425
-20.325 33.675 0.525
-20.325 33.675 0.825
-20.325 33.675 1.425
-20.325 33.675 -1.275
-20.325 33.675 0.975
-20.325 33.675 0.225
-20.325 33.675 1.125
-18.375 38.475 0.075
-20.925 34.275 0.075
-19.725 38.325 -0.375
-19.425 33.225 0.225
-19.425 33.225 1.575
-19.425 33.225 -1.575
-19.275 38.475 0.825
-18.075 33.225 -0.375
-18.225 38.475 0.825
-18.225 38.475 0.675
-18.225 38.475 0.225
-19.875 33.375 -0.375
-17.175 38.025 0.375
-17.175 38.025 0.675
-21.375 35.175 2.325
-19.425 38.475 0.975
-18.075 38.475 -0.075
-17.625 38.325 1.275
-20.625 33.825 0.525
-20.625 33.825 0.675
-20.775 33.975 2.325
-20.775 33.975 -1.425
-18.825 33.075 0.975
-18.825 33.075 1.125
-18.825 33.075 0.825
-18.675 33.075 1.725
-18.675 33.075 -0.825
-20.475 33.675 0.975
-20.475 33.675 0.225
-20.475 33.675 2.775
-20.475 33.675 1.425
-20.475 33.675 1.275
-20.925 34.125 2.325
-18.975 33.075 0.975
-18.975 33.075 1.275
-18.975 33.075 -0.825
-18.975 33.075 1.425
-20.025 33.375 1.275
-18.525 33.075 0.225
-18.525 33.075 0.675
-20.775 37.725 1.125
-16.725 37.725 -1.425
-21.525 36.075 2.025
-19.125 33.075 1.425
-19.125 33.075 1.575
-19.125 33.075 -0.075
-19.125 33.075 1.725
-19.725 33.225 -0.825
-19.725 33.225 1.575
-18.375 33.075 0.225
-18.375 33.075 0.375
-18.375 33.075 0.525
-20.325 33.525 1.125
-20.325 33.525 0.225
-17.025 38.025 0.375
-18.825 38.625 0.525
-18.825 38.625 0.825
-18.675 38.625 1.575
-20.025 38.325 -0.525
-18.975 38.625 0.525
-18.975 38.625 0.675
-18.975 38.625 0.975
-18.525 38.625 0.225
-19.275 33.075 1.425
-19.275 33.075 0.675
-19.275 33.075 1.575
-19.275 33.075 0.825
-19.275 33.075 0.225
-19.725 38.475 -0.375
-19.125 38.625 0.825
-19.125 38.625 0.525
-17.775 38.475 -0.525
-18.375 38.625 0.975
-18.375 38.625 0.225
-17.175 38.175 0.525
-17.175 38.175 0.375
-19.425 33.075 0.225
-19.425 33.075 2.025
-19.875 33.225 -2.625
-20.175 33.375 -0.375
-20.175 33.375 3.075
-20.175 33.375 0.675
-20.175 33.375 1.125
-19.275 38.625 0.825
-17.625 33.225 -0.225
-17.625 33.225 1.275
-18.225 38.625 0.225
-18.225 38.625 0.675
-20.625 33.675 0.825
-19.875 38.475 -0.675
-19.875 38.475 -0.525
-17.325 38.325 4.275
-20.775 37.875 0.975
-17.625 38.475 1.275
-17.625 38.475 1.125
-19.575 33.075 -2.025
-19.575 33.075 2.175
-19.575 33.075 0.225
-20.475 33.525 0.975
-20.475 33.525 0.525
-16.725 37.875 -1.425
-20.025 33.225 -2.625
-18.825 32.925 0.975
-18.825 32.925 1.275
-18.825 32.925 1.125
-18.675 32.925 0.675
-19.575 38.625 -0.225
-19.575 38.625 -0.075
-19.575 38.625 0.525
-19.575 38.625 -0.375
-19.575 38.625 0.075
-17.025 38.175 0.375
-17.025 38.175 0.525
-17.925 38.625 -0.375
-18.525 32.925 0.675
-18.525 32.925 0.225
-18.525 32.925 0.525
-20.325 33.375 1.125
-20.325 33.375 0.675
-20.325 33.375 1.275
-19.725 33.075 0.075
-19.125 32.925 0.675
-19.125 32.925 1.275
-19.125 32.925 0.525
-18.375 32.925 0.525
-17.475 38.475 0.825
-17.475 38.475 -1.275
-17.475 38.475 1.275
-17.175 38.325 0.525
-18.975 38.775 0.675
-18.975 38.775 -0.225
-18.975 38.775 1.125
-18.525 38.775 0.975
-19.275 32.925 0.225
-19.275 32.925 0.825
-19.275 32.925 2.325
-20.775 33.675 0.675
-20.775 33.675 0.825
-20.775 33.675 0.525
-19.725 38.625 0.225
-17.775 38.625 0.825
-19.125 38.775 0.975
-19.125 38.775 -0.525
-19.125 38.775 0.375
-20.175 33.225 1.275
-20.625 33.525 1.125
-20.625 33.525 1.425
-15.825 35.325 2.175
-19.425 32.925 0.225
-19.425 32.925 0.675
-19.425 32.925 -2.475
-16.575 37.875 -0.975
-19.275 38.775 0.375
-20.475 33.375 1.125
-20.475 33.375 1.425
-20.475 33.375 0.525
-20.175 38.475 0.525
-20.175 38.475 0.075
-17.325 38.475 0.825
-19.875 38.625 -0.225
-17.625 38.625 1.275
-17.625 38.625 -0.225
-19.425 38.775 0.525
-18.075 38.775 -0.225
-18.075 38.775 2.175
-19.575 32.925 1.425
-19.575 32.925 0.225
-19.575 32.925 1.575
-17.025 38.325 1.275
-21.525 34.575 1.125
-20.325 33.225 0.975
-17.925 38.775 1.425
-18.675 32.775 0.975
-19.725 32.925 3.375
-19.725 32.925 1.725
-18.975 32.775 1.125
-18.525 32.775 0.525
-18.525 32.775 0.675
-18.525 32.775 0.225
-20.775 33.525 0.825
-20.775 33.525 2.325
-20.775 33.525 0.675
-20.325 38.475 1.725
-17.175 38.475 0.225
-17.175 38.475 2.475
-19.125 32.775 1.425
-18.375 32.775 0.525
-21.675 36.825 1.125
-20.625 33.375 0.825
-18.825 38.925 0.525
-21.825 36.225 2.325
-19.725 38.775 -1.725
-19.725 38.775 0.225
-18.975 38.925 0.825
-18.975 38.925 1.425
-17.775 38.775 2.025
-17.775 38.775 -0.375
-19.275 32.775 -0.075
-18.225 32.775 0.525
-17.325 33.075 -1.125
-19.125 38.925 0.225
-19.125 38.925 0.675
-19.125 38.925 0.375
-19.875 32.925 -0.675
-21.675 34.725 1.125
-20.475 33.225 1.125
-20.475 33.225 0.525
-17.025 33.225 -0.225
-19.425 32.775 0.675
-19.425 32.775 0.225
-19.425 32.775 1.575
-19.275 38.925 0.525
-17.325 38.625 -0.075
-17.325 38.625 0.675
-18.225 38.925 -2.625
-18.225 38.925 1.575
-18.225 38.925 -2.775
-21.825 35.175 0.375
-17.625 38.775 -0.975
-17.025 38.475 0.525
-17.025 38.475 1.125
-19.425 38.925 -0.825
-19.575 32.775 1.425
-18.075 38.925 1.425
-20.925 33.525 2.175
-20.925 33.525 0.375
-20.325 33.075 0.975
-20.325 33.075 0.675
-17.475 32.925 -0.525
-20.775 33.375 3.525
-20.775 33.375 -0.375
-21.225 33.825 0.375
-17.925 38.925 1.125
-17.925 38.925 0.525
-17.925 38.925 -0.375
-20.025 38.775 4.275
-19.725 32.775 -0.375
-17.175 38.625 1.125
-17.175 38.625 0.675
-18.825 32.625 0.825
-18.825 32.625 0.675
-18.825 32.625 1.425
-18.675 32.625 0.375
-18.675 32.625 0.675
-17.475 38.775 0.975
-17.475 38.775 1.275
-21.375 33.975 3.525
-21.375 33.975 0.075
-16.725 38.325 1.425
-18.975 32.625 1.275
-18.975 32.625 -0.525
-18.975 32.625 3.525
-18.525 32.625 0.675
-19.125 32.625 -0.375
-18.375 32.625 1.125
-20.175 32.925 0.975
-19.725 38.925 -0.675
-19.725 38.925 -1.575
-16.875 38.475 1.275
-18.675 39.075 1.275
-17.775 38.925 -3.075
-17.775 38.925 1.875
-19.275 32.625 0.225
-19.275 32.625 -5.175
-19.275 32.625 -1.275
-20.475 33.075 0.675
-20.475 33.075 0.975
-20.475 33.075 0.825
-20.475 33.075 0.525
-20.475 33.075 1.125
-18.525 39.075 1.275
-18.525 39.075 -0.525
-17.025 33.075 -1.275
-21.525 34.125 -0.225
-19.875 32.775 0.225
-19.125 39.075 1.125
-19.125 39.075 0.525
-19.125 39.075 0.375
-19.125 39.075 0.825
-21.075 33.525 1.425
-19.425 32.625 -3.225
-19.425 32.625 0.225
-19.425 32.625 1.875
-19.425 32.625 3.375
-20.925 33.375 -0.225
-21.225 33.675 0.225
-21.225 33.675 2.925
-20.475 38.625 1.875
-19.275 39.075 0.375
-19.275 39.075 0.225
-17.025 38.625 1.125
-17.025 38.625 0.825
-17.025 38.625 0.375
-17.025 38.625 0.525
-18.225 39.075 0.375
-18.225 39.075 1.575
-19.875 38.925 -0.675
-17.625 38.925 1.275
-20.775 33.225 -0.225
-20.325 32.925 0.825
-20.325 32.925 1.275
-19.575 32.625 0.825
-20.025 32.775 1.125
-19.425 39.075 0.825
-19.425 39.075 -0.075
-19.425 39.075 0.075
-18.075 39.075 0.225
-18.075 39.075 1.125
-18.075 39.075 1.575
-18.075 39.075 0.075
-18.075 39.075 -2.925
-21.825 37.125 0.825
-20.625 33.075 0.675
-20.625 33.075 1.125
-21.525 33.975 1.575
-17.175 38.775 0.825
-17.475 38.925 0.375
-17.475 38.925 0.975
-17.925 39.075 -0.675
-19.725 32.625 1.875
-19.725 32.625 -0.525
-19.725 32.625 1.425
-19.725 32.625 0.225
-18.675 32.475 0.825
-18.975 32.475 1.125
-18.975 32.475 1.275
-16.875 38.625 0.825
-16.875 38.625 1.125
-20.175 32.775 0.825
-17.325 32.775 0.225
-17.325 32.775 1.725
-19.125 32.475 0.825
-20.475 32.925 0.675
-21.075 33.375 0.375
-17.025 32.925 0.225
-21.675 34.125 0.825
-17.775 39.075 1.575
-17.775 39.075 3.525
-20.925 33.225 -0.225
-20.925 33.225 0.375
-20.925 33.225 -0.075
-18.825 39.225 1.275
-18.675 39.225 1.275
-21.375 33.675 1.725
-19.875 32.625 1.425
-18.225 32.475 -2.925
-18.975 39.225 0.825
-17.325 38.925 0.825
-17.325 38.925 1.275
-19.125 39.225 0.975
-17.025 38.775 0.825
-17.025 38.775 0.375
-17.025 38.775 0.975
-18.375 39.225 0.975
-20.775 33.075 1.125
-19.425 32.475 -0.075
-16.575 38.475 -0.975
-18.075 32.475 1.275
-19.875 39.075 1.725
-18.225 39.225 -0.825
-18.225 39.225 -0.525
-18.225 39.225 1.425
-18.225 39.225 0.225
-20.325 32.775 0.825
-15.975 37.875 0.525
-20.025 32.625 0.075
-17.475 32.625 2.475
-19.575 32.475 0.225
-19.575 32.475 0.825
-19.575 32.475 0.675
-19.575 32.475 2.625
-20.625 32.925 0.375
-17.925 32.475 1.575
-19.425 39.225 -0.375
-19.425 39.225 -2.625
-18.075 39.225 -0.075
-18.075 39.225 0.825
-18.075 39.225 0.675
-18.075 39.225 0.225
-21.675 33.975 -0.675
-17.175 38.925 -0.375
-17.175 38.925 1.275
-21.675 37.725 0.075
-21.225 33.375 0.375
-21.225 33.375 0.225
-17.475 39.075 3.825
-17.475 39.075 0.825
-19.575 39.225 3.675
-21.075 33.225 -0.225
-21.075 33.225 0.225
-21.075 33.225 0.375
-16.875 38.775 0.975
-16.875 38.775 0.825
-21.375 33.525 0.375
-19.725 32.475 0.975
-18.825 32.325 0.525
-18.825 32.325 0.975
-20.175 32.625 1.275
-18.675 32.325 1.575
-18.675 32.325 0.675
-18.675 32.325 0.375
-18.675 32.325 0.525
-20.475 32.775 1.125
-20.475 32.775 0.675
-20.475 32.775 0.975
-20.925 33.075 0.225
-20.925 33.075 0.975
-20.925 33.075 0.525
-21.525 33.675 1.575
-18.975 32.325 1.575
-18.525 32.325 0.975
-18.525 32.325 0.525
-18.525 32.325 0.375
-16.275 38.325 -0.825
-16.425 38.475 -0.975
-19.125 32.325 1.275
-19.125 32.325 1.425
-17.775 39.225 0.975
-20.925 38.625 1.725
-20.775 32.925 0.675
-20.775 32.925 0.825
-18.825 39.375 0.975
-18.825 39.375 1.275
-17.325 39.075 -0.075
-17.325 39.075 1.575
-17.325 39.075 1.275
-18.675 39.375 0.225
-18.675 39.375 1.425
-18.675 39.375 0.525
-21.675 33.825 -0.225
-19.275 32.325 1.125
-19.275 32.325 -0.525
-18.225 32.325 1.125
-18.225 32.325 -2.775
-18.975 39.375 0.975
-18.525 39.375 0.825
-19.125 39.375 -0.375
-18.375 39.375 0.225
-18.375 39.375 1.125
-15.825 37.875 0.525
-19.425 32.325 0.225
-20.325 32.625 1.125
-20.325 32.625 1.275
-16.725 38.775 0.825
-17.175 32.625 0.225
-21.975 34.275 -1.425
-20.625 32.775 0.975
-20.625 32.775 0.825
-20.025 32.475 0.225
-17.475 32.475 -1.125
-21.375 33.375 1.275
-19.575 32.325 0.375
-21.075 33.075 0.075
-21.075 33.075 0.525
-21.525 33.525 1.575
-17.175 39.075 1.125
-17.175 39.075 0.525
-18.075 39.375 1.275
-16.875 38.925 2.475
-16.875 38.925 0.225
-17.475 39.225 0.825
-20.925 32.925 1.125
-20.925 32.925 0.075
-20.925 32.925 0.675
-21.675 33.675 1.575
-19.725 32.325 2.775
-19.725 32.325 0.825
-19.725 32.325 0.225
-19.725 32.325 2.475
-20.475 32.625 0.375
-20.475 32.625 1.275
-17.775 32.325 -5.025
-20.175 32.475 2.775
-20.175 32.475 1.125
-17.325 32.475 2.325
-18.825 32.175 0.825
-18.675 32.175 -1.875
-16.575 38.775 0.375
-18.975 32.175 0.825
-22.425 35.925 2.175
-17.025 39.075 0.975
-19.125 32.175 0.525
-19.125 32.175 1.575
-17.325 39.225 0.675
-19.875 32.325 0.225
-18.825 39.525 1.575
-18.825 39.525 0.975
-18.825 39.525 0.675
-18.675 39.525 1.125
-19.275 32.175 1.725
-21.375 33.225 0.075
-21.375 33.225 -0.075
-21.375 33.225 0.675
-18.975 39.525 0.375
-18.525 39.525 0.225
-18.525 39.525 0.825
-21.225 33.075 -0.075
-20.325 32.475 1.275
-18.375 39.525 1.725
-18.375 39.525 1.275
-20.625 32.625 -0.075
-20.625 32.625 1.275
-20.625 32.625 0.675
-19.875 39.375 -1.575
-17.625 39.375 1.425
-19.425 32.175 1.875
-19.425 32.175 1.575
-21.075 32.925 0.825
-21.075 32.925 0.975
-21.075 32.925 0.525
-21.225 38.625 0.975
-18.225 39.525 1.575
-18.225 39.525 0.225
-18.225 39.525 -2.325
-18.225 39.525 0.375
-18.225 39.525 1.725
-15.975 38.325 0.375
-17.475 32.325 1.725
-17.175 39.225 1.125
-19.575 32.175 0.225
-19.575 32.175 0.675
-19.575 32.175 -0.075
-19.575 32.175 1.425
-19.575 32.175 0.825
-20.925 32.775 0.825
-20.925 32.775 0.525
-20.925 32.775 1.275
-21.825 33.675 1.575
-21.825 33.675 1.425
-16.575 32.775 0.225
-18.075 39.525 1.275
-18.075 39.525 0.375
-17.475 39.375 2.775
-20.475 32.475 1.275
-20.475 32.475 -1.875
-19.575 39.525 -3.825
-19.725 32.175 6.075
-19.725 32.175 0.225
-20.175 32.325 2.325
-17.775 32.175 2.325
-20.775 32.625 -1.125
-20.775 32.625 0.825
-20.775 32.625 0.975
-16.725 32.625 0.825
-21.375 33.075 0.225
-21.375 33.075 0.075
-21.525 33.225 0.225
-17.025 39.225 0.225
-17.025 39.225 1.275
-18.825 32.025 0.975
-18.675 32.025 0.075
-18.675 32.025 0.975
-18.975 32.025 0.675
-21.225 32.925 0.075
-21.225 32.925 0.225
-17.325 39.375 1.125
-17.775 39.525 2.475
-17.775 39.525 -3.375
-16.725 39.075 0.825
-19.125 32.025 0.675
-19.125 32.025 0.975
-19.125 32.025 1.425
-19.125 32.025 1.125
-19.125 32.025 1.575
-18.375 32.025 0.825
-21.525 38.475 0.975
-21.075 32.775 -3.675
-21.825 33.525 0.675
-19.275 32.025 1.425
-19.275 32.025 1.575
-19.275 32.025 0.975
-18.825 39.675 0.375
-18.825 39.675 1.575
-18.825 39.675 1.425
-18.675 39.675 1.275
-18.975 39.675 0.675
-18.975 39.675 0.225
-18.975 39.675 0.525
-18.975 39.675 0.975
-18.525 39.675 -1.875
-18.525 39.675 0.975
-22.575 36.375 0.375
-19.125 39.675 0.375
-19.125 39.675 0.825
-19.125 39.675 0.075
-19.125 39.675 0.525
-17.625 39.525 1.875
-19.425 32.025 2.025
-18.075 32.025 1.125
-20.025 32.175 1.125
-20.925 32.625 0.675
-17.475 32.175 5.175
-16.575 32.625 4.425
-19.275 39.675 0.825
-19.275 39.675 0.675
-19.275 39.675 -0.825
-17.175 39.375 0.825
-17.175 39.375 0.375
-17.175 39.375 0.675
-18.225 39.675 2.025
-18.225 39.675 0.225
-18.225 39.675 2.325
-19.575 32.025 1.725
-19.575 32.025 0.225
-18.075 39.675 0.675
-18.075 39.675 -0.075
-18.075 39.675 0.225
-18.075 39.675 0.825
-18.075 39.675 -1.425
-20.025 39.525 -1.725
-20.475 32.325 1.275
-17.475 39.525 1.425
-21.525 33.075 0.525
-21.525 33.075 0.225
-21.375 32.925 0.975
-21.375 32.925 0.825
-21.375 32.925 0.225
-21.375 32.925 0.075
-21.375 32.925 -0.975
-21.675 33.225 1.575
-20.775 32.475 0.825
-20.775 32.475 1.425
-16.725 32.475 1.125
-19.725 32.025 0.375
-17.925 39.675 1.875
-17.925 39.675 1.425
-17.925 39.675 0.225
-17.925 39.675 2.175
-21.225 32.775 1.575
-21.225 32.775 -0.225
-17.025 39.375 1.425
-16.725 39.225 -1.425
-20.175 39.525 -3.525
-18.825 31.875 0.675
-21.075 32.625 1.725
-21.075 32.625 1.275
-17.325 39.525 0.975
-18.975 31.875 1.425
-18.975 31.875 0.975
-17.775 39.675 1.275
-17.775 39.675 1.725
-19.875 32.025 0.225
-18.375 31.875 -0.825
-16.875 32.325 1.275
-17.175 32.175 3.225
-19.275 31.875 1.125
-18.825 39.825 0.225
-18.825 39.825 1.125
-18.975 39.825 0.525
-18.975 39.825 0.375
-18.975 39.825 1.425
-18.975 39.825 0.225
-18.975 39.825 1.575
-16.575 32.475 1.725
-19.125 39.825 1.725
-19.125 39.825 0.525
-18.375 39.825 -1.875
-18.075 31.875 0.825
-21.525 32.925 0.375
-21.525 32.925 1.275
-21.525 32.925 1.125
-21.675 33.075 1.575
-19.275 39.825 0.525
-19.275 39.825 0.825
-19.275 39.825 -1.125
-21.375 32.775 0.825
-21.375 32.775 0.525
-21.375 32.775 -0.375
-18.225 39.825 -0.675
-18.225 39.825 1.575
-18.225 39.825 1.425
-18.225 39.825 0.225
-19.575 31.875 0.225
-19.575 31.875 -0.075
-17.925 31.875 2.775
-21.225 32.625 5.475
-21.225 32.625 1.725
-17.475 39.675 1.275
-17.475 39.675 1.425
-18.075 39.825 2.175
-16.725 32.325 -1.275
-22.275 33.825 0.375
-17.325 32.025 2.325
-19.725 31.875 0.825
-19.725 31.875 0.675
-19.725 31.875 1.275
-19.725 31.875 0.225
-17.025 39.525 0.825
-17.925 39.825 2.475
-17.925 39.825 1.425
-17.925 39.825 -0.675
-17.925 39.825 2.025
-21.075 32.475 3.975
-21.075 32.475 0.525
-16.725 39.375 0.525
-17.325 39.675 0.975
-18.825 31.725 0.975
-18.825 31.725 0.375
-18.675 31.725 0.525
-19.725 39.825 0.975
-21.075 39.225 0.075
-17.775 39.825 -0.525
-18.975 31.725 0.675
-21.675 32.925 0.375
-21.675 32.925 1.875
-19.125 31.725 0.375
-19.125 31.725 0.975
-19.125 31.725 0.825
-19.125 31.725 1.275
-20.925 32.325 0.825
-20.925 32.325 1.425
-21.525 32.775 0.375
-21.525 32.775 0.975
-21.825 33.075 0.375
-21.375 32.625 0.525
-21.375 32.625 0.075
-16.875 39.525 0.525
-18.825 39.975 1.125
-18.675 39.975 0.525
-18.675 39.975 1.425
-18.675 39.975 1.275
-18.975 39.975 1.725
-18.975 39.975 0.525
-18.975 39.975 -3.375
-18.975 39.975 0.375
-18.975 39.975 0.075
-18.975 39.975 1.275
-17.625 39.825 1.275
-20.025 31.875 0.225
-20.025 31.875 -2.025
-19.125 39.975 0.825
-19.125 39.975 1.575
-19.125 39.975 1.125
-19.125 39.975 0.675
-19.125 39.975 -0.075
-19.125 39.975 0.375
-18.375 39.975 -3.825
-18.375 39.975 0.225
-19.425 31.725 -0.075
-21.225 32.475 1.425
-18.225 39.975 -0.675
-18.225 39.975 1.875
-20.775 32.175 0.675
-20.775 32.175 1.275
-22.575 34.125 2.325
-19.575 31.725 0.225
-20.025 39.825 1.275
-20.025 39.825 1.725
-17.475 39.825 1.425
-17.475 39.825 1.125
-17.475 39.825 -0.825
-19.425 39.975 0.525
-19.425 39.975 0.375
-18.075 39.975 0.825
-18.075 39.975 0.225
-16.425 32.325 1.125
-19.725 31.725 0.375
-19.725 31.725 0.675
-19.725 31.725 1.125
-19.725 31.725 0.825
-17.925 39.975 0.225
-17.925 39.975 -0.525
-21.825 32.925 0.375
-22.875 34.875 0.675
-21.075 39.375 0.225
-21.525 32.625 0.375
-17.325 39.825 2.025
-20.625 32.025 2.775
-20.625 32.025 0.675
-19.725 39.975 0.975
-17.775 39.975 1.725
-17.775 39.975 -0.675
-19.875 31.725 0.825
-19.875 31.725 0.225
-19.875 31.725 -0.225
-18.825 31.575 0.525
-18.675 31.575 0.075
-21.375 32.475 1.425
-21.375 32.475 0.075
-22.125 33.225 -1.275
-18.975 31.575 0.975
-19.125 31.575 1.125
-16.875 39.675 0.225
-16.875 39.675 -0.075
-16.875 39.675 -1.275
-19.275 31.575 1.275
-18.825 40.125 1.275
-18.825 40.125 0.375
-18.825 40.125 1.125
-18.825 40.125 0.825
-17.175 39.825 1.125
-17.175 39.825 0.975
-17.625 39.975 1.875
-20.025 31.725 -0.525
-20.025 31.725 -0.375
-19.125 40.125 0.375
-19.125 40.125 0.975
-19.125 40.125 1.275
-19.125 40.125 0.825
-18.375 40.125 1.575
-14.925 33.825 2.025
-19.275 40.125 0.525
-18.225 40.125 -0.525
-17.475 39.975 1.125
-19.575 31.575 0.225
-19.575 31.575 -0.075
-21.675 32.625 1.425
-21.675 32.625 1.725
-21.975 32.925 0.075
-19.425 40.125 -1.425
-16.725 39.675 1.275
-18.075 40.125 0.225
-18.075 40.125 1.725
-18.075 40.125 1.875
-20.175 31.725 0.225
-17.025 39.825 -0.225
-17.025 39.825 0.675
-17.025 39.825 1.425
-21.525 32.475 2.025
-22.125 33.075 1.575
-19.725 31.575 0.225
-19.725 31.575 -0.075
-19.725 31.575 1.125
-17.925 40.125 0.675
-17.925 40.125 0.225
-17.925 40.125 0.825
-17.925 40.125 -0.075
-20.625 31.875 1.425
-21.375 32.325 0.525
-21.375 32.325 0.975
-17.325 39.975 1.275
-20.925 32.025 1.125
-15.375 38.625 5.025
-20.325 31.725 -2.025
-20.325 31.725 1.575
-19.875 31.575 0.075
-17.775 40.125 1.575
-22.875 34.275 0.975
-21.375 39.375 0.825
-18.825 31.425 0.675
-18.825 31.425 0.375
-18.675 31.425 0.675
-18.675 31.425 5.175
-18.675 31.425 -2.625
-16.875 39.825 0.525
-16.875 39.825 2.175
-18.975 31.425 0.975
-21.225 32.175 0.825
-19.125 31.425 1.125
-18.375 31.425 1.725
-20.325 39.975 -2.175
-20.325 39.975 -1.275
-17.175 39.975 1.125
-19.875 40.125 -0.825
-19.275 31.425 1.125
-19.275 31.425 0.975
-19.275 31.425 1.275
-17.625 40.125 1.875
-17.625 40.125 2.775
-17.625 40.125 0.825
-21.825 32.625 0.975
-20.025 31.575 0.375
-21.225 39.525 1.275
-18.825 40.275 0.675
-18.675 40.275 1.425
-18.675 40.275 0.675
-18.675 40.275 0.225
-20.775 31.875 1.425
-20.775 31.875 0.975
-18.975 40.275 0.675
-18.975 40.275 0.525
-18.975 40.275 1.275
-18.525 40.275 0.075
-21.675 32.475 -3.525
-19.425 31.425 5.625
-19.425 31.425 0.825
-19.125 40.275 0.525
-19.125 40.275 0.675
-21.075 32.025 1.275
-22.875 34.125 -0.075
-21.525 32.325 0.675
-18.225 40.275 0.675
-18.225 40.275 0.225
-18.225 40.275 -0.225
-20.775 39.825 2.025
-19.575 31.425 -3.525
-20.175 31.575 0.375
-17.025 39.975 0.225
-17.025 39.975 0.375
-17.025 39.975 0.675
-21.075 39.675 1.425
-18.075 40.275 1.575
-21.375 32.175 -0.075
-19.725 31.425 0.375
-19.725 31.425 -0.225
-20.625 31.725 1.725
-19.575 40.275 -0.075
-17.925 40.275 1.125
-17.325 40.125 0.675
-21.225 32.025 2.025
-21.225 32.025 0.825
-21.225 32.025 3.225
-22.575 33.375 0.675
-21.975 32.625 2.025
-21.975 32.625 2.475
-20.625 39.975 1.575
-23.025 34.275 2.325
-19.725 40.275 2.925
-19.875 31.425 0.225
-19.875 31.425 -0.225
-19.875 31.425 -0.075
-19.875 31.425 0.975
-19.875 31.425 0.825
-16.875 39.975 0.375
-16.875 39.975 0.075
-17.775 40.275 1.725
-17.775 40.275 0.525
-18.825 31.275 0.825
-18.825 31.275 0.675
-18.675 31.275 0.675
-18.975 31.275 0.825
-21.675 32.325 0.375
-22.275 32.925 0.825
-17.175 40.125 0.975
-17.175 40.125 0.825
-17.175 40.125 0.225
-17.625 40.275 1.575
-17.625 40.275 -0.675
-20.025 31.425 0.375
-20.025 31.425 0.825
-19.275 31.275 1.125
-21.075 31.875 0.975
-21.525 32.175 0.675
-21.675 39.375 -0.375
-20.475 31.575 1.575
-18.825 40.425 1.125
-18.675 40.425 1.725
-18.975 40.425 0.675
-18.525 40.425 -0.075
-18.525 40.425 0.675
-19.425 31.275 -4.125
-19.425 31.275 -0.075
-19.125 40.425 0.975
-19.125 40.425 0.225
-19.125 40.425 0.825
-18.375 40.425 0.675
-16.725 39.975 1.275
-16.425 39.825 -1.125
-21.375 32.025 0.525
-21.375 32.025 1.575
-18.225 40.425 1.425
-17.475 40.275 0.675
-17.475 40.275 1.275
-20.475 40.125 0.825
-17.025 40.125 0.825
-17.025 40.125 2.175
-18.075 40.425 1.575
