# .PCD v0.7 - Point Cloud Data file format
VERSION 0.7
FIELDS x y z
SIZE 4 4 4
TYPE F F F
COUNT 1 1 1
WIDTH 2048
HEIGHT 1
VIEWPOINT 0 0 0 1 0 0 0
POINTS 2048
DATA ascii
-69.375 103.275 0.075
-69.375 103.275 1.875
-69.375 103.275 1.725
-69.375 103.425 1.575
-69.375 103.125 1.575
-69.375 103.125 0.675
-69.525 103.275 1.725
-69.525 103.425 1.425
-69.225 103.425 1.425
-69.525 103.125 2.175
-69.225 103.125 1.575
-69.375 103.575 3.375
-69.375 103.575 1.875
-69.375 103.575 1.425
-69.675 103.275 0.225
-69.675 103.275 1.725
-69.375 103.575 1.725
-69.675 103.275 1.875
-69.375 102.975 1.725
-69.675 103.425 1.875
-69.075 103.425 1.425
-69.225 103.575 0.975
-69.225 103.575 2.775
-69.675 103.125 1.875
-69.525 103.575 2.475
-69.225 103.575 1.275
-69.525 103.575 1.725
-69.225 103.575 1.725
-69.675 103.125 1.575
-69.525 102.975 0.675
-69.525 102.975 2.025
-69.225 102.975 1.425
-69.675 103.575 3.225
-69.075 103.575 2.025
-69.075 103.575 0.975
-69.075 103.575 1.275
-69.675 102.975 1.725
-69.675 102.975 1.575
-69.375 103.725 2.925
-69.375 103.725 1.425
-68.925 103.275 0.675
-69.825 103.275 0.375
-69.525 103.725 2.625
-69.525 103.725 0.225
-69.225 103.725 2.025
-69.825 103.125 1.725
-69.525 102.825 2.175
-69.225 102.825 1.425
-69.075 103.725 0.825
-69.675 103.725 2.625
-69.675 103.725 3.225
-69.075 103.725 2.625
-69.075 103.725 1.125
-69.675 102.825 1.725
-69.825 103.575 3.225
-69.825 103.575 2.775
-69.675 102.825 0.825
-69.825 102.975 1.875
-69.825 102.975 2.025
-69.375 103.875 2.625
-69.375 103.875 1.575
-69.975 103.425 2.475
-69.975 103.425 2.775
-69.975 103.425 1.875
-69.225 103.875 1.125
-69.525 103.875 2.625
-69.975 103.125 1.875
-69.225 103.875 0.975
-69.225 103.875 2.625
-69.525 102.675 2.625
-69.525 102.675 1.575
-69.225 102.675 0.825
-68.925 103.725 1.575
-69.825 103.725 3.675
-68.925 103.725 1.725
-69.825 102.825 1.725
-69.825 102.825 2.025
-69.825 102.825 2.175
-69.675 103.875 2.475
-69.975 103.575 1.275
-69.675 103.875 2.775
-68.775 103.575 0.525
-69.075 103.875 3.975
-69.075 103.875 0.975
-69.675 103.875 2.625
-69.975 102.975 2.175
-69.675 102.675 2.025
-69.975 103.725 3.675
-68.925 103.875 2.325
-69.975 102.825 3.525
-69.825 103.875 3.225
-69.825 103.875 2.925
-69.975 102.825 2.025
-69.375 104.025 1.725
-69.825 102.675 1.725
-69.825 102.675 2.025
-69.525 104.025 2.775
-69.225 104.025 2.625
-70.125 103.575 3.075
-69.675 102.525 1.725
-69.075 104.025 2.475
-69.675 102.525 1.875
-70.125 103.575 1.875
-70.125 102.975 1.875
-69.975 103.875 3.075
-69.975 102.675 3.375
-69.975 102.675 1.875
-69.975 102.675 2.625
-69.975 102.675 1.725
-69.975 102.675 2.175
-69.825 102.525 2.475
-68.925 104.025 0.825
-70.125 102.825 1.725
-69.375 102.375 1.425
-70.275 103.275 2.625
-69.225 104.175 1.725
-70.275 103.425 -0.225
-69.525 102.375 1.425
-69.675 104.175 2.175
-69.075 104.175 1.275
-69.075 104.175 1.875
-69.675 102.375 1.875
-69.675 102.375 1.725
-69.675 102.375 2.925
-69.675 102.375 3.075
-69.675 102.375 1.425
-70.275 102.975 2.925
-69.975 102.525 1.875
-70.125 103.875 2.775
-70.125 103.875 3.975
-69.975 104.025 3.525
-69.975 102.525 2.775
-70.125 102.675 2.025
-70.125 102.675 3.375
-68.925 104.175 1.125
-70.275 103.725 2.625
-69.825 102.375 3.375
-69.825 102.375 2.025
-70.275 102.825 2.025
-69.825 102.375 1.725
-69.375 104.325 1.575
-69.375 102.225 1.125
-70.425 103.125 2.325
-69.225 104.325 2.025
-69.225 104.325 1.725
-70.125 102.525 -0.675
-70.125 102.525 2.775
-70.125 104.025 3.075
-69.525 102.225 1.575
-68.775 104.175 0.675
-69.975 102.375 2.775
-70.425 103.575 -0.075
-69.075 104.325 0.225
-70.425 102.975 2.325
-70.425 102.975 -0.225
-70.425 102.975 0.075
-69.675 102.225 1.725
-68.325 103.725 -2.925
-69.825 104.325 2.475
-70.425 102.825 0.375
-68.925 104.325 0.975
-69.825 104.325 -1.575
-68.925 104.325 1.275
-69.825 102.225 1.875
-69.825 102.225 1.725
-69.825 102.225 3.375
-70.125 104.175 2.625
-70.125 104.175 2.175
-68.475 104.025 4.425
-68.475 104.025 1.275
-70.275 102.525 2.775
-70.275 104.025 3.825
-69.375 104.475 3.675
-69.375 104.475 3.825
-70.575 103.275 -0.375
-69.225 104.475 1.725
-69.975 104.325 -1.425
-69.975 104.325 3.225
-70.425 103.875 2.625
-69.975 104.325 2.925
-70.425 103.875 -0.525
-69.975 104.325 2.025
-70.575 103.425 0.075
-69.975 102.225 1.725
-70.575 103.575 -0.525
-70.275 104.175 2.025
-70.275 104.175 -0.375
-70.275 104.175 2.625
-70.275 102.375 2.175
-70.275 102.375 -0.225
-68.925 104.475 0.975
-69.825 104.475 2.175
-70.575 103.725 2.475
-70.575 102.825 2.775
-69.825 102.075 2.325
-70.125 104.325 3.525
-70.125 104.325 2.775
-70.425 104.025 2.475
-70.125 102.225 2.025
-70.125 102.225 2.325
-69.975 102.075 2.025
-69.975 102.075 2.475
-69.975 102.075 1.575
-70.575 102.675 0.225
-70.575 102.675 3.525
-69.375 104.625 2.175
-70.725 103.275 -0.075
-69.375 101.925 -0.075
-70.725 103.425 -0.975
-70.725 103.425 0.075
-70.725 103.125 -0.075
-70.725 103.125 2.925
-69.525 101.925 1.725
-70.425 104.175 -0.225
-70.725 102.975 2.475
-70.275 104.325 0.375
-69.675 101.925 2.025
-70.275 102.225 2.475
-70.575 104.025 2.475
-70.125 102.075 1.875
-70.575 104.025 2.625
-70.725 103.725 2.325
-70.725 103.725 -0.375
-70.725 103.725 2.625
-70.725 103.725 -0.975
-70.725 103.725 2.775
-69.825 104.625 3.375
-69.825 104.625 3.075
-69.825 101.925 3.075
-70.725 103.875 0.375
-68.775 104.625 1.875
-70.725 103.875 -0.375
-70.425 104.325 0.225
-70.425 104.325 3.375
-70.425 104.325 -0.675
-70.425 102.225 -0.375
-70.425 102.225 3.075
-68.475 104.475 0.525
-70.275 104.475 2.025
-70.575 104.175 -0.525
-70.575 104.175 0.075
-69.375 104.775 2.775
-69.375 104.775 3.075
-70.275 102.075 2.175
-70.575 102.375 2.775
-70.575 102.375 3.075
-70.275 102.075 2.025
-70.875 103.425 0.075
-70.875 103.125 2.625
-70.875 103.125 -0.075
-69.225 104.775 2.325
-69.225 104.775 2.025
-67.875 103.125 4.725
-70.875 103.125 -1.125
-69.075 101.775 4.275
-69.075 101.775 3.675
-69.075 104.775 1.575
-69.675 101.775 2.025
-70.875 103.575 -0.675
-69.675 101.775 1.275
-70.875 102.975 -0.675
-70.875 102.975 0.975
-70.725 104.025 -0.525
-70.125 104.625 -0.525
-70.725 102.525 2.175
-70.725 104.025 -0.075
-70.125 101.925 2.475
-70.875 103.725 0.375
-69.825 101.775 2.175
-69.825 101.775 1.275
-69.825 101.775 2.325
-70.875 102.825 -0.975
-70.425 102.075 2.175
-70.425 102.075 2.625
-70.575 102.225 2.175
-70.575 102.225 2.775
-70.575 102.225 3.075
-70.875 103.875 0.525
-69.975 101.775 2.325
-70.875 102.675 2.775
-70.725 102.375 2.475
-70.725 102.375 2.925
-70.725 102.375 3.225
-70.275 101.925 2.475
-70.275 101.925 2.025
-69.375 104.925 3.825
-69.375 104.925 2.325
-69.375 104.925 3.525
-69.525 104.925 3.225
-69.525 104.925 3.375
-71.025 103.425 -0.225
-71.025 103.125 -0.375
-69.225 101.625 3.975
-71.025 103.125 -0.525
-71.025 103.125 -0.075
-69.675 104.925 3.675
-69.075 104.925 1.875
-69.075 104.925 2.625
-70.875 102.525 3.375
-70.125 104.775 3.075
-70.875 102.525 2.775
-70.125 104.775 -0.525
-70.125 101.775 0.375
-70.875 104.025 0.075
-69.675 101.625 2.175
-71.025 102.975 0.075
-70.575 104.475 -0.375
-70.575 102.075 2.475
-69.825 104.925 3.225
-68.925 104.925 1.425
-68.925 104.925 2.025
-70.725 104.325 -0.375
-70.425 104.625 3.225
-71.025 103.725 0.375
-71.025 103.725 2.475
-70.725 102.225 2.925
-70.725 102.225 2.775
-70.425 101.925 2.175
-71.025 102.825 -0.375
-70.875 104.175 -0.225
-70.875 104.175 -0.525
-70.275 101.775 2.475
-70.275 101.775 0.675
-68.775 104.925 1.575
-71.025 103.875 0.825
-71.025 103.875 -0.525
-71.025 103.875 -0.375
-69.975 101.625 3.375
-69.975 101.625 1.125
-71.025 102.675 -0.075
-71.025 102.675 -0.375
-69.375 105.075 2.175
-71.175 103.275 -0.225
-69.375 105.075 3.825
-70.725 104.475 3.975
-70.725 104.475 0.375
-70.725 104.475 -0.075
-71.175 103.425 -0.525
-69.225 105.075 3.375
-71.175 103.125 -0.375
-69.525 105.075 0.525
-69.525 105.075 3.825
-69.225 105.075 2.475
-69.225 105.075 2.625
-69.525 105.075 3.675
-70.725 102.075 -0.375
-70.725 102.075 2.925
-70.725 102.075 0.525
-70.725 102.075 2.025
-70.725 102.075 -0.075
-69.225 105.075 3.075
-69.525 105.075 2.175
-70.575 101.925 2.625
-70.125 104.925 0.075
-70.125 101.625 2.175
-71.025 102.525 0.075
-71.025 104.025 0.075
-70.125 101.625 2.475
-70.125 101.625 1.125
-71.175 103.575 -0.375
-71.175 102.975 -0.075
-71.175 102.975 2.775
-69.675 101.475 1.275
-69.675 101.475 1.425
-70.875 104.325 -0.075
-70.425 101.775 1.575
-70.425 104.775 0.975
-70.425 101.775 2.175
-70.875 102.225 -0.225
-70.875 102.225 -0.075
-71.175 103.725 -2.325
-71.175 102.825 -1.425
-68.925 105.075 1.425
-69.825 105.075 2.025
-71.175 102.825 2.625
-68.925 105.075 1.725
-69.825 101.475 1.275
-69.825 101.475 1.575
-69.825 101.475 1.125
-70.275 104.925 0.225
-68.475 104.925 2.475
-71.025 104.175 2.325
-70.275 101.625 2.025
-68.775 105.075 0.825
-71.175 103.875 0.825
-68.775 105.075 1.425
-69.975 105.075 3.225
-71.175 102.675 2.775
-69.975 101.475 0.675
-70.725 104.625 3.975
-68.025 104.625 1.875
-70.725 104.625 3.675
-70.725 101.925 2.475
-70.725 101.925 2.625
-70.725 101.925 -0.525
-70.875 102.075 -0.075
-70.575 101.775 1.125
-70.875 102.075 3.675
-70.875 102.075 -0.225
-70.575 101.775 -0.075
-70.875 102.075 2.775
-71.175 102.525 -1.275
-70.125 105.075 -0.375
-71.175 102.525 -0.225
-71.325 103.275 -2.175
-70.125 101.475 2.025
-69.225 105.225 1.875
-70.425 104.925 -0.225
-71.325 103.125 0.075
-71.325 103.125 -0.225
-71.025 102.225 -1.125
-71.025 102.225 -0.525
-71.325 103.575 0.225
-69.675 101.325 2.175
-69.675 101.325 1.425
-71.325 102.975 -0.225
-69.825 105.225 3.525
-68.925 105.225 1.425
-68.925 105.225 3.075
-68.925 105.225 1.575
-71.325 102.825 -0.975
-71.325 102.825 -0.225
-71.325 102.825 0.075
-71.175 104.175 0.675
-71.175 104.175 -0.375
-70.275 105.075 -0.075
-70.725 104.775 0.825
-70.725 101.775 2.325
-70.725 101.775 2.025
-70.725 101.775 2.475
-70.875 104.625 -0.075
-70.875 104.625 4.125
-70.725 101.775 -0.825
-70.875 101.925 3.075
-70.875 101.925 3.825
-70.875 101.925 -0.525
-70.875 101.925 2.475
-68.775 105.225 1.275
-71.025 104.475 -1.425
-69.975 101.325 1.275
-70.575 101.625 2.475
-70.575 101.625 1.275
-70.575 101.625 1.875
-71.025 102.075 -0.075
-70.575 101.625 1.575
-71.025 102.075 -0.375
-71.175 104.325 -1.425
-71.175 104.325 -0.225
-71.175 104.325 -0.075
-68.325 105.075 1.425
-71.175 102.225 0.075
-71.175 102.225 3.375
-70.425 101.475 2.175
-71.325 104.025 0.225
-71.325 104.025 0.825
-71.325 102.525 -0.225
-71.325 104.025 -0.225
-70.125 101.325 2.325
-71.325 104.025 1.425
-69.375 105.375 2.775
-71.475 103.275 0.825
-71.475 103.425 0.825
-71.475 103.425 1.425
-71.475 103.425 0.525
-69.525 105.375 0.225
-69.525 105.375 3.075
-71.475 103.125 -2.175
-71.475 103.125 0.375
-71.475 103.125 0.825
-69.525 101.175 1.125
-69.225 101.175 1.575
-71.475 103.575 0.825
-71.475 103.575 1.275
-69.075 105.375 2.025
-70.875 101.775 -1.275
-69.675 101.175 1.125
-70.725 101.625 2.175
-71.025 104.625 -0.075
-71.025 101.925 -0.975
-71.025 101.925 3.375
-71.475 103.725 1.425
-70.275 105.225 3.375
-70.275 105.225 0.675
-68.925 105.375 2.175
-69.825 105.375 -0.675
-68.925 105.375 3.075
-71.325 104.175 -0.075
-71.325 104.175 0.225
-71.325 102.375 -0.525
-71.325 102.375 -0.075
-68.925 101.175 5.025
-71.175 104.475 0.075
-68.775 105.375 2.775
-69.975 105.375 -0.225
-69.975 101.175 1.725
-70.425 101.325 2.325
-71.325 104.325 -0.075
-71.325 104.325 0.075
-70.425 101.325 1.425
-71.325 104.325 0.825
-71.325 104.325 0.975
-71.325 104.325 0.225
-71.325 104.325 0.525
-71.325 104.325 1.275
-71.325 102.225 -0.225
-70.125 105.375 2.775
-71.025 101.775 -0.825
-71.025 101.775 2.925
-71.025 101.775 -0.225
-71.025 104.775 -0.075
-70.125 101.175 1.425
-70.125 101.175 1.875
-70.125 101.175 1.275
-71.175 104.625 -0.225
-70.725 105.075 4.425
-70.725 105.075 -0.825
-71.175 104.625 -0.375
-69.375 105.525 2.625
-70.725 101.475 2.175
-70.725 101.475 -0.525
-70.725 101.475 3.375
-71.625 103.425 -0.375
-71.625 103.425 0.225
-71.625 103.425 0.975
-71.625 103.425 1.425
-71.625 103.425 0.825
-69.525 105.525 2.925
-69.225 105.525 2.625
-69.225 105.525 2.175
-69.225 105.525 2.925
-71.625 103.125 1.275
-71.625 103.125 -0.675
-71.625 103.125 1.425
-71.625 103.125 -0.225
-71.625 103.125 0.825
-69.075 101.025 2.025
-71.625 103.575 0.225
-71.625 103.575 0.825
-71.625 102.975 -1.575
-71.625 102.975 0.825
-71.625 102.975 0.525
-71.625 102.975 -0.525
-71.625 102.975 0.075
-71.475 104.175 0.825
-71.475 104.175 -0.075
-71.475 104.175 1.275
-71.475 104.175 0.525
-70.275 105.375 2.175
-71.475 102.375 0.075
-71.475 102.375 -0.075
-71.475 102.375 0.675
-70.275 105.375 2.625
-68.475 105.375 2.325
-70.275 101.175 1.725
-71.325 104.475 3.375
-71.325 104.475 1.275
-71.325 104.475 -0.375
-71.325 102.075 0.075
-71.325 102.075 2.925
-71.325 102.075 -0.375
-71.325 102.075 -0.975
-71.625 103.725 0.525
-71.625 103.725 0.825
-71.625 103.725 0.075
-71.625 103.725 2.325
-71.625 103.725 4.125
-69.825 101.025 1.725
-68.925 105.525 1.575
-71.625 102.825 -0.075
-69.975 101.025 1.875
-69.975 101.025 1.575
-69.975 105.525 2.175
-68.775 105.525 3.225
-68.775 105.525 1.725
-69.975 105.525 2.925
-68.775 105.525 2.625
-68.775 105.525 2.175
-71.625 103.875 -0.375
-68.775 105.525 0.375
-71.625 102.675 2.775
-71.625 102.675 1.425
-71.025 104.925 0.825
-71.025 104.925 -0.675
-67.725 104.925 2.625
-71.025 101.625 1.575
-71.025 101.625 2.925
-71.175 104.775 4.125
-71.175 101.775 3.225
-71.175 101.775 -0.225
-70.875 101.475 2.775
-71.475 104.325 -0.075
-71.475 104.325 3.075
-70.425 105.375 3.825
-71.475 102.225 -0.525
-70.425 101.175 2.025
-70.425 101.175 1.725
-71.325 104.625 0.075
-71.325 104.625 0.225
-71.325 104.625 -0.375
-71.325 104.625 1.425
-70.725 101.325 2.925
-68.625 101.025 3.225
-71.625 102.525 1.425
-70.125 101.025 2.325
-70.125 101.025 1.725
-71.625 102.525 0.825
-71.625 102.525 0.525
-71.625 102.525 1.275
-71.325 101.925 3.825
-71.775 103.275 -0.825
-71.775 103.275 0.825
-69.225 105.675 2.925
-69.525 105.675 2.925
-71.775 103.425 -0.825
-71.775 103.425 -0.975
-71.775 103.425 1.275
-71.775 103.425 0.825
-71.775 103.125 0.075
-71.775 103.125 0.525
-71.775 103.125 0.825
-71.475 104.475 0.075
-71.475 104.475 0.825
-71.475 104.475 -0.225
-71.475 104.475 3.075
-71.475 104.475 -0.525
-71.475 102.075 -0.225
-71.475 102.075 3.975
-70.575 105.375 2.325
-71.475 102.075 3.225
-71.775 103.575 0.525
-71.775 103.575 0.825
-71.775 103.575 0.375
-71.775 103.575 0.975
-71.775 103.575 1.725
-71.775 102.975 0.975
-71.775 102.975 0.075
-70.575 101.175 2.325
-70.575 101.175 2.475
-70.575 101.175 2.625
-71.625 104.175 -0.225
-70.275 105.525 -0.225
-70.275 105.525 -0.375
-70.275 101.025 1.425
-70.275 101.025 2.175
-71.625 102.375 0.825
-71.625 102.375 3.225
-70.275 101.025 2.925
-69.825 105.675 0.975
-71.025 105.075 0.825
-71.175 101.625 2.925
-71.175 101.625 -1.425
-71.175 101.625 -0.225
-71.775 103.725 0.225
-69.825 100.875 0.825
-69.825 100.875 2.025
-71.775 102.825 0.825
-71.775 102.825 0.375
-71.025 101.475 -0.375
-67.875 105.225 2.625
-71.325 104.775 1.875
-70.875 101.325 1.875
-71.325 104.775 -0.525
-70.875 101.325 3.075
-70.875 101.325 4.425
-71.325 101.775 -0.675
-68.775 105.675 2.025
-69.975 100.875 1.425
-71.775 103.875 0.225
-71.775 103.875 0.825
-71.775 102.675 0.825
-70.425 105.525 2.775
-71.625 104.325 0.075
-70.425 101.025 2.175
-70.425 101.025 1.875
-71.625 102.225 -0.375
-71.475 104.625 0.225
-71.475 104.625 0.825
-70.725 105.375 -0.825
-68.625 105.675 1.725
-70.125 105.675 2.925
-70.125 100.875 1.275
-71.775 102.525 -0.075
-71.775 102.525 -0.375
-71.775 104.025 -0.375
-71.175 105.075 1.275
-71.175 105.075 0.825
-71.175 105.075 1.425
-71.175 105.075 0.525
-71.175 105.075 -0.375
-69.375 105.825 2.925
-71.925 103.275 3.525
-71.625 102.075 0.225
-70.575 101.025 2.325
-71.025 105.225 0.525
-67.725 105.225 2.175
-67.725 105.225 2.775
-71.925 103.425 0.975
-71.325 104.925 4.125
-71.325 104.925 0.975
-69.225 105.825 2.775
-69.225 105.825 1.425
-67.425 101.625 2.925
-71.325 101.625 5.475
-71.325 101.625 -0.825
-71.025 101.325 2.775
-69.225 100.725 2.625
-70.275 105.675 1.125
-68.475 105.675 1.575
-68.475 105.675 0.825
-71.775 104.175 0.975
-71.775 104.175 0.075
-70.275 100.875 1.875
-71.775 102.375 0.975
-71.775 102.375 0.225
-70.275 100.875 1.125
-69.075 105.825 2.175
-69.675 105.825 4.125
-71.925 102.975 0.975
-71.925 102.975 -0.825
-69.675 100.725 2.025
-69.675 100.725 1.275
-71.475 101.775 2.925
-71.475 101.775 -0.975
-71.475 101.775 2.625
-70.875 101.175 0.075
-70.875 101.175 3.075
-70.875 101.175 2.775
-71.925 103.725 -0.975
-68.925 105.825 1.875
-68.925 105.825 1.275
-69.825 105.825 0.825
-69.825 100.725 0.825
-68.775 105.825 2.175
-68.775 105.825 2.475
-68.775 105.825 1.875
-71.925 103.875 2.925
-71.925 103.875 0.525
-69.975 105.825 2.775
-68.325 100.875 2.625
-70.425 100.875 2.325
-71.775 102.225 0.825
-71.775 102.225 0.075
-71.775 102.225 0.225
-70.725 105.525 0.825
-70.725 105.525 0.225
-71.625 101.925 2.925
-71.175 105.225 1.125
-71.175 105.225 0.225
-71.175 105.225 1.425
-71.175 105.225 1.275
-71.175 105.225 0.825
-71.325 105.075 -0.525
-71.175 101.325 1.125
-71.175 101.325 -0.375
-71.925 102.525 0.825
-70.125 105.825 1.875
-70.125 100.725 0.075
-70.125 100.725 2.475
-71.025 105.375 -3.075
-71.025 101.175 -0.675
-68.175 105.675 2.025
-71.775 102.075 -0.075
-71.775 102.075 0.825
-71.775 102.075 -1.575
-70.575 100.875 1.275
-70.575 100.875 1.575
-70.575 100.875 3.075
-69.225 105.975 1.875
-71.925 104.175 -0.525
-70.275 105.825 3.075
-71.925 102.375 1.125
-71.925 102.375 0.825
-71.625 104.775 0.825
-71.625 101.775 1.125
-70.875 101.025 3.075
-71.625 101.775 -0.975
-67.875 105.525 4.725
-72.075 103.425 -0.525
-70.275 100.725 0.975
-70.275 100.725 2.175
-70.275 100.725 1.875
-70.275 100.725 1.125
-69.075 105.975 2.475
-69.075 105.975 -0.375
-69.675 100.575 0.225
-72.075 103.575 3.825
-72.075 103.575 -0.825
-72.075 103.575 -0.675
-69.825 105.975 3.675
-68.925 105.975 2.175
-72.075 102.825 -0.675
-70.725 105.675 -0.825
-68.025 105.675 1.575
-71.775 101.925 0.525
-71.775 101.925 0.825
-71.325 105.225 0.825
-71.325 105.225 0.225
-68.325 105.825 -1.575
-71.925 104.325 1.725
-70.425 105.825 3.825
-68.325 105.825 3.675
-71.925 102.225 1.275
-71.925 102.225 0.825
-71.925 102.225 4.125
-70.425 100.725 1.125
-69.975 105.975 -0.375
-68.775 105.975 2.325
-68.775 105.975 1.875
-71.175 105.375 -0.225
-71.175 105.375 0.975
-69.975 100.575 1.425
-72.075 103.875 -0.825
-72.075 102.675 -0.525
-71.625 101.625 -0.375
-71.625 101.625 -0.675
-71.625 101.625 0.075
-71.625 101.625 3.225
-71.025 105.525 0.975
-71.025 105.525 0.525
-71.025 105.525 -0.225
-68.625 105.975 2.025
-70.125 105.975 2.775
-70.125 100.575 2.625
-70.125 100.575 1.125
-70.125 100.575 2.775
-72.075 102.525 0.825
-72.075 102.525 0.075
-72.075 102.525 0.225
-72.075 102.525 0.375
-72.075 104.025 0.975
-68.175 105.825 1.575
-71.925 102.075 0.825
-71.925 102.075 1.425
-71.925 102.075 1.275
-70.875 105.675 -0.225
-70.875 105.675 4.875
-70.875 105.675 0.825
-71.775 104.775 7.725
-70.275 105.975 3.825
-68.475 105.975 2.175
-70.275 105.975 2.625
-70.275 100.575 2.625
-72.225 103.275 2.775
-69.525 106.125 2.325
-71.475 105.225 -0.225
-69.675 106.125 2.475
-69.675 106.125 2.625
-72.225 103.575 2.025
-72.225 102.975 -0.975
-71.325 105.375 0.525
-71.325 105.375 0.825
-71.475 101.325 -0.075
-69.075 100.425 1.125
-71.325 101.175 -0.525
-71.175 105.525 0.975
-71.625 101.475 -0.225
-71.625 101.475 -0.975
-72.225 103.725 4.425
-68.925 106.125 2.175
-68.925 106.125 3.225
-69.825 106.125 3.825
-69.825 106.125 3.225
-69.825 106.125 3.075
-68.925 106.125 2.625
-71.925 104.625 -0.675
-71.925 104.625 0.975
-71.925 101.925 0.825
-71.925 101.925 1.425
-71.925 101.925 1.275
-69.825 100.425 1.275
-69.825 100.425 2.625
-68.325 105.975 2.175
-68.325 105.975 1.875
-70.425 105.975 2.925
-70.425 100.575 0.975
-72.075 102.225 0.075
-72.075 102.225 0.825
-68.775 106.125 1.875
-72.225 103.875 3.975
-71.025 105.675 1.275
-71.025 105.675 0.975
-71.025 105.675 0.225
-71.025 105.675 0.375
-71.025 105.675 1.425
-72.225 102.675 1.875
-71.775 104.925 1.425
-71.775 101.625 0.075
-71.775 101.625 -1.275
-71.025 100.875 2.625
-71.775 101.625 0.825
-68.625 106.125 2.475
-68.625 106.125 1.725
-72.225 104.025 0.975
-72.225 104.025 2.325
-68.625 106.125 2.025
-70.125 100.425 2.625
-70.125 100.425 0.825
-70.575 105.975 0.225
-68.175 105.975 2.325
-70.575 100.575 2.025
-72.075 102.075 0.825
-71.925 101.775 0.825
-71.925 101.775 -0.375
-70.875 105.825 0.825
-70.875 105.825 0.075
-70.875 105.825 1.125
-70.875 100.725 2.325
-71.475 105.375 0.075
-71.475 105.375 -0.075
-71.475 101.175 7.275
-71.625 101.325 0.525
-71.325 105.525 0.525
-72.225 104.175 3.675
-70.275 106.125 -0.525
-70.275 106.125 -0.375
-68.475 106.125 2.025
-68.475 106.125 1.725
-72.225 102.375 0.225
-72.225 102.375 0.375
-70.275 100.425 0.825
-71.175 105.675 -0.225
-71.175 105.675 -0.375
-71.175 105.675 0.975
-69.375 106.275 2.325
-71.775 105.075 1.275
-71.775 105.075 0.375
-71.775 101.475 0.825
-71.775 101.475 -0.225
-72.375 103.425 2.025
-69.675 106.275 3.075
-69.675 106.275 -0.975
-69.075 106.275 2.475
-69.075 106.275 3.375
-69.075 106.275 3.075
-72.375 103.575 1.275
-68.025 105.975 2.325
-68.025 105.975 1.875
-72.075 104.625 -0.225
-72.075 101.925 2.325
-72.075 101.925 1.425
-72.075 101.925 3.825
-72.075 101.925 1.275
-72.075 101.925 0.825
-72.075 101.925 0.525
-72.075 101.925 0.975
-72.375 103.725 2.325
-72.375 102.825 -0.375
-68.925 106.275 2.475
-70.425 106.125 3.825
-72.225 104.325 2.175
-68.325 106.125 2.175
-68.325 106.125 1.875
-72.225 102.225 3.375
-72.225 102.225 3.525
-71.025 105.825 1.275
-71.925 101.625 3.975
-70.425 100.425 2.175
-70.425 100.425 1.875
-71.025 100.725 3.525
-71.025 100.725 2.925
-71.025 100.725 2.325
-71.025 100.725 2.475
-72.375 103.875 0.075
-72.375 103.875 -1.425
-72.375 103.875 2.175
-69.975 100.275 2.175
-68.775 106.275 2.475
-71.475 101.025 3.375
-71.475 101.025 -0.075
-67.275 101.025 0.675
-71.625 105.375 0.675
-71.625 101.175 0.975
-71.625 101.175 0.075
-70.875 105.975 0.825
-70.875 100.575 2.325
-72.075 104.775 -0.525
-72.075 101.775 1.725
-72.075 101.775 0.975
-72.075 101.775 1.275
-72.075 101.775 0.825
-68.175 106.125 1.875
-68.625 106.275 2.025
-68.625 106.275 1.875
-70.575 100.425 1.725
-70.575 100.425 0.525
-71.925 105.075 0.675
-71.175 105.825 0.975
-71.925 101.475 -0.375
-71.925 101.475 -0.075
-72.375 104.175 0.675
-68.475 106.275 1.875
-68.475 106.275 2.025
-68.475 106.275 3.375
-68.475 106.275 2.325
-70.275 100.275 1.425
-70.275 100.275 1.875
-70.275 100.275 1.125
-70.275 100.275 2.175
-69.375 106.425 2.625
-69.375 106.425 2.325
-72.525 103.275 0.675
-69.525 106.425 2.475
-69.225 106.425 1.425
-70.725 106.125 2.025
-68.025 106.125 2.325
-68.025 106.125 2.625
-68.025 106.125 2.025
-72.225 101.925 4.125
-70.725 100.425 2.025
-72.525 103.425 2.325
-72.525 103.425 0.825
-72.525 103.125 2.475
-69.675 106.425 -4.125
-69.675 106.425 -0.975
-71.025 105.975 0.225
-71.025 105.975 0.825
-71.025 105.975 1.425
-71.025 105.975 0.375
-71.025 105.975 0.525
-71.025 105.975 1.275
-72.525 103.575 2.775
-71.025 100.575 3.225
-71.025 100.575 0.375
-71.025 100.575 2.625
-72.075 101.625 0.525
-72.075 101.625 0.825
-72.075 101.625 1.425
-72.525 102.975 2.325
-70.425 100.275 2.325
-70.425 100.275 1.875
-68.325 106.275 1.875
-70.425 106.275 1.425
-70.425 106.275 -0.525
-70.425 100.275 2.175
-70.425 100.275 2.475
-69.825 106.425 2.775
-69.825 106.425 2.175
-71.625 101.025 -1.425
-71.625 105.525 0.375
-71.625 105.525 0.225
-72.525 102.825 -0.525
-72.525 102.825 -0.225
-71.475 105.675 5.025
-71.775 105.375 0.225
-69.975 106.425 -0.675
-72.525 103.875 2.475
-69.975 100.125 1.125
-69.975 100.125 2.325
-72.525 102.675 -0.225
-72.525 102.675 -0.525
-72.225 104.775 2.625
-72.225 104.775 2.325
-72.225 101.775 0.975
-72.225 101.775 1.425
-72.225 101.775 0.825
-70.875 106.125 0.675
-70.875 106.125 0.975
-67.875 106.125 2.475
-70.875 100.425 -1.125
-70.575 100.275 1.575
-68.175 106.275 3.075
-68.175 106.275 0.375
-70.575 100.275 3.525
-70.575 100.275 1.275
-70.575 100.275 1.725
-70.575 100.275 1.875
-70.575 106.275 0.075
-70.125 106.425 2.475
-68.625 106.425 2.175
-72.525 104.025 2.325
-72.525 102.525 -0.225
-72.525 102.525 0.075
-71.175 105.975 0.975
-71.175 100.575 2.925
-71.175 100.575 2.175
-71.175 100.575 2.625
-72.075 105.075 3.225
-72.075 105.075 2.775
-70.275 106.425 4.275
-68.475 106.425 1.875
-68.475 106.425 0.975
-72.525 104.175 -0.525
-72.525 102.375 -0.375
-70.275 100.125 1.275
-70.275 100.125 1.425
-70.725 100.275 0.975
-72.375 104.625 0.975
-70.725 106.275 1.575
-72.375 101.925 3.675
-72.375 101.925 0.975
-71.775 101.025 -0.525
-71.625 100.875 0.075
-71.625 100.875 -1.125
-71.625 100.875 3.225
-71.775 105.525 1.725
-71.775 101.025 -2.025
-71.775 101.025 0.075
-71.775 101.025 0.225
-71.025 106.125 3.675
-71.025 106.125 0.975
-72.225 101.625 -0.525
-71.025 100.425 1.425
-71.025 100.425 2.175
-71.025 100.425 1.875
-72.675 103.275 2.175
-71.475 105.825 -0.375
-71.475 105.825 -0.075
-72.675 103.425 3.525
-72.675 103.125 1.875
-69.525 106.575 2.325
-69.525 106.575 2.625
-69.225 106.575 2.925
-71.925 101.175 -0.375
-71.475 100.725 -0.675
-71.475 100.725 2.925
-72.675 103.575 0.075
-69.675 106.575 4.875
-69.075 106.575 2.775
-68.325 106.425 2.025
-70.425 106.425 -0.225
-70.425 100.125 0.975
-70.425 100.125 2.175
-70.425 100.125 2.625
-70.425 100.125 1.875
-71.325 105.975 3.675
-68.925 106.575 2.325
-68.925 106.575 2.625
-71.325 100.575 -0.375
-71.325 100.575 -0.225
-72.075 101.325 -0.375
-72.675 103.875 5.025
-68.775 106.575 1.875
-72.675 102.675 2.025
-70.875 100.275 1.875
-70.875 100.275 2.475
-70.875 100.275 0.825
-70.875 106.275 1.425
-70.875 106.275 0.975
-72.375 104.775 -2.325
-72.375 101.775 0.825
-69.975 99.975 2.325
-68.175 106.425 2.775
-71.175 106.125 0.525
-72.225 105.075 -0.525
-72.225 105.075 -0.675
-72.225 101.475 1.425
-72.225 101.475 0.825
-72.225 101.475 1.275
-72.525 102.075 3.525
-72.525 102.075 0.375
-70.575 100.125 1.575
-72.675 104.025 -0.225
-70.125 106.575 -0.075
-70.125 106.575 -0.375
-68.625 106.575 1.875
-68.625 106.575 2.325
-71.775 105.675 2.775
-71.775 100.875 -0.075
-71.775 100.875 3.075
-71.625 105.825 2.775
-71.925 101.025 -0.525
-71.625 100.725 -0.975
-71.625 100.725 2.625
-71.625 100.725 -0.375
-71.475 105.975 4.125
-71.475 105.975 2.175
-71.475 100.575 3.075
-70.275 106.575 0.075
-72.075 105.375 2.775
-72.075 105.375 2.625
-68.475 106.575 1.425
-68.475 106.575 2.025
-70.275 99.975 2.325
-71.025 106.275 0.975
-72.375 101.625 0.825
-71.025 100.275 3.225
-71.025 100.275 3.825
-71.025 100.275 1.425
-70.725 106.425 0.525
-70.725 106.425 2.925
-72.525 104.625 3.975
-70.725 100.125 1.725
-70.725 100.125 1.425
-72.525 101.925 -1.125
-69.375 106.725 2.025
-72.825 103.275 0.825
-72.825 103.275 2.325
-69.225 106.725 2.475
-69.525 106.725 2.175
-69.225 106.725 2.775
-72.225 105.225 2.775
-71.325 106.125 0.975
-71.325 106.125 0.075
-72.225 101.325 0.825
-72.225 101.325 0.525
-71.325 100.425 2.775
-71.325 100.425 2.625
-69.675 106.725 3.225
-69.675 99.825 -2.025
-72.825 103.575 2.475
-72.825 103.575 -0.075
-70.425 99.975 2.175
-70.425 99.975 1.275
-68.925 106.725 2.325
-70.875 106.425 0.075
-70.875 106.425 1.575
-70.875 100.125 2.325
-72.525 104.775 -2.775
-72.525 104.775 3.525
-72.525 101.775 -0.075
-71.175 106.275 3.975
-71.175 106.275 -0.225
-72.375 105.075 2.025
-72.375 101.475 -0.675
-71.925 105.675 2.025
-71.775 105.825 2.775
-72.825 102.675 -0.525
-71.775 100.725 0.075
-71.775 100.725 2.925
-72.675 102.075 0.075
-72.675 102.075 -0.225
-70.575 106.575 0.825
-70.575 99.975 0.825
-70.575 99.975 1.725
-70.575 99.975 1.275
-71.625 105.975 -0.225
-72.075 101.025 -0.075
-71.625 100.575 -0.675
-71.625 100.575 2.325
-71.625 100.575 3.225
-70.125 106.725 0.075
-70.125 106.725 -0.075
-68.625 106.725 2.175
-72.825 102.525 -0.225
-72.825 102.525 -0.525
-72.825 102.525 0.375
-71.475 106.125 -0.675
-71.475 106.125 2.475
-71.475 106.125 1.725
-72.225 105.375 1.875
-72.225 105.375 -2.175
-71.475 100.425 -0.525
-71.475 100.425 -0.675
-71.475 100.425 -0.975
-71.025 106.425 0.975
-71.025 106.425 -1.275
-72.525 104.925 2.925
-72.525 104.925 3.525
-71.025 100.125 2.325
-71.025 100.125 2.025
-71.025 100.125 2.625
-72.525 101.625 4.125
-70.275 106.725 -0.225
-70.275 106.725 -0.975
-68.475 106.725 1.575
-72.675 104.625 1.425
-72.825 102.375 1.125
-70.275 99.825 1.275
-70.725 99.975 1.725
-70.725 99.975 2.475
-70.725 99.975 2.625
-70.725 99.975 2.325
-71.325 106.275 0.075
-71.325 106.275 2.475
-72.375 101.325 0.975
-71.325 100.275 2.625
-69.375 106.875 3.375
-69.375 106.875 2.475
-69.525 106.875 2.475
-69.525 106.875 2.325
-69.225 106.875 2.775
-69.225 106.875 2.925
-72.975 103.125 2.325
-70.425 106.725 4.125
-71.925 105.825 -0.225
-70.425 99.825 1.575
-70.425 99.825 0.825
-71.925 100.725 -0.075
-71.925 100.725 -0.525
-72.975 103.575 4.125
-72.075 105.675 2.475
-69.675 99.675 0.975
-70.875 106.575 -0.525
-70.875 106.575 -0.225
-70.875 106.575 0.675
-72.675 101.775 -1.275
-70.875 99.975 2.925
-70.875 99.975 1.725
-70.875 99.975 1.575
-70.875 99.975 1.425
-71.175 106.425 -0.375
-71.175 106.425 0.975
-69.825 106.875 0.075
-71.175 100.125 2.475
-71.175 100.125 1.875
-72.525 105.075 4.275
-71.625 106.125 -0.525
-72.225 101.025 0.975
-72.225 105.525 -0.225
-71.625 100.425 3.075
-71.625 100.425 3.225
-71.625 100.425 -0.225
-68.775 106.875 2.175
-72.975 103.875 3.675
-70.575 106.725 0.825
-70.575 106.725 -0.075
-70.575 99.825 0.975
-70.575 99.825 -0.525
-70.575 99.825 3.225
-70.575 99.825 2.175
-71.475 106.275 1.725
-71.475 106.275 -0.075
-72.375 105.375 0.525
-72.375 105.375 4.125
-72.375 101.175 -0.825
-72.375 101.175 -0.675
-68.625 106.875 1.725
-70.125 106.875 0.675
-70.125 106.875 3.225
-70.125 106.875 -0.525
-72.975 102.525 0.075
-70.125 99.675 0.975
-72.675 101.625 3.375
-71.025 99.975 2.325
-71.025 99.975 1.425
-68.025 106.725 1.875
-70.725 106.725 -0.075
-70.725 106.725 0.375
-70.725 106.725 2.925
-68.025 106.725 2.175
-70.725 99.825 1.125
-70.725 99.825 3.525
-70.725 99.825 1.875
-71.325 100.125 2.775
-72.525 101.325 -0.525
-72.525 101.325 0.075
-68.475 106.875 2.325
-70.275 99.675 0.975
-70.275 99.675 2.325
-71.925 105.975 2.775
-72.075 105.825 -0.675
-72.075 105.825 2.475
-72.075 105.825 2.325
-71.925 100.575 -0.525
-72.225 105.675 1.875
-71.775 106.125 -0.525
-72.225 100.875 0.975
-72.225 100.875 0.075
-71.775 100.425 0.225
-71.775 100.425 0.375
-68.325 106.875 2.325
-68.325 106.875 3.375
-67.125 106.275 3.225
-69.375 107.025 2.175
-69.375 107.025 2.475
-72.375 105.525 2.025
-72.375 105.525 -0.075
-72.375 101.025 0.975
-72.375 101.025 -0.525
-73.125 103.275 1.125
-70.425 99.675 1.875
-70.425 99.675 2.325
-70.425 99.675 0.975
-70.425 99.675 1.575
-69.225 107.025 2.325
-73.125 103.125 2.475
-72.675 105.075 3.825
-71.175 106.575 -0.075
-71.175 106.575 -0.375
-71.175 106.575 0.975
-72.675 101.475 -0.975
-69.075 107.025 2.475
-69.075 107.025 2.775
-69.675 107.025 0.225
-69.675 107.025 3.825
-73.125 102.975 1.875
-73.125 102.975 2.325
-70.875 99.825 1.725
-73.125 103.725 2.325
-73.125 102.825 2.475
-69.825 99.525 2.025
-71.475 106.425 -0.375
-67.275 106.425 -1.425
-72.525 105.375 2.625
-72.525 105.375 2.925
-71.475 100.125 -1.275
-72.975 104.475 0.975
-70.575 106.875 0.825
-70.575 106.875 0.975
-70.575 106.875 2.325
-70.575 99.675 2.775
-70.575 99.675 3.075
-69.975 107.025 0.225
-69.975 107.025 3.825
-73.125 103.875 2.625
-73.125 103.875 2.325
-72.075 100.575 2.625
-72.075 100.575 0.975
-72.075 100.575 -0.075
-72.225 105.825 2.325
-72.225 105.825 2.475
-68.625 107.025 2.475
-70.125 107.025 0.525
-73.125 104.025 2.325
-73.125 104.025 2.475
-72.225 100.725 -0.375
-72.225 100.725 0.975
-72.825 101.625 2.025
-72.375 105.675 2.925
-72.375 105.675 2.025
-66.975 106.275 3.375
-72.375 100.875 0.975
-72.375 100.875 3.675
-71.775 100.275 -0.525
-72.375 100.875 0.225
-72.375 100.875 0.675
-72.375 100.875 0.075
-72.375 100.875 1.425
-72.375 100.875 -0.225
-72.375 100.875 1.125
-70.725 106.875 1.425
-68.025 106.875 -3.225
-68.025 106.875 1.725
-70.725 106.875 1.125
-70.725 106.875 0.075
-70.725 106.875 -0.225
-72.975 104.625 0.375
-70.725 99.675 2.475
-70.725 99.675 0.975
-70.725 99.675 2.775
-70.725 99.675 2.025
-68.475 107.025 1.575
-73.125 102.375 -0.525
-70.275 99.525 1.575
-70.275 99.525 2.475
-71.625 106.425 2.475
-71.625 106.425 -0.525
-72.525 101.025 -0.675
-72.525 101.025 1.275
-72.525 101.025 -0.525
-71.175 106.725 2.925
-71.175 106.725 1.725
-71.175 106.725 0.225
-71.175 106.725 -0.825
-72.825 105.075 0.075
-72.825 105.075 2.325
-72.825 105.075 3.075
-72.825 105.075 2.775
-71.175 99.825 2.325
-71.175 99.825 2.475
-68.325 107.025 1.875
-68.325 107.025 2.475
-70.425 99.525 1.125
-70.425 99.525 1.725
-70.425 99.525 0.375
-70.425 99.525 3.225
-70.425 99.525 2.625
-73.125 104.325 0.675
-73.125 102.225 1.275
-70.875 106.875 0.075
-72.975 104.775 1.275
-72.975 101.775 -0.825
-73.275 103.275 2.625
-70.875 99.675 2.325
-70.875 99.675 1.875
-70.875 99.675 1.275
-73.275 103.125 2.625
-73.275 103.125 1.875
-73.275 103.125 2.175
-69.075 107.175 2.475
-69.675 107.175 2.625
-69.675 107.175 0.075
-72.675 105.375 0.675
-72.675 105.375 0.975
-71.475 106.575 3.375
-71.475 106.575 -0.225
-71.475 106.575 -0.825
-72.675 101.175 1.575
-72.675 101.175 0.825
-73.275 102.975 2.475
-72.225 105.975 2.475
-72.225 105.975 2.625
-69.825 107.175 2.175
-69.825 107.175 2.025
-72.075 106.125 2.025
-72.075 106.125 2.175
-72.225 100.575 -0.075
-73.275 103.725 2.475
-73.275 103.725 2.625
-73.125 104.475 0.825
-73.125 104.475 2.775
-71.925 106.275 2.175
-72.375 105.825 2.775
-70.575 107.025 1.425
-70.575 107.025 0.675
-70.575 107.025 0.975
-70.575 107.025 0.375
-68.175 107.025 2.475
-68.175 107.025 2.175
-70.575 99.525 3.525
-70.575 99.525 1.275
-70.575 99.525 1.125
-70.575 99.525 2.475
-70.575 99.525 3.225
-70.575 99.525 3.075
-72.375 100.725 3.375
-72.375 100.725 -0.375
-68.775 107.175 2.625
-69.975 107.175 0.075
-73.275 103.875 2.625
-73.275 103.875 2.925
-73.275 103.875 2.325
-69.975 99.375 1.725
-73.275 102.675 1.725
-72.975 104.925 1.125
-72.975 104.925 0.525
-71.775 106.425 -0.675
-72.975 101.625 3.675
-72.525 105.675 1.875
-72.525 100.875 0.825
-72.525 100.875 -0.075
-71.025 99.675 2.475
-71.325 106.725 3.825
-71.325 106.725 3.975
-72.825 105.225 0.675
-72.825 105.225 -0.075
-68.625 107.175 2.025
-73.275 102.525 1.275
-73.275 104.025 1.875
-70.725 107.025 1.275
-70.725 107.025 0.975
-70.725 107.025 0.525
-70.725 107.025 0.825
-70.725 99.525 0.975
-73.125 104.625 0.675
-73.125 101.925 -0.675
-72.675 105.525 2.025
-72.675 105.525 -0.375
-72.675 105.525 1.725
-72.675 105.525 1.425
-72.675 101.025 0.075
-72.675 101.025 -0.675
-72.675 101.025 2.775
-72.675 101.025 0.825
-71.625 106.575 2.475
-71.625 106.575 1.275
-71.625 99.975 2.775
-70.275 107.175 3.225
-68.475 107.175 3.075
-68.475 107.175 2.175
-68.475 107.175 2.775
-73.275 104.175 2.925
-73.275 104.175 3.375
-73.275 104.175 3.075
-73.275 104.175 3.225
-73.275 102.375 1.575
-70.275 99.375 1.275
-70.275 99.375 3.225
-70.275 99.375 1.875
-72.975 105.075 1.125
-72.975 105.075 0.525
-72.975 101.475 2.025
-71.175 99.675 1.275
-71.175 99.675 2.925
-71.175 99.675 2.475
-72.225 106.125 2.325
-72.225 106.125 2.625
-72.075 106.275 -1.425
-72.075 106.275 3.075
-72.075 100.275 0.225
-72.375 100.575 0.075
-72.375 100.575 -0.075
-71.475 106.725 -0.225
-68.325 107.175 2.175
-68.325 107.175 2.325
-68.325 107.175 3.675
-72.825 105.375 3.225
-70.875 107.025 2.475
-67.875 107.025 2.925
-73.125 104.775 1.575
-70.875 107.025 -0.075
-70.875 107.025 -0.225
-70.875 99.525 1.125
-70.875 99.525 0.375
-70.875 99.525 3.675
-73.275 104.325 3.375
-73.275 104.325 2.925
-73.275 104.325 1.275
-73.275 104.325 1.875
-70.425 99.375 1.875
-70.425 99.375 2.025
-70.425 99.375 3.075
-72.825 101.175 -0.225
-72.825 101.175 2.775
-73.425 103.275 2.625
-73.425 103.275 1.725
-71.925 106.425 3.225
-73.425 103.425 1.125
-73.425 103.425 0.075
-73.425 103.425 1.575
-69.225 107.325 2.475
-72.525 105.825 1.575
-72.525 105.825 1.725
-72.525 100.725 1.275
-72.525 100.725 0.825
-72.525 100.725 0.525
-69.675 107.325 0.825
-73.425 103.725 2.475
-73.425 103.725 2.625
-73.425 103.725 2.175
-69.825 107.325 0.075
-69.825 107.325 -1.125
-68.925 107.325 2.025
-68.925 107.325 1.875
-68.925 107.325 2.625
-72.675 105.675 1.875
-70.575 107.175 1.575
-70.575 107.175 3.975
-70.575 107.175 0.675
-68.175 107.175 2.475
-72.675 100.875 -0.075
-72.675 100.875 0.825
-71.775 106.575 -0.825
-73.275 104.475 3.525
-73.275 104.475 1.725
-73.275 104.475 2.325
-73.275 104.475 1.575
-73.275 104.475 1.875
-70.575 99.375 1.875
-70.575 99.375 2.775
-70.575 99.375 1.275
-70.575 99.375 4.725
-70.575 99.375 2.925
-70.575 99.375 2.175
-71.775 99.975 2.925
-72.975 105.225 2.175
-72.975 105.225 0.375
-71.325 106.875 1.575
-68.775 107.325 2.325
-68.775 107.325 1.875
-69.975 107.325 -0.075
-69.975 107.325 0.375
-69.975 107.325 0.075
-73.425 103.875 2.925
-73.425 102.675 2.475
-73.425 102.675 1.875
-73.125 104.925 2.625
-71.025 107.025 -0.375
-71.025 107.025 0.825
-71.025 99.525 1.275
-71.025 99.525 1.125
-71.025 99.525 2.475
-71.625 106.725 -0.225
-71.625 106.725 -0.675
-70.125 107.325 -0.075
-73.425 104.025 2.025
-73.425 104.025 2.925
-73.425 104.025 1.875
-72.825 105.525 0.825
-72.825 105.525 1.275
-72.825 105.525 1.725
-72.825 101.025 -0.375
-71.625 99.825 2.775
-70.725 107.175 0.975
-70.725 107.175 0.525
-70.725 107.175 0.825
-70.725 107.175 0.675
-70.725 107.175 -0.075
-73.275 104.625 1.725
-73.275 104.625 1.125
-70.725 99.375 2.325
-70.725 99.375 1.575
-72.225 106.275 2.025
-72.375 100.425 2.175
-73.425 104.175 2.625
-73.425 104.175 2.475
-72.075 106.425 2.925
-72.525 105.975 1.425
-68.475 107.325 2.325
-68.475 107.325 2.475
-72.525 100.575 0.825
-72.525 100.575 -0.525
-72.525 100.575 -0.075
-72.075 100.125 3.675
-70.275 99.225 1.875
-73.125 105.075 2.175
-73.125 105.075 0.975
-71.175 107.025 1.875
-71.175 99.525 1.125
-71.175 99.525 1.425
-71.175 99.525 -0.375
-71.475 106.875 -0.225
-71.475 106.875 0.825
-72.975 105.375 1.575
-71.475 99.675 3.375
-71.475 99.675 -1.125
-71.475 99.675 0.075
-72.675 105.825 2.025
-72.675 105.825 1.425
-71.925 106.575 2.775
-72.675 100.725 3.525
-72.675 100.725 3.375
-72.675 100.725 -0.675
-70.875 107.175 0.975
-67.875 107.175 3.225
-70.875 99.375 2.325
-70.875 99.375 3.825
-70.875 99.375 2.925
-70.875 99.375 2.475
-70.875 99.375 0.975
-73.275 104.775 1.425
-73.275 104.775 2.325
-73.275 104.775 1.275
-68.325 107.325 3.525
-73.425 104.325 2.025
-73.425 104.325 1.575
-73.425 102.225 -0.825
-70.425 99.225 1.725
-73.575 103.275 0.825
-73.575 103.275 4.425
-69.525 107.475 0.375
-69.525 107.475 -0.225
-72.825 105.675 1.725
-72.825 105.675 -0.525
-69.525 99.075 3.975
-72.825 100.875 0.225
-72.825 100.875 1.725
-71.775 99.825 3.225
-69.675 107.475 2.325
-73.575 103.575 2.325
-73.575 102.975 2.625
-73.575 102.975 2.175
-69.825 107.475 0.225
-69.825 107.475 3.225
-68.925 107.475 2.325
-68.925 107.475 2.625
-68.925 107.475 1.275
-73.425 104.475 2.475
-73.425 104.475 1.425
-70.575 107.325 1.125
-68.175 107.325 1.275
-68.175 107.325 1.725
-73.425 102.075 2.475
-73.575 103.725 2.775
-70.575 99.225 2.175
-70.575 99.225 1.575
-73.125 105.225 2.025
-73.125 105.225 3.525
-73.125 105.225 1.875
-71.325 107.025 1.575
-71.325 107.025 2.925
-71.025 107.175 -0.525
-73.275 104.925 2.175
-71.025 99.375 2.475
-71.025 99.375 2.925
-71.025 99.375 1.875
-71.025 99.375 2.025
-73.275 101.625 -0.975
-69.975 107.475 0.975
-72.375 100.275 2.775
-73.575 103.875 0.225
-73.575 103.875 2.025
-69.975 99.075 2.325
-73.575 102.675 1.575
-73.575 102.675 2.025
-72.975 105.525 2.775
-71.625 106.875 -0.825
-71.625 106.875 3.375
-67.125 106.875 -0.675
-72.975 101.025 0.975
-72.975 101.025 0.825
-72.975 101.025 0.525
-71.625 99.675 3.525
-72.525 106.125 2.475
-72.525 106.125 2.025
-72.525 106.125 2.775
-72.525 106.125 1.725
-72.225 100.125 0.525
-72.525 100.425 0.975
-72.675 105.975 1.875
-72.675 105.975 1.725
-72.675 105.975 2.025
-72.675 105.975 3.075
-72.675 105.975 1.575
-72.675 100.575 0.825
-72.075 99.975 0.525
-73.575 102.525 1.875
-73.575 102.525 0.825
-73.575 102.525 -1.575
-73.575 104.025 2.025
-73.575 104.025 0.225
-73.575 104.025 -3.525
-73.575 104.025 2.175
-70.725 107.325 3.225
-70.725 107.325 -0.525
-70.725 107.325 1.575
-73.425 104.625 1.275
-73.425 104.625 2.025
-73.425 101.925 2.025
-70.725 99.225 2.325
-70.725 99.225 0.675
-70.725 99.225 1.125
-71.925 99.825 -0.675
-71.925 99.825 -0.075
-72.825 105.825 2.025
-72.825 105.825 1.725
-72.825 105.825 1.875
-72.825 100.725 -0.375
-72.825 100.725 2.175
-72.825 100.725 3.075
-72.825 100.725 1.275
-71.175 99.375 2.325
-73.275 105.075 1.575
-73.275 105.075 2.025
-73.275 105.075 2.175
-71.475 107.025 3.225
-71.475 107.025 3.675
-71.475 107.025 0.525
-71.475 107.025 1.575
-71.475 99.525 -0.225
-71.475 99.525 1.575
-71.475 99.525 1.875
-73.125 101.175 -1.725
-73.125 101.175 0.975
-70.875 107.325 0.975
-73.425 104.775 2.475
-70.875 99.225 1.575
-72.975 105.675 1.125
-72.975 105.675 -0.225
-72.975 105.675 1.575
-71.775 106.875 -0.525
-71.775 106.875 3.375
-71.775 106.875 1.875
-72.975 100.875 -0.225
-71.775 99.675 -0.375
-71.775 99.675 2.175
-71.775 99.675 -0.825
-70.425 107.475 0.975
-70.425 107.475 3.375
-70.425 107.475 3.225
-68.325 107.475 2.025
-70.425 107.475 0.675
-70.425 107.475 1.425
-73.575 104.325 1.275
-70.425 99.075 2.175
-70.425 99.075 3.375
-73.575 102.225 2.325
-72.375 106.425 1.275
-73.725 103.275 1.875
-72.525 106.275 1.875
-72.525 106.275 2.475
-72.525 106.275 2.775
-72.525 100.275 0.975
-73.725 103.425 2.325
-69.225 107.625 2.475
-69.525 107.625 2.925
-72.675 106.125 2.025
-72.675 106.125 1.575
-72.675 106.125 2.775
-71.325 107.175 1.725
-72.225 106.575 5.625
-66.525 106.575 -0.225
-69.075 107.625 2.325
-69.075 107.625 1.875
-69.075 107.625 0.375
-69.075 107.625 3.225
-69.075 107.625 2.175
-73.725 103.575 2.475
-73.725 102.975 2.775
-73.275 105.225 2.175
-73.275 105.225 1.875
-72.675 100.425 -0.075
-72.675 100.425 0.975
-72.675 100.425 0.675
-72.225 99.975 0.225
-71.325 99.375 2.625
-68.175 107.475 1.125
-68.175 107.475 2.025
-70.575 107.475 -0.525
-73.575 104.475 1.275
-73.575 102.075 3.225
-70.575 99.075 2.625
-70.575 99.075 2.175
-70.575 99.075 1.425
-70.575 99.075 2.475
-73.725 103.725 2.925
-73.425 104.925 2.775
-69.825 107.625 2.475
-68.925 107.625 1.575
-73.725 102.825 2.175
-71.025 107.325 2.475
-71.025 107.325 0.225
-71.025 107.325 -0.075
-73.425 101.625 0.075
-73.125 105.525 1.875
-71.625 99.525 -1.275
-71.625 99.525 -0.075
-71.625 107.025 1.875
-71.025 99.225 2.775
-71.025 99.225 2.325
-71.025 99.225 2.925
-72.075 106.725 2.475
-72.825 100.575 0.375
-68.775 107.625 1.275
-69.975 107.625 -0.525
-69.975 107.625 -0.225
-69.975 107.625 0.375
-73.725 102.675 1.125
-68.025 107.475 1.875
-71.925 106.875 2.025
-72.975 105.825 1.125
-72.975 105.825 1.425
-71.925 106.875 3.375
-70.725 99.075 1.725
-70.725 99.075 1.275
-70.725 99.075 1.125
-70.725 99.075 2.025
-73.575 104.625 2.775
-73.575 104.625 2.475
-71.925 99.675 3.225
-70.125 107.625 0.975
-73.725 102.525 1.425
-73.725 102.525 1.575
-73.725 102.525 1.275
-71.475 107.175 1.275
-71.475 99.375 0.675
-71.475 99.375 -1.425
-71.475 99.375 -0.825
-71.175 107.325 -0.525
-73.425 105.075 2.325
-71.175 99.225 2.625
-71.175 99.225 2.175
-71.175 99.225 2.925
-73.725 104.175 3.375
-73.725 104.175 1.125
-70.275 107.625 3.525
-70.275 107.625 0.225
-73.725 102.375 -1.575
-68.475 107.625 2.175
-70.275 98.925 3.825
-70.275 98.925 1.575
-73.125 105.675 5.925
-73.125 105.675 1.425
-71.775 99.525 2.925
-71.775 99.525 -1.275
-73.125 100.875 3.075
-72.525 106.425 1.875
-72.525 100.125 0.975
-72.525 100.125 0.075
-70.875 107.475 -0.525
-72.675 100.275 1.425
-72.675 100.275 0.975
-72.675 106.275 2.625
-72.375 106.575 2.475
-70.875 99.075 2.025
-70.875 99.075 1.125
-70.875 99.075 1.425
-72.375 99.975 0.975
-72.225 106.725 1.575
-72.225 106.725 1.725
-70.425 107.625 -1.275
-70.425 107.625 1.575
-70.425 107.625 -0.075
-68.325 107.625 2.175
-73.725 102.225 2.325
-73.725 102.225 2.475
-73.725 102.225 1.725
-72.825 106.125 0.975
-72.825 106.125 1.725
-72.225 99.825 -0.075
-72.225 99.825 -0.525
-72.225 99.825 0.075
-72.225 99.825 0.375
-72.225 99.825 -0.675
-72.825 100.425 0.675
-72.825 100.425 -1.875
-70.425 98.925 2.475
-73.425 105.225 1.875
-73.425 105.225 2.925
-73.425 105.225 2.025
-73.425 105.225 2.175
-71.325 107.325 1.575
-71.325 107.325 -0.225
-71.325 99.225 2.925
-72.975 105.975 3.675
-72.975 105.975 1.575
-72.075 106.875 2.775
-72.975 100.575 -0.525
-72.975 100.575 3.225
-72.975 100.575 0.225
-72.975 100.575 -0.825
-72.075 106.875 1.875
-72.075 106.875 2.925
-69.375 107.775 3.825
-72.075 99.675 -0.675
-71.625 107.175 1.125
-71.625 107.175 3.675
-73.875 103.425 1.575
-73.875 103.125 2.625
-73.875 103.125 2.475
-69.225 107.775 2.175
-69.225 107.775 2.925
-69.225 107.775 2.025
-69.225 107.775 3.975
-69.225 107.775 2.325
-69.525 107.775 3.975
-73.275 105.525 2.175
-71.625 99.375 2.325
-71.625 99.375 1.275
-73.875 103.575 2.775
-69.075 107.775 2.625
-69.675 107.775 2.625
-69.675 107.775 -0.075
-71.025 107.475 0.075
-71.025 107.475 -0.525
-71.025 107.475 -0.675
-71.025 107.475 1.125
-68.175 107.625 2.625
-70.575 107.625 0.975
-68.175 107.625 2.025
-73.725 102.075 1.125
-73.725 102.075 2.175
-73.725 102.075 2.025
-70.575 107.625 -0.225
-73.575 104.925 2.325
-71.025 99.075 1.575
-71.025 99.075 2.325
-71.025 99.075 0.525
-71.025 99.075 2.175
-73.575 101.625 1.575
-70.575 98.925 1.575
-70.575 98.925 2.325
-70.575 98.925 2.025
-73.875 102.825 1.425
-73.875 102.825 4.275
-68.925 107.775 2.025
-73.875 102.825 2.625
-69.825 107.775 -0.075
-71.925 99.525 -0.375
-73.125 105.825 1.875
-73.125 100.725 -0.225
-73.125 100.725 1.125
-73.125 100.725 -0.525
-73.875 103.875 1.875
-69.975 107.775 3.375
-69.975 107.775 -0.075
-73.875 102.675 1.725
-73.875 102.675 4.275
