# .PCD v0.7 - Point Cloud Data file format
VERSION 0.7
FIELDS x y z
SIZE 4 4 4
TYPE F F F
COUNT 1 1 1
WIDTH 2048
HEIGHT 1
VIEWPOINT 0 0 0 1 0 0 0
POINTS 2048
DATA ascii
-25.575 32.625 0.075
-25.575 32.475 1.875
-25.575 32.475 1.125
-25.725 32.475 1.125
-25.725 32.475 1.575
-25.725 32.475 1.725
-25.275 32.625 2.025
-25.725 32.325 1.875
-25.725 32.925 2.325
-25.875 32.475 1.875
-25.875 32.475 1.725
-25.275 32.325 1.275
-25.275 32.925 0.675
-25.875 32.925 1.725
-25.875 32.325 0.075
-25.875 32.325 1.875
-25.275 32.925 0.825
-26.025 32.475 1.875
-25.425 32.175 0.825
-25.425 32.175 1.575
-25.425 32.175 1.275
-25.725 32.175 0.975
-25.725 33.075 1.875
-25.725 33.075 2.025
-26.025 32.325 1.875
-26.025 32.925 2.325
-26.025 32.325 2.025
-25.275 32.175 1.125
-25.275 32.175 0.975
-25.875 33.075 2.025
-26.175 32.625 1.875
-25.575 33.225 1.275
-25.425 32.025 2.025
-26.175 32.775 2.625
-26.175 32.775 1.875
-25.425 32.025 1.425
-26.175 32.475 3.375
-25.725 32.025 1.425
-25.125 32.175 0.525
-26.025 32.175 1.875
-26.025 32.175 2.175
-25.125 32.175 0.675
-26.025 33.075 2.325
-26.175 32.325 1.725
-26.175 32.325 1.875
-26.175 32.925 2.625
-26.175 32.325 2.025
-26.175 32.925 3.075
-26.175 32.925 2.175
-25.875 32.025 1.725
-25.275 32.025 0.975
-25.875 33.225 2.475
-25.875 33.225 2.175
-25.575 31.875 0.975
-25.575 31.875 2.175
-25.575 31.875 1.875
-24.975 32.175 2.175
-25.125 32.025 1.425
-26.025 33.225 4.725
-26.175 33.075 2.175
-26.175 32.175 1.875
-26.175 32.175 2.175
-26.175 33.075 1.725
-26.175 32.175 1.725
-26.175 32.175 3.075
-26.175 33.075 3.375
-26.325 32.775 2.475
-25.425 31.875 1.125
-25.725 31.875 1.275
-25.725 31.875 1.575
-25.725 33.375 2.175
-26.325 32.925 2.475
-26.325 32.325 1.575
-25.275 31.875 2.625
-25.875 33.375 2.175
-25.275 33.375 1.125
-24.975 32.025 1.575
-26.175 32.025 1.425
-26.175 32.025 2.325
-26.175 33.225 2.175
-26.175 32.025 1.575
-26.175 33.225 2.025
-26.025 31.875 2.775
-26.025 33.375 2.325
-26.025 33.375 2.175
-25.125 31.875 0.975
-26.325 33.075 2.775
-26.325 32.175 1.725
-25.575 31.725 2.325
-25.575 33.525 2.775
-25.575 33.525 1.425
-25.425 31.725 1.725
-25.425 31.725 1.875
-25.725 31.725 1.875
-25.725 31.725 2.475
-25.725 33.525 2.925
-26.475 32.775 1.725
-26.475 32.475 1.875
-26.475 32.475 3.225
-25.275 33.525 0.975
-25.275 33.525 2.625
-26.325 33.225 4.725
-26.175 31.875 1.125
-26.175 31.875 1.725
-26.325 32.025 2.775
-26.325 33.225 2.175
-26.175 33.375 2.325
-26.325 33.225 2.625
-25.125 33.525 0.975
-26.475 32.175 1.425
-26.475 32.175 1.575
-26.475 32.175 2.325
-25.575 31.575 2.325
-26.625 32.625 2.475
-26.625 32.625 1.875
-26.625 32.625 2.925
-25.425 33.675 3.375
-26.325 31.875 2.925
-26.325 31.875 3.075
-26.325 31.875 2.325
-26.325 33.375 2.775
-26.625 32.475 -0.525
-25.725 31.575 2.025
-25.725 31.575 1.575
-25.725 31.575 1.875
-25.725 31.575 2.175
-24.975 33.525 0.375
-26.175 31.725 1.275
-24.675 33.225 0.225
-26.475 33.225 -0.225
-25.875 33.675 2.925
-26.625 32.325 2.325
-25.275 31.575 0.375
-26.625 32.175 2.325
-26.625 32.175 1.575
-24.525 33.075 0.675
-26.325 31.725 3.375
-26.325 31.725 3.525
-26.325 31.725 3.225
-26.475 31.875 2.175
-26.475 31.875 3.525
-26.775 32.625 1.725
-26.775 32.775 2.475
-26.775 32.475 1.875
-25.425 31.425 1.725
-26.625 32.025 1.725
-26.175 31.575 2.025
-26.625 32.025 2.625
-25.425 33.825 -3.675
-25.425 33.825 0.375
-25.425 33.825 1.725
-25.725 33.825 2.775
-25.725 33.825 2.325
-26.775 32.325 3.675
-25.875 33.825 2.175
-26.475 31.725 -0.525
-26.475 33.525 3.075
-25.125 31.425 1.125
-26.025 31.425 -3.375
-26.775 32.175 1.575
-26.775 32.175 -0.225
-26.775 33.075 2.325
-26.325 31.575 3.075
-26.325 31.575 1.425
-26.625 31.875 1.125
-26.625 33.375 1.275
-26.325 31.575 2.475
-24.975 31.425 -0.975
-24.375 33.225 0.375
-26.775 32.025 2.925
-25.575 31.275 2.325
-26.925 32.625 1.425
-25.575 31.275 1.575
-26.925 32.775 2.325
-26.925 32.475 -1.725
-25.425 31.275 2.025
-25.725 31.275 2.025
-25.725 33.975 2.625
-24.675 31.575 1.425
-26.625 31.725 -0.675
-26.625 33.525 1.125
-26.925 32.325 1.725
-25.275 31.275 2.475
-25.875 31.275 0.825
-25.275 33.975 2.025
-25.275 31.275 1.725
-25.275 31.275 1.425
-26.475 31.575 -0.075
-24.825 31.425 0.825
-26.325 31.425 2.175
-26.775 33.375 3.375
-26.025 31.275 1.875
-26.925 32.175 2.925
-26.925 32.175 -1.425
-24.975 33.975 0.825
-24.975 31.275 0.975
-26.925 33.225 3.975
-26.925 33.225 3.675
-26.925 32.025 0.225
-26.625 31.575 0.675
-26.775 31.725 -0.675
-24.675 31.425 1.725
-25.575 34.125 0.975
-27.075 32.625 -0.675
-26.475 31.425 2.625
-26.475 31.425 0.225
-26.475 31.425 3.075
-25.425 34.125 2.325
-27.075 32.775 1.725
-25.425 31.125 2.025
-25.425 34.125 0.675
-25.425 34.125 0.975
-25.725 31.125 2.475
-25.725 31.125 1.875
-27.075 32.325 0.225
-25.275 31.125 1.875
-25.275 31.125 2.625
-25.875 34.125 2.175
-25.875 31.125 1.125
-26.025 31.125 1.875
-26.025 34.125 3.075
-26.025 31.125 1.725
-24.075 32.175 0.825
-26.775 31.575 -0.825
-26.775 31.575 0.675
-24.525 33.825 4.425
-26.175 31.125 2.175
-26.175 31.125 2.025
-26.175 31.125 2.475
-24.075 32.025 -2.475
-26.925 31.725 2.325
-26.925 31.725 -1.125
-26.925 31.725 -0.375
-26.925 31.725 3.075
-26.475 31.275 2.175
-26.475 31.275 5.175
-26.475 31.275 -0.525
-26.475 31.275 -0.375
-26.475 31.275 2.775
-25.575 34.275 1.875
-27.225 32.625 -0.525
-25.425 30.975 1.575
-25.425 30.975 1.725
-25.425 30.975 2.025
-25.725 34.275 2.175
-25.725 30.975 2.175
-27.225 32.475 3.075
-27.225 32.475 -0.525
-25.275 30.975 2.025
-25.275 34.275 0.975
-25.875 34.275 3.375
-25.875 30.975 -0.675
-27.075 31.875 3.075
-26.325 31.125 2.775
-26.325 31.125 2.325
-27.075 31.875 0.525
-26.325 31.125 2.175
-27.225 32.325 -2.025
-27.225 32.325 3.225
-26.775 31.425 2.025
-26.775 31.425 2.775
-26.025 30.975 1.575
-26.925 33.675 1.275
-26.925 31.575 0.525
-26.625 31.275 3.225
-26.625 31.275 2.625
-26.625 31.275 2.025
-26.925 31.575 2.475
-26.625 31.275 -0.225
-27.225 32.175 -0.825
-27.225 32.175 3.375
-27.225 32.175 0.375
-24.975 34.275 1.275
-26.175 30.975 -0.525
-27.375 32.625 -0.375
-25.575 30.825 2.775
-25.425 34.425 1.875
-25.425 30.825 4.125
-26.925 31.425 -0.675
-27.375 32.775 0.375
-27.375 32.475 -0.525
-26.925 31.425 -0.825
-27.375 32.475 -0.075
-24.375 31.275 1.275
-25.425 30.825 1.725
-25.425 30.825 2.025
-26.925 31.425 0.825
-26.925 31.425 3.075
-25.425 30.825 0.825
-25.725 30.825 1.275
-26.325 30.975 -0.375
-26.325 30.975 2.325
-26.325 30.975 0.225
-26.325 30.975 2.625
-26.325 30.975 -0.525
-27.225 31.875 5.775
-27.225 31.875 -1.725
-27.225 31.875 -0.825
-25.275 34.425 1.275
-25.875 34.425 0.075
-27.375 32.925 3.375
-27.375 32.325 1.875
-27.375 32.325 -0.375
-27.375 32.325 3.525
-25.275 30.825 1.875
-25.275 30.825 1.725
-25.875 30.825 2.025
-25.875 30.825 1.725
-26.625 34.125 3.525
-26.625 31.125 -0.825
-24.525 34.125 0.825
-27.075 31.575 0.675
-26.625 31.125 0.225
-27.075 31.575 -0.375
-27.075 31.575 -0.825
-26.625 31.125 2.175
-27.075 31.575 -0.225
-25.125 34.425 1.275
-26.025 30.825 4.875
-26.025 30.825 1.725
-26.025 30.825 1.425
-27.375 32.175 -0.675
-27.375 32.175 -0.375
-27.375 32.175 -0.825
-26.475 34.275 3.525
-26.475 30.975 2.325
-26.475 30.975 1.725
-26.475 30.975 2.175
-27.375 32.025 -0.675
-27.375 32.025 -0.825
-27.375 32.025 0.225
-27.375 32.025 2.475
-26.175 30.825 1.725
-27.375 32.025 -1.725
-26.175 30.825 -1.425
-27.075 31.425 -0.525
-26.775 31.125 1.725
-26.775 31.125 5.625
-27.075 31.425 -0.375
-27.075 31.425 -1.275
-26.775 31.125 0.675
-24.375 31.125 3.525
-27.525 32.625 -0.975
-25.575 30.675 1.125
-27.525 32.625 1.875
-27.525 32.625 2.625
-27.375 31.875 -0.675
-27.375 31.875 -0.375
-27.375 31.875 -1.575
-26.325 30.825 2.025
-26.325 30.825 2.625
-26.325 30.825 2.175
-26.325 30.825 1.725
-26.325 30.825 -1.275
-25.425 30.675 2.175
-25.425 30.675 0.675
-26.625 30.975 0.075
-25.425 30.675 1.125
-27.525 32.775 -0.375
-27.525 32.475 -0.375
-25.425 30.675 2.325
-26.625 30.975 -0.075
-25.725 30.675 2.025
-27.225 31.575 -0.225
-27.225 31.575 -1.275
-27.225 31.575 2.625
-27.225 31.575 -0.975
-27.225 31.575 0.675
-27.525 32.325 -1.125
-27.525 32.325 -0.225
-27.525 32.325 -2.025
-25.875 30.675 1.275
-25.875 30.675 1.425
-25.275 30.675 2.475
-25.875 30.675 2.025
-25.275 34.575 1.275
-25.875 34.575 4.125
-27.525 33.075 -0.675
-27.525 32.175 2.775
-27.525 32.175 -0.675
-24.675 30.825 -3.075
-26.475 30.825 2.475
-26.475 30.825 4.725
-26.475 30.825 1.875
-26.475 30.825 3.075
-26.475 30.825 2.175
-26.475 30.825 -0.075
-24.225 34.125 1.275
-26.925 31.125 0.225
-23.925 31.425 2.625
-26.775 30.975 2.175
-27.525 32.025 0.675
-26.175 30.675 2.025
-26.175 30.675 -0.075
-23.925 33.825 -2.325
-26.625 30.825 0.525
-26.625 30.825 6.075
-27.375 31.575 0.975
-27.375 31.575 0.525
-26.325 30.675 0.075
-27.525 31.875 -0.525
-27.525 31.875 -0.675
-26.325 34.575 1.725
-25.575 30.525 2.475
-27.675 32.625 -0.825
-25.575 34.725 1.125
-27.675 32.625 -0.225
-25.575 30.525 1.125
-25.575 30.525 0.975
-27.675 32.625 -1.275
-27.675 32.475 0.075
-25.425 30.525 1.125
-25.425 30.525 1.275
-27.675 32.475 -0.675
-25.725 30.525 1.125
-27.675 32.325 2.025
-25.875 30.525 1.425
-25.875 30.525 1.575
-25.275 30.525 1.275
-23.925 31.275 -2.625
-27.225 31.275 -0.075
-27.225 31.275 -0.225
-27.225 31.275 -0.525
-27.225 31.275 0.825
-27.525 31.725 1.725
-26.475 30.675 2.625
-26.025 30.525 2.175
-26.025 30.525 2.325
-26.025 30.525 2.025
-26.025 30.525 0.075
-26.025 34.725 1.875
-26.025 30.525 1.875
-26.775 30.825 -0.675
-23.775 31.425 5.475
-26.175 30.525 2.325
-27.675 32.025 0.525
-27.675 32.025 -0.675
-26.175 30.525 1.875
-26.175 34.725 0.075
-27.675 33.225 -0.375
-27.525 31.575 -0.675
-24.525 30.675 1.575
-26.625 30.675 -0.375
-27.525 31.575 0.525
-27.075 30.975 -0.375
-26.325 30.525 -0.375
-26.325 30.525 5.775
-26.325 34.725 2.625
-24.825 30.525 0.975
-27.225 31.125 -0.675
-26.925 34.425 3.975
-25.575 30.375 1.125
-25.575 30.375 1.275
-25.575 34.875 -0.225
-27.375 31.275 2.175
-27.825 32.475 -0.375
-25.725 30.375 1.125
-25.725 30.375 1.425
-25.725 30.375 3.675
-25.725 34.875 3.225
-27.825 32.325 -1.275
-27.825 32.325 -0.825
-25.275 34.875 3.225
-25.275 30.375 2.025
-25.275 30.375 1.575
-25.875 30.375 2.325
-25.875 30.375 1.425
-25.875 30.375 2.925
-27.675 31.725 1.425
-27.675 31.725 -4.275
-27.675 31.725 -0.225
-24.675 30.525 2.925
-27.675 31.725 1.575
-27.675 33.525 3.225
-26.475 30.525 -0.525
-26.475 34.725 3.075
-27.525 31.425 -0.975
-27.525 31.425 -0.675
-26.775 30.675 -0.525
-26.775 34.575 5.175
-25.125 30.375 -0.375
-26.025 30.375 1.875
-26.025 30.375 2.175
-26.025 30.375 2.325
-26.025 30.375 2.025
-25.125 30.375 1.575
-27.825 32.175 -0.975
-27.825 32.175 -0.525
-27.825 33.225 -0.675
-27.825 33.225 -0.825
-26.175 34.875 2.775
-27.825 32.025 0.525
-23.925 30.975 2.475
-27.225 30.975 0.825
-27.225 30.975 -0.675
-27.375 31.125 -1.425
-27.375 31.125 -0.525
-27.375 31.125 0.825
-23.775 31.125 2.175
-27.075 30.825 -0.225
-27.675 31.575 4.275
-27.675 31.575 0.525
-27.675 31.575 1.125
-27.675 31.575 -0.225
-24.225 30.675 1.125
-27.825 33.375 3.375
-24.825 34.875 2.475
-24.825 34.875 0.975
-26.325 34.875 2.625
-26.325 34.875 2.775
-27.825 31.875 0.975
-27.825 31.875 2.175
-27.825 31.875 -0.525
-27.825 31.875 1.125
-27.825 31.875 -1.875
-26.325 30.375 5.175
-27.525 31.275 -0.675
-27.525 31.275 -0.975
-27.525 31.275 2.025
-27.525 31.275 -0.825
-26.925 30.675 -1.275
-25.575 35.025 0.675
-25.425 35.025 0.975
-25.425 35.025 3.525
-25.725 30.225 0.975
-25.725 30.225 1.125
-25.875 30.225 1.725
-25.875 30.225 1.875
-25.875 30.225 2.925
-27.675 31.425 -0.975
-27.975 32.325 0.075
-27.975 32.925 0.525
-27.825 31.725 2.625
-24.675 30.375 1.875
-27.825 31.725 -0.075
-27.825 31.725 0.675
-27.825 31.725 -0.225
-26.475 30.375 -0.375
-26.475 30.375 4.275
-25.125 35.025 1.875
-26.025 30.225 2.475
-26.025 30.225 2.175
-27.375 30.975 -0.675
-27.375 30.975 6.075
-27.375 30.975 -1.125
-27.375 30.975 -0.825
-27.225 30.825 -0.975
-27.225 30.825 -0.675
-27.225 30.825 -0.225
-27.975 32.175 1.875
-27.975 32.175 0.375
-27.975 33.075 -0.825
-27.975 32.175 -0.675
-27.075 30.675 -0.675
-27.075 34.575 3.075
-24.975 30.225 1.425
-24.975 35.025 4.275
-24.975 30.225 -0.825
-24.975 30.225 1.575
-26.175 30.225 2.925
-27.975 32.025 1.125
-27.975 32.025 -0.675
-27.975 32.025 -0.975
-27.975 32.025 0.525
-27.975 32.025 -1.875
-27.975 32.025 0.975
-27.975 33.225 1.425
-27.975 32.025 -0.525
-27.975 33.225 -0.825
-27.825 33.675 -0.975
-27.825 33.675 3.375
-24.525 30.375 2.175
-27.825 31.575 2.775
-27.825 31.575 0.225
-27.825 31.575 -0.375
-27.825 31.575 1.725
-27.825 31.575 0.975
-27.825 31.575 2.625
-27.825 31.575 0.525
-24.525 30.375 1.725
-23.475 31.275 2.325
-27.675 31.275 3.225
-27.675 31.275 0.525
-26.925 30.525 3.375
-26.325 30.225 0.075
-24.825 30.225 1.575
-24.825 30.225 1.425
-26.325 35.025 3.075
-27.975 31.875 4.575
-27.975 31.875 -0.375
-27.975 31.875 -0.225
-27.375 30.825 -0.825
-27.375 30.825 -0.675
-27.375 30.825 -0.375
-27.825 31.425 -0.675
-27.825 31.425 2.475
-25.575 30.075 1.725
-25.575 30.075 1.575
-25.575 30.075 1.425
-28.125 32.625 -0.675
-28.125 32.625 -0.825
-28.125 32.475 -0.675
-28.125 32.475 -3.375
-27.225 30.675 -0.975
-27.225 30.675 -0.825
-25.725 30.075 1.725
-25.725 30.075 0.375
-27.975 31.725 1.275
-25.275 35.175 2.325
-25.275 35.175 2.025
-28.125 32.925 0.525
-25.875 30.075 1.875
-25.875 30.075 2.925
-27.075 30.525 0.675
-28.125 32.175 0.075
-28.125 32.175 -0.225
-28.125 32.175 -0.525
-28.125 32.175 0.675
-28.125 33.075 0.525
-28.125 33.075 -1.575
-24.525 30.225 1.575
-24.975 30.075 1.275
-28.125 32.025 0.225
-28.125 32.025 0.525
-28.125 32.025 -0.525
-28.125 32.025 -0.375
-26.175 30.075 3.375
-26.175 30.075 0.375
-27.975 31.575 -0.525
-27.975 31.575 -0.675
-27.975 31.575 3.375
-27.975 31.575 3.525
-27.975 31.575 2.025
-26.925 30.375 2.025
-27.825 31.275 2.625
-27.525 30.825 2.325
-27.375 30.675 2.475
-27.375 30.675 2.925
-23.775 30.675 2.325
-28.125 31.875 -0.975
-28.125 31.875 -0.375
-28.125 31.875 2.475
-24.825 30.075 1.275
-28.125 31.875 -0.825
-27.675 30.975 2.325
-27.675 30.975 1.275
-27.675 30.975 2.775
-27.675 30.975 2.625
-24.375 30.225 2.175
-26.775 35.025 4.125
-27.975 31.425 3.225
-27.975 31.425 3.075
-27.975 31.425 2.625
-27.975 31.425 2.775
-25.575 29.925 1.875
-25.575 29.925 1.725
-25.575 29.925 1.575
-28.275 32.625 -0.825
-28.275 32.625 -0.525
-25.575 35.325 0.975
-28.275 32.475 2.925
-28.275 32.475 -0.975
-28.275 32.775 1.125
-25.725 29.925 1.575
-25.725 29.925 2.025
-27.825 31.125 2.625
-27.825 31.125 2.475
-27.825 31.125 2.925
-27.825 31.125 -1.275
-27.075 34.875 3.375
-27.075 34.875 3.675
-28.125 31.725 -0.525
-24.675 30.075 1.275
-24.675 30.075 0.075
-24.675 30.075 2.175
-28.125 33.525 1.425
-28.125 33.525 3.825
-26.475 30.075 0.675
-26.475 30.075 3.375
-26.475 30.075 1.575
-26.475 30.075 -0.825
-28.275 32.925 0.525
-28.275 32.925 -0.975
-25.875 29.925 2.775
-25.275 29.925 1.725
-25.275 29.925 3.825
-25.875 35.325 1.275
-26.025 29.925 -0.225
-25.125 29.925 1.575
-28.275 32.175 -0.675
-28.275 32.175 1.575
-28.275 32.175 -0.825
-28.275 32.175 -0.525
-28.275 33.075 0.525
-28.275 33.075 -0.975
-28.275 33.075 -0.825
-28.275 33.075 -0.675
-28.275 33.075 -0.375
-25.125 35.325 2.025
-24.225 30.225 0.375
-24.225 30.225 0.225
-26.925 30.225 0.675
-26.925 35.025 2.925
-27.975 31.275 -0.675
-27.975 31.275 2.475
-27.975 31.275 2.625
-27.975 31.275 2.775
-24.525 35.175 1.125
-26.625 35.175 3.225
-28.125 31.575 2.775
-24.525 30.075 1.125
-28.125 31.575 2.625
-26.625 30.075 3.225
-26.625 30.075 2.775
-26.625 30.075 0.675
-27.525 34.575 1.875
-28.275 32.025 2.625
-28.275 32.025 -1.425
-28.275 32.025 -0.825
-28.275 32.025 1.575
-28.275 32.025 -0.225
-28.275 32.025 2.475
-28.275 32.025 -0.675
-28.275 32.025 0.075
-26.175 29.925 3.075
-26.175 29.925 5.925
-28.275 33.225 2.775
-27.375 30.525 0.075
-27.375 30.525 -0.225
-27.375 30.525 2.325
-27.675 30.825 0.375
-27.675 30.825 2.475
-23.775 30.525 -3.075
-26.175 35.325 2.775
-26.175 35.325 2.625
-27.825 30.975 -1.125
-27.825 30.975 2.475
-27.825 30.975 2.625
-27.825 30.975 2.925
-26.325 29.925 3.225
-26.325 29.925 -0.975
-28.275 31.875 2.475
-24.375 35.175 1.575
-26.775 30.075 0.675
-26.775 30.075 -0.525
-26.775 30.075 -1.575
-28.125 31.425 2.625
-24.375 30.075 2.025
-24.375 30.075 0.975
-27.075 30.225 -0.975
-24.675 29.925 1.575
-24.675 29.925 1.275
-24.675 29.925 1.725
-28.275 31.725 2.775
-28.275 31.725 -0.225
-28.275 31.725 -0.375
-28.275 31.725 -1.425
-28.275 33.525 2.775
-26.475 29.925 -0.375
-26.475 29.925 0.825
-26.475 29.925 3.525
-26.475 29.925 -0.675
-25.575 29.775 1.725
-28.425 32.625 -0.525
-25.575 29.775 2.625
-25.575 29.775 1.575
-28.425 32.475 0.225
-28.425 32.775 -1.425
-25.425 29.775 1.425
-28.425 32.775 -0.525
-28.425 32.475 -0.825
-25.425 29.775 1.575
-28.425 32.775 -1.725
-28.425 32.475 2.475
-25.725 29.775 3.075
-25.725 29.775 2.325
-25.725 29.775 2.775
-25.725 29.775 1.425
-25.725 29.775 2.025
-25.725 29.775 1.575
-27.525 30.525 -0.825
-27.675 30.675 2.925
-23.625 30.525 2.025
-28.425 32.925 -0.525
-28.425 32.925 0.975
-28.425 32.925 0.525
-28.425 32.325 -0.675
-25.875 35.475 1.725
-25.275 29.775 1.125
-27.825 30.825 -0.525
-27.825 30.825 -0.825
-27.375 30.375 -0.675
-23.775 30.375 5.025
-26.025 29.775 -0.225
-25.125 35.475 2.925
-25.125 29.775 2.175
-26.925 30.075 1.125
-26.925 30.075 0.225
-26.925 30.075 0.675
-26.925 30.075 0.975
-28.425 33.075 -0.675
-28.425 33.075 0.375
-28.425 33.075 -0.375
-28.425 32.175 2.625
-28.275 33.675 -1.125
-26.625 29.925 -0.675
-26.625 29.925 -1.425
-27.225 30.225 2.475
-27.975 30.975 -0.225
-24.975 35.475 2.775
-28.425 32.025 -0.075
-28.425 32.025 -1.425
-28.425 32.025 3.225
-26.175 35.475 3.075
-26.175 29.775 2.925
-26.175 29.775 -0.225
-26.175 29.775 2.025
-26.325 29.775 -1.125
-28.425 33.375 2.625
-28.425 31.875 -0.075
-28.425 31.875 -0.825
-28.425 31.875 -0.375
-28.425 31.875 0.375
-24.825 29.775 2.175
-24.825 29.775 1.725
-24.375 29.925 1.575
-26.775 29.925 1.125
-24.075 30.075 0.975
-24.075 30.075 1.725
-27.075 30.075 -0.225
-23.475 30.525 2.325
-27.675 30.525 2.625
-27.525 30.375 2.325
-27.525 30.375 -0.525
-28.425 31.725 -1.125
-24.675 29.775 2.175
-24.675 29.775 2.025
-26.475 29.775 -0.825
-26.475 29.775 3.375
-27.375 30.225 2.025
-25.575 29.625 1.425
-25.575 29.625 -0.525
-28.575 32.625 -0.825
-28.575 32.775 -0.525
-28.575 32.775 -0.675
-28.575 32.475 -0.075
-28.575 32.475 2.025
-25.425 29.625 1.575
-25.425 35.625 2.475
-28.575 32.775 3.075
-28.575 32.775 0.225
-28.575 32.775 1.725
-25.725 29.625 0.075
-25.725 29.625 -0.975
-28.575 32.925 -0.525
-28.575 32.925 -0.675
-28.575 32.925 0.525
-28.575 32.325 -1.725
-28.575 32.325 0.225
-25.875 29.625 2.175
-25.275 35.625 2.775
-25.275 29.625 1.725
-25.275 29.625 1.425
-25.275 29.625 1.875
-26.925 29.925 3.075
-28.275 33.975 1.275
-28.275 33.975 3.525
-26.025 29.625 3.525
-26.025 29.625 -0.525
-26.025 29.625 -0.375
-25.125 29.625 2.025
-26.025 29.625 2.475
-28.575 32.175 -1.275
-28.575 33.075 0.525
-28.575 33.075 -0.825
-28.575 33.075 0.825
-28.575 33.075 0.975
-28.575 33.075 0.375
-28.575 33.075 -0.225
-28.125 30.975 -0.525
-26.625 29.775 -1.275
-24.525 35.475 2.025
-28.425 31.575 -0.225
-28.425 31.575 0.675
-27.225 30.075 0.225
-27.225 30.075 2.625
-24.975 29.625 2.925
-28.575 32.025 -0.525
-26.175 29.625 3.675
-28.575 32.025 -0.825
-28.575 33.225 -0.225
-28.575 33.225 -1.425
-23.475 30.375 -3.225
-27.675 30.375 -0.675
-27.675 30.375 -1.125
-27.075 29.925 0.375
-27.075 29.925 2.775
-27.075 29.925 2.175
-28.275 31.125 0.225
-28.275 31.125 0.675
-23.625 30.225 1.875
-26.325 29.625 -1.875
-26.325 29.625 -0.825
-24.825 35.625 1.425
-26.775 29.775 1.125
-24.375 29.775 4.125
-28.425 31.425 -0.675
-28.425 31.425 -0.375
-27.975 30.675 0.225
-28.425 33.825 -0.975
-27.375 35.175 4.425
-28.125 30.825 -0.525
-28.125 30.825 -0.975
-28.575 31.725 -0.375
-28.575 31.725 -0.825
-24.675 35.625 2.175
-25.575 35.775 3.075
-28.725 32.625 0.225
-28.725 32.625 1.575
-28.725 32.625 3.075
-28.725 32.625 0.075
-25.425 29.475 2.175
-25.425 29.475 2.475
-25.425 29.475 1.875
-25.425 29.475 1.275
-22.425 32.475 3.525
-26.925 29.775 0.225
-28.425 33.975 3.525
-28.425 31.275 0.075
-28.725 32.775 -0.975
-28.725 32.775 -0.825
-28.725 32.475 0.225
-28.725 32.475 -0.525
-28.725 32.475 3.075
-28.725 32.475 4.125
-25.875 29.475 3.525
-25.275 29.475 1.875
-25.275 29.475 2.925
-25.275 29.475 1.725
-25.275 29.475 1.575
-25.275 29.475 4.425
-25.275 29.475 1.425
-28.275 30.975 0.675
-28.275 34.275 1.425
-27.225 29.925 -0.075
-28.725 32.925 -0.825
-28.725 32.925 -0.075
-28.725 32.325 -0.525
-28.725 32.325 0.075
-28.725 32.325 -0.675
-28.575 31.575 0.975
-28.575 31.575 0.225
-28.575 31.575 1.125
-28.575 31.575 0.675
-26.625 29.625 -2.175
-26.625 29.625 -0.825
-24.525 29.625 1.875
-25.125 29.475 1.725
-25.125 29.475 2.775
-25.125 29.475 0.975
-27.825 30.375 3.975
-28.725 32.175 0.525
-28.725 33.075 -0.225
-28.725 33.075 0.075
-28.725 33.075 -0.075
-28.725 33.075 0.525
-28.725 33.075 -0.525
-23.475 30.225 1.875
-27.975 30.525 0.525
-27.975 30.525 0.975
-27.975 30.525 0.675
-27.975 34.725 0.225
-24.975 29.475 0.075
-28.725 33.225 0.525
-28.725 33.225 2.625
-27.525 30.075 -0.375
-28.425 34.125 4.125
-24.075 29.775 1.875
-28.425 31.125 1.125
-28.425 31.125 0.975
-28.425 31.125 0.075
-28.425 31.125 0.675
-27.075 35.475 1.125
-28.575 31.425 0.675
-24.375 29.625 1.575
-26.775 29.625 -0.525
-26.775 35.625 4.875
-28.575 33.825 -0.075
-24.825 29.475 0.675
-28.725 33.375 0.525
-28.725 33.375 -0.075
-28.725 31.875 -0.525
-28.275 30.825 -0.525
-28.275 30.825 -1.275
-28.275 30.825 1.125
-22.875 30.825 2.325
-27.375 29.925 -0.525
-27.375 29.925 -0.975
-24.675 29.475 0.825
-24.675 29.475 2.175
-26.475 29.475 3.825
-28.725 33.525 -0.525
-28.725 31.725 -0.525
-28.725 31.725 1.125
-27.825 30.225 2.625
-24.225 29.625 1.275
-28.575 31.275 1.275
-27.975 30.375 0.675
-27.975 34.875 0.225
-28.425 34.275 0.075
-28.425 30.975 -0.975
-28.425 30.975 -0.825
-28.425 30.975 -0.525
-28.425 30.975 -0.675
-27.225 29.775 2.625
-27.225 29.775 0.075
-27.225 35.475 3.675
-25.575 29.325 3.375
-25.575 29.325 1.425
-25.575 29.325 -0.075
-25.575 29.325 2.025
-23.475 30.075 -1.275
-25.425 29.325 1.575
-28.875 32.475 0.375
-25.725 29.325 -1.725
-25.725 29.325 -0.075
-28.125 30.525 1.125
-27.675 30.075 -0.675
-27.675 30.075 0.225
-23.025 30.525 1.725
-28.125 30.525 0.525
-23.025 30.525 -2.475
-28.875 32.925 -0.225
-28.875 32.325 -0.525
-28.875 32.325 3.525
-28.875 32.325 0.225
-25.875 29.325 2.925
-25.275 29.325 1.275
-25.275 29.325 0.975
-25.275 29.325 1.725
-26.625 29.475 4.725
-24.525 29.475 2.175
-24.525 29.475 1.875
-28.725 33.675 -0.525
-28.725 31.575 0.675
-28.275 30.675 -0.225
-27.525 29.925 0.525
-25.125 29.325 2.175
-25.125 29.325 1.725
-26.025 29.325 -0.525
-28.875 33.075 -0.675
-28.875 32.175 0.525
-28.875 32.175 0.975
-28.575 31.125 0.675
-28.575 31.125 0.375
-28.575 31.125 -1.125
-24.075 29.625 1.425
-24.075 29.625 2.175
-27.075 29.625 3.375
-24.975 29.325 0.075
-24.975 29.325 2.025
-24.975 29.325 1.725
-24.975 29.325 1.875
-26.175 29.325 3.825
-26.175 29.325 -0.375
-26.175 29.325 4.275
-28.875 33.225 -1.125
-28.875 33.225 0.975
-28.875 32.025 1.125
-28.875 32.025 0.675
-26.775 29.475 2.925
-24.375 29.475 1.575
-26.775 29.475 0.375
-24.375 29.475 0.975
-24.375 29.475 0.825
-24.375 35.775 1.875
-22.725 30.825 -2.175
-28.725 31.425 -0.975
-28.725 31.425 -0.825
-28.875 33.375 0.525
-28.875 31.875 -0.825
-24.825 29.325 0.675
-28.875 31.875 3.975
-27.975 30.225 1.125
-27.825 35.175 6.225
-28.125 30.375 -0.225
-28.125 30.375 -0.375
-23.325 30.075 -1.575
-27.825 30.075 -0.975
-23.025 30.375 2.775
-24.675 35.925 0.675
-23.475 29.925 3.525
-28.875 33.525 -0.825
-28.875 33.525 3.375
-28.875 33.525 -0.675
-24.675 29.325 2.625
-27.675 29.925 0.525
-27.675 29.925 0.975
-27.675 29.925 1.125
-28.275 30.525 -0.225
-28.275 30.525 0.525
-26.475 29.325 0.675
-28.575 34.275 1.425
-27.225 29.625 2.925
-27.225 29.625 3.675
-27.225 29.625 -1.875
-27.225 29.625 2.175
-24.225 29.475 0.975
-24.225 29.475 1.425
-24.225 29.475 1.725
-24.225 35.775 1.875
-26.925 29.475 -0.525
-26.925 29.475 -0.675
-26.925 29.475 -0.975
-28.725 31.275 2.925
-28.725 31.275 -0.075
-29.025 32.625 0.525
-25.575 29.175 1.725
-25.425 29.175 1.875
-25.425 29.175 1.725
-29.025 32.775 2.475
-29.025 32.475 2.925
-29.025 32.475 3.525
-29.025 32.475 -0.225
-25.725 29.175 2.175
-25.725 29.175 3.075
-25.725 29.175 2.475
-25.725 29.175 2.925
-23.625 29.775 1.425
-27.525 29.775 3.375
-27.525 29.775 2.625
-27.525 29.775 -0.375
-28.425 30.675 0.675
-29.025 32.925 0.075
-29.025 32.925 3.375
-29.025 32.925 -0.825
-29.025 32.925 0.675
-29.025 32.925 1.125
-29.025 32.325 3.375
-29.025 32.325 1.125
-25.275 29.175 1.575
-25.275 29.175 4.125
-25.275 29.175 1.875
-28.875 33.675 -1.125
-28.875 33.675 3.075
-28.875 33.675 3.375
-22.275 31.575 -0.075
-26.625 29.325 0.525
-28.875 31.575 0.675
-25.125 29.175 1.875
-25.125 29.175 1.725
-25.125 29.175 1.125
-26.025 29.175 2.775
-26.025 29.175 0.675
-26.025 29.175 0.225
-29.025 33.075 -0.825
-29.025 32.175 0.525
-29.025 32.175 -0.375
-29.025 32.175 -0.525
-24.075 29.475 2.025
-27.075 29.475 -0.225
-27.075 29.475 0.975
-28.725 31.125 0.675
-28.575 34.425 2.475
-27.375 29.625 0.525
-27.375 29.625 0.225
-24.975 29.175 1.875
-24.975 29.175 -0.075
-24.975 29.175 2.025
-26.175 29.175 0.525
-26.175 29.175 4.575
-26.175 29.175 0.675
-26.175 29.175 -0.375
-29.025 32.025 -0.525
-28.125 30.225 5.775
-27.975 30.075 0.525
-24.375 29.325 2.325
-26.775 29.325 0.225
-28.275 30.375 -0.525
-27.825 29.925 0.525
-29.025 33.375 2.925
-29.025 33.375 1.875
-29.025 33.375 2.775
-29.025 33.375 2.625
-29.025 33.375 0.975
-26.325 29.175 0.525
-24.825 29.175 1.725
-29.025 31.875 0.375
-27.675 29.775 5.475
-27.675 29.775 -0.825
-27.675 29.775 1.125
-27.675 29.775 0.675
-23.925 29.475 2.025
-27.225 29.475 2.775
-27.225 29.475 2.925
-27.225 29.475 3.675
-29.025 33.525 0.525
-29.025 31.725 0.675
-24.225 29.325 1.425
-24.225 29.325 1.875
-26.475 29.175 0.225
-26.475 29.175 0.525
-26.475 29.175 0.975
-26.475 29.175 1.125
-26.925 29.325 4.125
-28.875 31.275 -0.075
-28.875 31.275 -1.275
-28.575 30.675 2.775
-27.525 29.625 1.125
-27.525 29.625 0.975
-27.525 29.625 0.525
-27.525 29.625 -0.375
-28.575 30.675 0.675
-28.575 30.675 -0.525
-29.175 32.625 0.525
-29.175 32.625 -0.975
-29.175 32.625 3.075
-29.175 32.625 0.225
-25.575 29.025 2.625
-25.575 29.025 2.475
-29.175 32.775 1.875
-25.425 29.025 2.025
-29.175 32.475 1.125
-29.175 32.775 0.675
-25.725 29.025 3.075
-29.025 33.675 -0.825
-29.025 33.675 -1.725
-29.025 33.675 -0.675
-29.025 33.675 -0.375
-29.025 33.675 3.075
-24.525 29.175 2.175
-29.025 31.575 0.675
-28.125 30.075 -0.525
-28.125 30.075 0.675
-28.125 30.075 0.525
-28.275 30.225 0.525
-29.175 32.925 0.525
-29.175 32.925 -0.525
-29.175 32.925 -0.825
-29.175 32.925 0.225
-27.975 29.925 -0.375
-25.275 29.025 3.375
-25.275 29.025 2.325
-25.875 29.025 0.225
-25.875 29.025 -0.525
-28.875 34.125 -0.975
-28.875 34.125 -0.225
-27.075 29.325 3.075
-28.875 31.125 0.675
-28.875 31.125 -0.225
-27.375 29.475 0.675
-27.375 29.475 -0.375
-25.125 29.025 1.875
-25.125 29.025 2.325
-26.025 29.025 0.675
-29.175 32.175 0.525
-29.175 33.075 -1.125
-29.175 33.075 2.925
-29.175 33.075 -0.975
-28.725 30.825 0.075
-27.825 29.775 0.525
-27.825 29.775 -0.375
-29.175 32.025 2.175
-29.175 32.025 -0.675
-29.175 32.025 -0.975
-26.175 29.025 0.075
-26.175 29.025 4.425
-29.175 33.225 -0.825
-26.775 29.175 3.225
-26.775 29.175 2.925
-29.025 33.825 0.675
-27.675 29.625 0.525
-27.675 29.625 0.075
-26.325 29.025 -0.525
-24.825 29.025 2.925
-29.175 33.375 2.925
-29.175 33.375 -0.525
-26.325 29.025 -0.825
-26.325 29.025 1.125
-26.325 29.025 -0.375
-24.825 29.025 -1.425
-24.825 29.025 1.575
-24.825 29.025 2.325
-29.175 31.875 -1.125
-24.825 36.225 -0.225
-28.875 34.275 1.125
-28.875 34.275 -0.675
-28.875 34.275 -0.975
-27.525 35.775 5.625
-24.225 29.175 1.725
-24.225 29.175 1.125
-29.025 33.975 -0.225
-26.925 29.175 3.075
-29.025 31.275 -0.375
-26.925 36.075 1.275
-28.725 34.575 -0.825
-28.725 34.575 0.525
-29.175 33.525 0.525
-29.175 33.525 -0.825
-29.175 33.525 0.825
-29.175 31.725 -0.225
-29.175 31.725 -0.375
-26.475 29.025 -0.225
-28.275 30.075 -0.825
-28.125 29.925 -0.825
-28.425 30.225 -0.975
-27.975 29.775 0.675
-25.575 28.875 2.775
-25.575 28.875 1.425
-25.575 28.875 2.475
-29.325 32.625 3.525
-29.325 32.625 -0.825
-29.325 32.625 -0.075
-29.325 32.625 3.225
-25.575 36.375 1.125
-29.175 33.675 3.525
-29.175 33.675 0.525
-26.625 29.025 3.225
-29.325 32.775 1.575
-29.325 32.775 -0.225
-29.325 32.775 -1.125
-29.325 32.775 1.725
-25.425 28.875 2.175
-25.425 28.875 2.325
-25.425 28.875 2.025
-25.425 28.875 2.775
-25.425 28.875 -0.225
-29.325 32.475 -0.825
-25.725 28.875 -0.075
-25.725 28.875 2.475
-25.725 28.875 2.775
-28.875 34.425 1.875
-27.375 29.325 -0.675
-29.025 34.125 2.925
-29.325 32.925 1.125
-29.325 32.925 0.525
-29.325 32.925 0.975
-29.325 32.925 1.275
-29.325 32.325 0.525
-29.325 32.325 -0.975
-29.325 32.325 -0.825
-29.325 32.325 -0.525
-29.325 32.325 3.375
-29.325 32.325 -0.225
-25.875 28.875 -0.825
-25.875 28.875 4.425
-25.875 28.875 -0.975
-25.275 28.875 2.925
-25.275 28.875 2.325
-25.125 28.875 1.575
-26.025 28.875 2.625
-25.125 36.375 2.175
-29.325 33.075 -0.375
-29.325 33.075 -0.525
-29.325 33.075 0.675
-29.325 33.075 1.575
-29.325 33.075 2.775
-29.325 33.075 3.675
-29.325 32.175 -0.975
-23.475 29.475 -0.975
-27.675 29.475 -0.525
-29.175 31.425 2.925
-24.375 29.025 2.325
-26.775 29.025 2.925
-26.775 29.025 -0.525
-29.175 33.825 -1.125
-29.175 33.825 0.825
-24.975 28.875 1.725
-24.975 28.875 3.675
-24.975 36.375 2.025
-29.325 33.225 0.675
-29.325 33.225 -0.075
-29.325 33.225 3.225
-29.325 33.225 -0.825
-29.325 32.025 -0.375
-26.175 28.875 -0.825
-28.275 29.925 0.225
-28.275 29.925 -0.975
-29.025 34.275 1.725
-23.925 29.175 1.725
-23.925 29.175 2.025
-23.925 29.175 2.475
-23.925 29.175 -2.025
-29.025 30.975 2.925
-22.725 30.075 2.175
-26.325 36.375 0.675
-24.825 28.875 1.725
-24.825 28.875 1.125
-29.325 33.375 0.225
-29.325 33.375 3.375
-26.325 28.875 -0.825
-29.325 31.875 -1.275
-29.325 31.875 -0.375
-29.325 31.875 -0.075
-27.225 29.175 1.725
-28.125 29.775 -0.375
-28.125 29.775 2.625
-27.225 36.075 1.275
-28.875 30.675 -1.125
-27.975 29.625 2.175
-27.975 35.625 1.875
-21.975 31.275 0.225
-24.225 29.025 2.175
-24.225 29.025 1.275
-29.175 33.975 2.925
-29.175 33.975 -0.825
-29.175 33.975 0.525
-29.175 31.275 0.675
-26.925 29.025 4.725
-26.925 29.025 -0.675
-29.325 33.525 2.475
-29.325 33.525 2.025
-29.325 33.525 2.325
-29.325 33.525 0.075
-29.325 33.525 0.225
-29.325 33.525 0.525
-29.325 33.525 1.425
-29.325 31.725 2.775
-24.675 28.875 3.075
-24.675 28.875 1.725
-28.725 30.375 1.425
-29.025 34.425 -0.225
-29.025 34.425 -0.075
-23.775 29.175 2.025
-27.375 29.175 3.375
-27.375 29.175 -0.075
-29.025 30.825 2.775
-29.025 30.825 2.325
-29.325 33.675 0.225
-29.325 33.675 3.225
-26.625 28.875 2.925
-29.325 31.575 2.925
-24.525 28.875 3.375
-25.575 28.725 2.775
-25.575 28.725 3.525
-25.575 28.725 2.625
-25.575 28.725 2.025
-25.575 28.725 2.475
-29.175 31.125 2.475
-29.175 31.125 2.775
-27.075 29.025 2.775
-27.075 29.025 1.125
-24.075 29.025 1.425
-29.475 32.625 3.675
-29.475 32.625 2.325
-25.425 28.725 2.925
-25.425 28.725 2.175
-25.725 28.725 -0.075
-25.725 28.725 2.325
-25.725 28.725 2.475
-29.475 32.775 0.975
-29.475 32.775 -0.825
-29.475 32.775 -0.075
-29.475 32.775 3.225
-29.475 32.775 -1.125
-29.475 32.475 3.375
-27.675 35.925 2.325
-25.275 28.725 1.725
-25.275 28.725 -0.225
-25.275 28.725 2.325
-25.275 28.725 3.375
-25.875 28.725 -1.125
-23.475 29.325 -0.225
-27.675 29.325 3.525
-28.875 34.725 -1.125
-29.475 32.925 3.525
-29.475 32.925 0.525
-29.475 32.925 -0.525
-29.475 32.925 1.425
-29.475 32.925 3.075
-29.475 32.325 2.925
-29.475 32.325 -0.825
-26.025 28.725 -0.525
-28.275 35.475 3.225
-28.425 29.925 0.525
-29.475 33.075 2.625
-29.475 33.075 3.525
-29.475 33.075 1.425
-29.475 32.175 -0.525
-29.475 32.175 0.675
-29.475 32.175 1.575
-24.375 28.875 0.825
-26.775 28.875 0.525
-28.125 35.625 2.025
-28.125 29.625 2.475
-28.575 30.075 0.525
-28.575 30.075 0.375
-29.325 33.825 1.125
-24.975 28.725 1.425
-24.975 28.725 1.725
-24.975 28.725 2.175
-24.975 28.725 -0.075
-24.975 28.725 1.275
-24.975 28.725 0.525
-26.175 28.725 1.425
-26.175 28.725 -0.675
-29.475 33.225 0.675
-29.475 33.225 -0.525
-29.475 33.225 0.975
-29.475 32.025 2.775
-29.475 32.025 0.225
-27.975 35.775 2.175
-27.975 35.775 2.025
-29.175 30.975 2.925
-29.175 30.975 2.625
-29.175 30.975 2.475
-28.725 35.025 0.975
-27.225 36.225 4.575
-27.225 36.225 1.425
-27.225 29.025 0.525
-27.225 29.025 -0.525
-27.225 29.025 -0.075
-27.225 29.025 0.075
-27.525 29.175 -0.075
-29.025 30.675 -1.275
-29.025 34.575 -0.225
-24.825 28.725 1.575
-24.825 28.725 0.675
-26.325 28.725 -0.375
-26.325 28.725 -0.525
-26.325 28.725 -0.675
-26.325 28.725 -0.075
-26.325 28.725 -0.825
-29.475 33.375 1.125
-29.475 31.875 -0.825
-24.225 28.875 1.725
-29.325 33.975 -1.125
-29.325 33.975 -0.375
-29.325 33.975 0.525
-26.925 28.875 0.225
-26.925 28.875 1.125
-26.925 28.875 0.525
-26.925 28.875 0.975
-29.325 31.275 4.725
-29.325 31.275 -1.275
-28.875 34.875 -0.675
-24.675 28.725 1.725
-24.675 28.725 1.575
-24.675 28.725 1.125
-24.675 28.725 -1.425
-29.475 33.525 0.825
-29.475 33.525 3.075
-29.475 33.525 2.325
-29.175 34.425 1.725
-29.175 34.425 -0.675
-27.375 29.025 -0.675
-27.375 29.025 0.675
-28.275 35.625 1.725
-28.275 29.625 2.775
-24.525 28.725 -0.975
-24.525 28.725 -1.425
-24.525 28.725 2.475
-26.625 28.725 -0.225
-26.625 28.725 3.225
-22.125 30.525 -0.075
-29.325 34.125 0.525
-27.075 28.875 0.525
-27.075 28.875 -0.525
-27.075 36.375 3.825
-29.325 31.125 2.775
-29.025 34.725 -0.225
-29.475 33.675 2.775
-29.475 31.575 2.925
-27.675 36.075 2.175
-29.625 32.625 0.075
-29.625 32.625 3.225
-29.625 32.625 1.575
-29.625 32.625 3.075
-25.575 28.575 -0.525
-25.725 36.675 1.875
-25.425 36.675 1.575
-28.125 35.775 1.725
-28.125 35.775 2.175
-28.125 35.775 1.125
-28.125 29.475 2.625
-29.625 32.475 0.075
-29.625 32.475 2.175
-25.425 28.575 3.075
-25.725 28.575 2.625
-25.275 36.675 1.425
-29.625 32.925 2.925
-29.625 32.325 -0.975
-29.625 32.925 -0.075
-29.625 32.925 -0.225
-29.625 32.925 0.675
-29.625 32.925 -0.825
-29.625 32.325 -0.525
-29.625 32.325 2.325
-29.625 32.325 0.075
-29.625 32.325 -1.875
-25.275 28.575 2.325
-25.275 28.575 2.625
-25.875 28.575 5.475
-25.875 28.575 3.075
-25.125 28.575 2.325
-25.125 28.575 1.275
-25.125 28.575 2.625
-25.125 28.575 -0.675
-29.625 33.075 0.975
-29.625 33.075 3.225
-29.625 33.075 2.925
-29.625 33.075 2.775
-29.625 33.075 3.075
-29.625 32.175 -0.225
-26.775 28.725 0.225
-26.775 28.725 1.125
-24.375 28.725 2.175
-24.375 28.725 0.975
-27.975 35.925 1.875
-27.975 35.925 2.175
-28.875 35.025 2.325
-29.475 33.825 2.775
-24.975 28.575 1.425
-27.525 36.225 0.825
-27.525 36.225 1.275
-23.625 29.025 1.875
-29.625 33.225 -0.225
-29.625 33.225 0.675
-29.625 32.025 3.225
-29.625 32.025 0.225
-29.175 34.575 -0.225
-29.325 34.275 3.375
-29.325 34.275 2.025
-23.925 28.875 1.725
-27.225 28.875 3.075
-27.225 28.875 0.075
-26.325 36.675 3.975
-27.825 29.175 2.925
-24.825 28.575 4.425
-24.825 28.575 2.175
-24.825 28.575 1.425
-24.825 28.575 1.575
-29.625 33.375 1.125
-26.325 28.575 2.625
-29.625 31.875 2.325
-29.625 31.875 3.075
-29.625 31.875 2.025
-29.625 31.875 -0.525
-24.225 28.725 1.575
-26.925 28.725 0.675
-26.925 28.725 -1.725
-26.925 28.725 -0.375
-29.475 33.975 1.125
-29.475 33.975 2.475
-29.475 33.975 0.525
-29.475 33.975 2.925
-29.475 33.975 3.375
-28.575 29.775 -0.825
-24.675 28.575 1.425
-29.625 33.525 -0.825
-26.475 28.575 -0.525
-26.475 28.575 0.075
-26.475 28.575 3.225
-26.475 28.575 3.075
-28.725 29.925 3.675
-29.325 30.825 2.175
-27.375 36.375 0.975
-27.375 28.875 0.075
-27.675 29.025 3.675
-29.175 30.525 2.325
-27.075 28.725 -0.375
-27.075 28.725 0.525
-24.075 28.725 2.025
-27.075 36.525 3.525
-29.475 34.125 0.975
-29.475 31.125 0.825
-29.625 33.675 0.675
-29.625 33.675 2.625
-29.625 33.675 2.475
-29.625 33.675 0.075
-29.625 33.675 3.075
-24.525 28.575 0.075
-26.625 28.575 -0.225
-26.625 28.575 -0.375
-26.625 28.575 0.525
-29.775 32.625 3.375
-25.575 28.425 -0.075
-25.575 28.425 0.075
-25.575 28.425 -0.375
-29.025 30.225 5.625
-29.025 35.025 0.825
-29.775 32.475 3.525
-29.775 32.475 2.775
-29.775 32.775 2.775
-29.775 32.775 -1.275
-25.425 36.825 1.425
-25.425 36.825 3.525
-27.975 36.075 2.475
-27.975 36.075 -1.125
-29.775 32.925 1.875
-29.775 32.925 -1.125
-29.775 32.925 -0.075
-29.775 32.925 -0.375
-25.875 28.425 2.925
-25.875 28.425 3.825
-25.275 28.425 2.475
-29.775 32.325 -0.525
-29.775 32.325 3.525
-29.775 32.325 3.375
-25.275 28.425 1.725
-29.775 33.075 3.525
-29.775 33.075 2.775
-24.375 28.575 4.125
-26.775 28.575 0.975
-26.775 28.575 0.525
-29.625 33.825 0.225
-29.625 33.825 -0.525
-25.125 36.825 2.325
-29.325 30.675 4.575
-27.525 28.875 -0.375
-27.525 28.875 3.975
-29.325 34.575 1.725
-23.925 28.725 0.825
-29.475 34.275 0.675
-29.475 34.275 -0.075
-29.475 30.975 -0.675
-24.975 28.425 1.575
-26.175 28.425 -0.975
-26.175 28.425 2.475
-29.775 33.225 0.675
-29.775 33.225 -0.975
-26.175 36.825 1.575
-27.825 29.025 -1.275
-27.825 29.025 -1.125
-29.175 30.375 -0.975
-28.425 35.775 0.375
-28.275 35.925 0.225
-28.275 35.925 1.875
-26.325 28.425 0.225
-26.325 28.425 2.175
-24.825 28.425 2.325
-24.825 28.425 3.975
-24.825 28.425 2.175
-24.225 28.575 3.075
-24.225 28.575 3.375
-29.625 33.975 2.925
-29.625 33.975 2.175
-29.625 33.975 -0.225
-29.625 33.975 0.225
-29.625 33.975 3.075
-26.925 28.575 0.525
-28.125 36.075 2.025
-28.125 36.075 2.175
-24.675 28.425 1.575
-29.775 33.525 0.675
-27.375 36.525 0.675
-27.375 36.525 1.125
-23.775 28.725 1.875
-26.475 28.425 -0.375
-26.475 28.425 2.175
-26.475 28.425 -0.525
-29.475 34.425 2.775
-29.475 34.425 -0.825
-26.475 36.825 -0.375
-27.675 28.875 2.925
-29.325 30.525 -0.225
-29.625 34.125 -0.075
-29.625 34.125 3.075
-29.625 34.125 3.825
-29.625 34.125 0.525
-29.625 34.125 2.925
-29.625 34.125 3.225
-24.075 28.575 1.425
-29.625 31.125 0.675
-27.075 28.575 2.925
-27.075 28.575 -0.825
-27.075 28.575 2.625
-29.775 33.675 -0.075
-24.525 28.425 1.425
-24.525 28.425 1.725
-29.775 31.575 3.975
-29.775 31.575 -1.275
-28.575 35.775 2.325
-28.575 29.475 -2.625
-25.575 28.275 0.075
-25.575 28.275 2.775
-29.925 32.625 3.375
-28.725 29.625 -0.825
-28.725 29.625 3.225
-28.725 35.625 3.975
-28.725 35.625 1.575
-28.725 35.625 1.425
-25.725 28.275 0.225
-25.725 28.275 -0.675
-25.425 28.275 -0.075
-25.425 28.275 2.325
-25.425 28.275 -0.375
-29.925 32.475 -0.375
-29.925 32.475 3.225
-29.925 32.475 2.625
-29.925 32.775 -0.675
-29.925 32.775 1.125
-29.925 32.775 -0.525
-27.525 28.725 0.075
-28.425 35.925 1.875
-28.875 35.475 2.625
-25.275 36.975 2.025
-29.925 32.925 -0.375
-25.875 28.275 1.725
-26.775 28.425 -0.225
-26.775 28.425 -0.975
-26.775 28.425 0.675
-24.375 28.425 1.425
-24.375 28.425 0.975
-29.775 33.825 0.675
-29.775 33.825 1.125
-29.775 33.825 0.375
-26.775 36.825 2.325
-27.225 36.675 1.875
-27.825 36.375 1.575
-27.825 36.375 -3.825
-27.825 36.375 1.425
-23.325 28.875 4.575
-29.325 30.375 4.575
-23.925 28.575 1.575
-23.925 28.575 2.025
-25.125 28.275 0.525
-26.025 36.975 2.625
-26.025 36.975 2.775
-26.025 28.275 -0.975
-27.225 28.575 0.375
-27.225 28.575 -0.075
-28.275 29.175 -0.975
-28.275 36.075 0.975
-28.275 36.075 1.125
-28.275 36.075 1.725
-24.975 28.275 1.575
-24.225 28.425 0.975
-26.925 28.425 -0.675
-28.125 29.025 1.275
-29.925 33.375 2.475
-29.925 33.375 -0.975
-29.925 33.375 0.675
-24.825 28.275 1.725
-24.825 28.275 1.575
-27.675 36.525 3.525
-27.675 36.525 0.675
-29.475 34.725 -0.825
-29.475 30.525 -0.825
-29.625 34.425 -0.675
-29.625 30.825 2.175
-29.925 33.525 -0.375
-29.925 31.725 -0.075
-26.475 28.275 -1.125
-26.475 28.275 -0.975
-26.475 36.975 2.325
-29.325 35.025 2.475
-29.325 30.225 3.075
-27.975 36.375 1.425
-27.975 36.375 1.575
-28.725 29.475 3.375
-28.725 35.775 1.575
-28.575 35.925 0.525
-27.075 28.425 -0.225
-27.075 28.425 0.075
-29.775 34.125 3.225
-29.775 34.125 2.025
-24.075 28.425 1.725
-29.775 34.125 2.175
-29.775 31.125 0.675
-27.075 36.825 0.975
-29.025 29.775 3.375
-29.925 33.675 2.775
-29.925 33.675 0.675
-29.925 33.675 -0.375
-26.625 28.275 1.125
-26.625 28.275 -2.325
-26.625 36.975 1.425
-26.625 36.975 2.475
-24.525 28.275 1.425
-24.525 28.275 1.725
-27.525 36.675 0.825
-27.525 36.675 1.125
-27.525 36.675 0.975
-27.525 28.575 -1.575
-29.625 34.575 0.825
-29.625 34.575 2.475
-29.625 34.575 2.625
-29.625 34.575 2.175
-30.075 32.625 2.625
-30.075 32.625 2.325
-25.575 37.125 3.675
-28.275 29.025 2.175
-28.275 29.025 3.075
-29.175 29.925 2.175
-27.825 36.525 1.425
-30.075 32.775 1.575
-25.425 28.125 -0.525
-30.075 32.475 1.275
-25.725 28.125 3.675
-25.425 28.125 2.775
-29.475 34.875 -0.975
-30.075 32.325 1.875
-30.075 32.325 3.375
-25.875 28.125 -0.375
-29.775 34.275 -0.225
-23.925 28.425 2.325
-27.225 28.425 0.375
-26.775 28.275 -1.275
-26.775 36.975 2.475
-24.375 28.275 1.125
-24.375 28.275 1.275
-29.925 33.825 3.525
-29.925 33.825 1.125
-25.125 28.125 2.025
-25.125 37.125 2.625
-26.025 37.125 2.775
-26.025 28.125 2.325
-26.025 28.125 -0.375
-30.075 32.175 2.775
-28.125 36.375 1.275
-29.325 30.075 2.775
-26.175 28.125 2.625
-24.225 28.275 1.575
-24.225 28.275 0.825
-29.925 33.975 -1.275
-29.925 33.975 0.675
-29.925 33.975 -0.375
-26.925 28.275 0.675
-26.925 28.275 0.525
-27.675 36.675 1.125
-27.675 36.675 1.425
-28.725 35.925 1.425
-28.725 35.925 1.725
-24.825 28.125 2.175
-26.325 28.125 -0.975
-26.325 28.125 0.525
-26.325 28.125 2.775
-27.675 28.575 3.675
-28.725 29.325 2.475
-28.725 29.325 2.625
-29.775 34.425 3.375
-27.375 28.425 3.375
-29.775 30.825 3.525
-23.775 28.425 2.625
-23.775 28.425 0.825
-23.775 28.425 1.425
-27.375 36.825 0.825
-28.575 36.075 1.725
-28.575 36.075 1.875
-27.975 28.725 -3.975
-29.475 35.025 -1.425
-24.675 28.125 1.875
-24.675 28.125 1.575
-24.675 28.125 1.125
-30.075 33.525 1.725
-30.075 33.525 2.625
-30.075 33.525 -0.225
-30.075 31.725 2.775
-30.075 31.725 2.925
-26.475 28.125 0.975
-26.475 28.125 0.225
-26.475 28.125 2.175
-26.475 28.125 0.525
-26.475 37.125 2.475
-28.425 36.225 1.275
-28.425 36.225 1.875
-28.425 36.225 0.075
-28.425 29.025 2.925
-27.075 28.275 -0.375
-29.925 34.125 0.375
-29.925 34.125 -0.825
-29.925 34.125 0.675
-29.925 31.125 3.375
-30.075 33.675 0.225
-30.075 33.675 -0.375
-30.075 33.675 -0.075
-24.525 28.125 1.575
-26.625 37.125 2.025
-24.525 28.125 1.275
-26.625 28.125 1.125
-26.625 28.125 0.525
-26.625 28.125 2.625
-30.075 31.575 3.225
-30.075 31.575 1.725
-29.325 35.325 0.225
-29.775 30.675 2.925
-29.775 30.675 2.325
-23.625 28.425 2.475
-29.775 34.575 2.475
-29.775 34.575 2.325
-27.825 36.675 1.275
-29.625 30.375 1.425
-23.325 28.575 0.075
-25.575 27.975 5.775
-30.225 32.625 1.275
-25.425 27.975 2.625
-29.925 34.275 0.375
-29.925 34.275 2.475
-29.925 34.275 -0.975
-29.925 34.275 2.925
-29.925 34.275 3.225
-29.925 34.275 -0.825
-23.925 28.275 2.325
-29.925 30.975 2.775
-29.925 30.975 0.375
-30.225 32.775 -2.175
-27.225 28.275 -1.125
-27.225 28.275 2.775
-27.225 28.275 3.225
-27.225 28.275 -0.375
-27.225 28.275 -0.225
-26.775 28.125 0.525
-24.375 28.125 2.475
-24.375 28.125 1.575
-30.075 31.425 0.375
-30.075 31.425 -1.425
-26.775 37.125 2.025
-30.075 33.825 0.675
-25.275 27.975 -0.525
-25.875 27.975 0.375
-28.125 28.725 4.575
-28.125 36.525 1.575
-29.475 35.175 0.825
-29.475 35.175 -0.375
-29.475 35.175 -0.075
-29.475 35.175 0.675
-30.225 32.925 -0.225
-30.225 32.925 -0.375
-30.225 32.325 2.625
-30.225 32.325 1.875
-30.225 32.325 2.325
-29.475 30.075 0.975
-28.875 35.925 0.975
-28.875 35.925 1.275
-28.875 35.925 1.125
-28.875 29.325 -3.975
-26.025 27.975 0.375
-25.125 27.975 2.475
-26.025 27.975 0.075
-28.725 29.175 2.325
-28.725 29.175 2.625
-30.225 32.175 0.225
-28.725 36.075 1.725
-28.575 36.225 2.175
-29.175 35.625 -0.075
-28.575 29.025 1.275
-29.175 29.625 2.625
-28.575 36.225 0.975
-24.975 27.975 -0.825
-24.975 27.975 -0.225
-26.175 27.975 2.925
-30.225 32.025 1.275
-29.775 34.725 3.675
-27.675 36.825 1.275
-27.675 36.825 1.575
-26.925 28.125 -0.675
-30.075 31.275 1.875
