# .PCD v0.7 - Point Cloud Data file format
VERSION 0.7
FIELDS x y z
SIZE 4 4 4
TYPE F F F
COUNT 1 1 1
WIDTH 2048
HEIGHT 1
VIEWPOINT 0 0 0 1 0 0 0
POINTS 2048
DATA ascii
-41.775 23.625 -0.375
-41.925 23.625 -0.225
-41.775 23.775 1.125
-41.775 23.475 -0.375
-41.775 23.475 0.525
-41.925 23.475 0.825
-41.925 23.475 -0.525
-41.925 23.475 -0.075
-41.925 23.475 -0.225
-41.925 23.475 0.525
-41.625 23.625 -0.675
-41.625 23.775 1.425
-42.075 23.775 -0.225
-41.775 23.925 1.125
-41.925 23.925 -1.125
-41.625 23.475 0.225
-41.625 23.475 0.525
-42.075 23.475 -0.525
-41.625 23.925 1.725
-41.625 23.925 0.825
-41.625 23.925 1.575
-41.625 23.925 1.425
-41.625 23.925 0.975
-42.075 23.925 0.225
-41.775 23.325 -0.675
-41.925 23.325 0.825
-41.475 23.775 -0.525
-41.475 23.775 2.025
-42.225 23.775 -0.375
-42.225 23.775 -0.975
-41.775 24.075 0.075
-41.775 24.075 0.975
-41.925 24.075 0.825
-41.625 23.325 0.225
-41.625 23.325 1.725
-42.075 23.325 -0.075
-42.075 23.325 0.675
-42.075 23.325 1.125
-42.075 23.325 0.825
-41.475 23.925 1.425
-41.475 23.925 -0.675
-41.475 23.925 1.575
-41.625 24.075 1.125
-41.625 24.075 0.975
-42.225 23.925 2.625
-42.225 23.925 0.375
-42.075 24.075 1.425
-42.075 24.075 0.375
-42.075 24.075 -0.525
-41.775 23.175 2.025
-41.925 23.175 -0.525
-41.325 23.625 0.075
-42.225 23.325 1.275
-42.225 23.325 -0.075
-41.325 23.775 1.125
-41.325 23.775 1.275
-41.325 23.775 1.725
-42.375 23.625 -0.375
-41.475 24.075 0.975
-41.475 24.075 1.275
-42.375 23.775 1.875
-41.625 23.175 0.825
-41.775 24.225 1.425
-41.775 24.225 1.125
-42.225 24.075 1.425
-42.225 24.075 0.525
-42.225 24.075 -2.025
-41.925 24.225 1.125
-42.375 23.475 -0.225
-41.325 23.925 1.125
-41.325 23.925 1.575
-41.325 23.925 1.275
-41.625 24.225 5.325
-41.625 24.225 1.425
-42.075 24.225 -0.225
-42.075 24.225 1.875
-42.075 24.225 -0.375
-41.475 23.175 0.825
-41.475 23.175 0.525
-41.325 23.325 2.175
-41.325 23.325 0.225
-41.325 23.325 -0.375
-41.325 23.325 3.225
-42.225 23.175 0.675
-41.775 23.025 1.275
-41.775 23.025 -0.525
-41.475 24.225 0.975
-41.475 24.225 -0.675
-42.375 24.075 0.975
-42.375 24.075 1.425
-42.225 24.225 -0.525
-42.225 24.225 -0.075
-42.225 24.225 0.825
-42.225 24.225 0.975
-41.175 23.775 1.575
-41.175 23.775 1.425
-41.175 23.775 0.225
-41.625 23.025 0.675
-41.625 23.025 1.125
-42.525 23.625 -0.375
-42.525 23.625 0.825
-42.525 23.625 0.525
-42.075 23.025 -0.675
-42.075 23.025 1.425
-42.525 23.775 -0.075
-41.175 23.475 -0.975
-41.175 23.475 1.575
-41.175 23.475 -0.375
-41.775 24.375 1.275
-41.775 24.375 -0.525
-41.775 24.375 1.125
-41.925 24.375 -0.225
-41.925 24.375 -0.675
-41.925 24.375 0.225
-41.175 23.925 1.425
-41.175 23.925 0.825
-41.175 23.925 1.125
-42.525 23.475 0.825
-42.525 23.475 1.875
-41.325 23.175 -2.325
-41.325 23.175 -0.525
-41.325 23.175 -0.225
-42.525 23.925 0.975
-42.525 23.925 0.675
-42.375 23.175 0.675
-41.625 24.375 1.125
-41.625 24.375 -3.675
-42.075 24.375 1.125
-42.075 24.375 0.825
-42.075 24.375 -0.675
-42.075 24.375 2.175
-41.475 23.025 0.825
-41.175 23.325 0.075
-41.325 24.225 0.975
-41.325 24.225 0.225
-42.525 23.325 2.475
-42.525 23.325 1.125
-42.525 23.325 3.075
-41.175 24.075 1.125
-41.175 24.075 0.375
-41.475 24.375 1.425
-41.475 24.375 -0.525
-42.525 24.075 1.125
-42.225 24.375 0.825
-42.225 24.375 1.275
-41.775 22.875 0.675
-41.925 22.875 1.725
-41.625 22.875 0.525
-41.175 23.175 1.275
-41.175 23.175 1.725
-42.075 22.875 1.725
-42.075 22.875 0.975
-42.675 23.625 1.275
-42.675 23.775 2.475
-42.675 23.775 2.175
-42.675 23.775 2.325
-41.025 23.475 2.175
-42.375 23.025 0.675
-42.375 23.025 -0.225
-42.525 23.175 0.075
-41.775 24.525 0.975
-41.775 24.525 1.425
-41.025 23.925 1.875
-41.025 23.925 1.575
-41.025 23.925 0.375
-41.025 23.925 1.725
-41.925 24.525 0.975
-41.925 24.525 1.575
-42.675 23.475 1.725
-42.675 23.475 0.675
-42.675 23.475 0.825
-41.175 24.225 0.675
-41.175 24.225 1.125
-41.175 24.225 0.975
-41.325 24.375 1.425
-41.325 24.375 0.975
-41.325 24.375 0.825
-42.675 23.925 2.175
-41.625 24.525 0.375
-41.625 24.525 0.975
-41.475 22.875 1.875
-41.475 22.875 1.125
-42.375 24.375 1.575
-42.375 24.375 -0.075
-42.375 24.375 -0.675
-42.375 24.375 2.175
-42.375 24.375 0.675
-42.375 24.375 1.875
-42.075 24.525 0.975
-42.075 24.525 -0.225
-42.075 24.525 2.475
-42.075 24.525 2.325
-42.225 22.875 1.125
-42.225 22.875 0.075
-42.675 23.325 1.725
-42.675 23.325 -0.075
-42.675 23.325 2.175
-42.675 23.325 0.075
-41.025 24.075 1.575
-41.025 24.075 0.975
-42.675 24.075 1.875
-42.675 24.075 2.175
-41.475 24.525 0.825
-41.475 24.525 0.675
-41.175 23.025 0.225
-41.175 23.025 -0.825
-42.225 24.525 -0.375
-42.525 23.025 2.625
-42.525 23.025 2.175
-42.525 23.025 -0.075
-41.325 22.875 2.175
-41.775 22.725 0.525
-41.775 22.725 2.025
-41.925 22.725 2.475
-41.025 23.175 1.275
-42.375 22.875 2.475
-41.175 24.375 0.975
-41.175 24.375 1.125
-41.175 24.375 0.825
-40.875 23.775 4.425
-40.875 23.775 2.175
-40.875 23.775 1.275
-42.675 23.175 -0.375
-42.675 23.175 0.675
-41.625 22.725 2.325
-41.625 22.725 0.525
-42.525 24.375 -0.225
-41.025 24.225 1.275
-41.025 24.225 1.125
-41.025 24.225 0.975
-41.025 24.225 1.425
-41.025 24.225 1.725
-42.825 23.625 1.875
-42.825 23.625 2.475
-42.825 23.625 0.975
-42.825 23.775 2.175
-42.825 23.775 1.725
-42.825 23.775 0.825
-41.325 24.525 0.825
-40.875 23.925 1.125
-42.675 24.225 1.425
-42.825 23.475 1.275
-42.375 24.525 -0.225
-42.375 24.525 0.975
-42.825 23.925 1.125
-42.825 23.925 0.675
-40.875 23.325 1.725
-40.875 23.325 1.425
-40.875 23.325 -0.525
-42.075 24.675 1.125
-41.175 22.875 1.125
-41.175 22.875 -0.525
-41.175 22.875 1.275
-41.025 23.025 0.525
-42.825 23.325 0.675
-42.825 23.325 3.225
-42.825 23.325 0.075
-42.825 23.325 -0.225
-40.875 24.075 1.425
-40.875 24.075 1.725
-40.875 24.075 0.075
-42.525 22.875 0.675
-42.675 23.025 -3.825
-42.825 24.075 1.575
-42.825 24.075 2.025
-42.225 24.675 0.675
-41.025 24.375 1.125
-41.325 22.725 0.675
-41.325 22.725 -2.475
-41.175 24.525 0.975
-42.375 22.725 1.125
-42.675 24.375 -0.225
-42.675 24.375 -0.525
-42.675 24.375 0.975
-42.825 23.175 0.375
-40.875 24.225 1.275
-40.875 24.225 1.725
-40.875 24.225 0.975
-40.875 24.225 1.575
-40.875 24.225 1.425
-41.625 22.575 2.175
-40.725 23.775 2.175
-40.725 23.775 2.475
-40.725 23.775 0.825
-42.075 22.575 0.375
-42.075 22.575 2.625
-41.325 24.675 1.125
-42.825 24.225 4.275
-42.825 24.225 0.975
-40.725 23.475 0.825
-42.375 24.675 1.125
-42.375 24.675 0.975
-42.975 23.625 1.875
-42.975 23.625 0.825
-42.975 23.775 0.525
-41.025 22.875 0.825
-41.025 22.875 0.675
-40.725 23.925 0.675
-40.725 23.925 1.125
-40.725 23.925 1.425
-42.975 23.475 0.825
-42.975 23.475 -0.375
-41.775 24.825 2.025
-41.475 22.575 0.675
-41.175 22.725 0.675
-41.175 22.725 -0.075
-41.175 22.725 0.825
-41.175 22.725 -0.675
-42.975 23.925 1.725
-42.975 23.925 -0.075
-42.975 23.925 2.475
-40.875 23.025 0.825
-40.875 23.025 2.625
-40.725 23.325 -0.225
-42.525 22.725 -2.325
-42.075 24.825 0.975
-42.075 24.825 2.625
-42.825 23.025 0.075
-40.725 24.075 1.725
-40.725 24.075 1.425
-40.725 24.075 1.875
-42.975 23.325 -0.375
-42.675 24.525 0.975
-40.875 24.375 1.425
-41.175 24.675 -1.725
-41.175 24.675 0.975
-42.975 24.075 1.575
-42.975 24.075 1.425
-42.975 24.075 0.675
-42.975 24.075 0.975
-41.475 24.825 1.425
-42.225 24.825 1.125
-42.225 24.825 0.975
-41.325 22.575 1.125
-41.325 22.575 0.075
-41.325 22.575 0.675
-40.725 23.175 0.075
-40.725 23.175 2.775
-42.975 23.175 0.675
-40.725 24.225 1.575
-40.725 24.225 0.975
-40.725 24.225 1.425
-40.725 24.225 0.675
-40.725 24.225 1.125
-40.725 24.225 1.275
-41.025 22.725 -0.375
-41.925 22.425 0.075
-41.925 22.425 3.075
-40.875 22.875 0.825
-40.875 22.875 1.125
-42.975 24.225 0.975
-41.325 24.825 1.275
-41.325 24.825 1.575
-42.675 22.725 -2.175
-40.575 23.625 0.225
-40.575 23.625 1.125
-40.575 23.625 2.025
-42.825 22.875 1.275
-42.375 24.825 0.825
-40.575 23.775 0.975
-40.575 23.475 -0.375
-43.125 23.625 1.275
-43.125 23.625 0.975
-40.875 24.525 0.075
-40.875 24.525 -0.225
-43.125 23.775 -0.075
-40.575 23.925 4.125
-40.725 23.025 0.375
-43.125 23.475 0.675
-43.125 23.475 0.075
-43.125 23.475 2.175
-43.125 23.475 1.125
-42.825 24.525 1.275
-41.475 22.425 2.475
-41.775 24.975 1.275
-41.775 24.975 0.825
-43.125 23.925 1.725
-40.575 23.325 -0.225
-40.725 24.375 0.975
-40.725 24.375 0.525
-40.725 24.375 0.825
-40.725 24.375 1.425
-40.725 24.375 2.625
-41.625 24.975 2.175
-41.625 24.975 1.275
-41.625 24.975 1.425
-42.075 24.975 1.575
-40.575 24.075 0.525
-41.175 24.825 1.725
-41.175 24.825 1.875
-41.175 24.825 1.125
-41.175 24.825 3.525
-43.125 23.325 0.075
-42.975 24.375 -0.225
-42.975 24.375 2.025
-42.975 24.375 2.625
-42.525 24.825 0.375
-43.125 24.075 -0.075
-43.125 24.075 0.975
-43.125 24.075 2.175
-43.125 24.075 0.225
-41.325 22.425 3.375
-41.325 22.425 2.325
-41.475 24.975 0.825
-40.875 22.725 -0.225
-40.875 22.725 3.375
-42.225 24.975 2.175
-42.225 24.975 1.575
-42.825 22.725 2.025
-40.725 22.875 -0.825
-40.725 22.875 -0.375
-40.575 24.225 0.525
-40.575 24.225 0.675
-40.575 24.225 1.125
-40.575 24.225 0.225
-40.575 24.225 0.975
-40.575 24.225 1.425
-43.125 24.225 -0.375
-43.125 24.225 1.125
-43.125 24.225 0.225
-41.325 24.975 1.125
-41.325 24.975 1.275
-41.775 22.275 0.225
-41.925 22.275 -0.375
-41.925 22.275 2.175
-40.725 24.525 0.975
-40.725 24.525 0.825
-42.375 24.975 0.975
-41.025 24.825 0.225
-41.025 24.825 1.275
-41.025 24.825 0.975
-41.625 22.275 2.625
-41.625 22.275 0.075
-41.625 22.275 2.325
-41.625 22.275 -0.525
-42.975 24.525 -0.525
-40.425 23.775 0.975
-42.525 22.425 1.275
-42.525 22.425 0.225
-43.275 23.775 -0.075
-43.275 23.775 2.175
-40.425 23.925 1.125
-43.125 23.025 -0.225
-40.575 24.375 0.825
-40.575 24.375 1.125
-40.575 24.375 2.625
-40.575 24.375 2.325
-41.775 25.125 1.275
-41.925 25.125 1.125
-41.925 25.125 0.975
-43.275 23.925 2.625
-43.275 23.925 0.225
-43.275 23.925 3.225
-43.275 23.925 2.475
-43.275 23.925 -0.075
-40.425 23.325 -0.225
-40.425 23.325 -0.075
-40.425 23.325 0.675
-40.425 23.325 -0.375
-41.175 24.975 1.125
-41.175 24.975 2.625
-41.175 24.975 0.975
-43.125 24.375 2.025
-40.875 22.575 1.425
-40.725 22.725 0.675
-40.725 22.725 1.425
-40.725 22.725 -0.375
-40.725 22.725 1.275
-41.625 25.125 0.825
-41.625 25.125 1.575
-41.625 25.125 1.275
-41.625 25.125 2.025
-41.625 25.125 1.725
-42.075 25.125 1.125
-42.075 25.125 0.825
-42.525 24.975 1.425
-42.525 24.975 1.875
-40.425 24.075 1.125
-40.425 24.075 0.825
-40.425 24.075 1.425
-40.425 24.075 0.525
-40.425 24.075 0.225
-42.825 22.575 1.425
-43.275 23.325 0.675
-42.975 22.725 1.125
-43.275 24.075 -0.075
-43.275 24.075 1.875
-41.325 22.275 2.625
-41.025 22.425 2.175
-41.025 22.425 0.525
-41.025 22.425 -0.375
-41.475 25.125 1.425
-41.475 25.125 1.275
-40.725 24.675 -1.875
-42.225 25.125 2.325
-42.225 25.125 0.975
-40.875 24.825 1.125
-40.875 24.825 2.475
-40.875 24.825 0.975
-43.125 22.875 1.425
-42.975 24.675 1.275
-42.975 24.675 2.775
-42.975 24.675 0.975
-42.975 24.675 0.825
-42.825 24.825 1.575
-40.425 24.225 1.725
-40.425 24.225 1.425
-40.425 24.225 1.125
-40.425 24.225 -1.275
-40.425 24.225 1.875
-40.575 24.525 0.975
-41.025 24.975 1.125
-41.025 24.975 0.975
-41.025 24.975 0.825
-43.275 24.225 1.575
-43.275 24.225 2.775
-43.275 24.225 2.025
-43.275 24.225 1.725
-41.325 25.125 1.875
-41.325 25.125 1.425
-41.325 25.125 2.475
-41.325 25.125 1.275
-43.125 24.525 3.975
-43.125 24.525 2.475
-42.675 24.975 1.275
-41.175 22.275 -0.075
-41.175 22.275 1.725
-41.775 22.125 2.325
-41.775 22.125 2.175
-41.775 22.125 1.725
-41.925 22.125 -1.275
-42.525 22.275 2.325
-41.625 22.125 -0.075
-41.625 22.125 1.425
-40.725 22.575 -0.075
-40.725 22.575 3.225
-42.075 22.125 1.725
-40.275 23.625 1.875
-40.275 23.775 1.125
-40.275 23.775 -0.825
-40.275 23.775 -0.225
-40.275 23.775 0.675
-40.275 23.775 0.975
-40.275 23.775 1.425
-42.975 22.575 1.425
-40.425 24.375 0.975
-40.425 24.375 2.325
-40.425 24.375 1.125
-40.425 24.375 0.825
-40.575 22.725 -0.525
-40.575 22.725 1.275
-43.425 23.625 -0.075
-43.425 23.625 0.975
-40.275 23.925 0.225
-40.275 23.925 0.975
-40.275 23.925 1.275
-41.475 22.125 2.925
-41.475 22.125 0.225
-41.475 22.125 1.725
-41.475 22.125 2.625
-42.225 22.125 1.575
-43.275 24.375 2.325
-43.425 23.475 2.625
-43.425 23.475 -0.225
-43.125 22.725 -0.075
-41.175 25.125 0.975
-41.175 25.125 1.425
-41.175 25.125 1.725
-41.775 25.275 1.425
-41.925 25.275 1.125
-41.925 25.275 2.325
-40.725 24.825 2.325
-43.425 23.925 -0.225
-41.625 25.275 2.025
-41.625 25.275 1.425
-42.975 24.825 1.575
-42.975 24.825 0.375
-42.075 25.275 1.125
-42.075 25.275 1.725
-41.025 22.275 0.525
-41.025 22.275 2.475
-41.025 22.275 1.875
-40.875 24.975 0.525
-40.875 24.975 1.425
-40.875 24.975 1.125
-40.875 24.975 1.875
-43.425 23.325 1.875
-43.425 23.325 2.625
-40.425 22.875 0.825
-43.125 24.675 0.225
-42.675 22.275 0.225
-42.825 24.975 0.675
-42.825 24.975 1.425
-43.425 24.075 2.175
-43.425 24.075 2.325
-43.425 24.075 2.625
-43.425 24.075 3.375
-43.275 22.875 3.075
-41.475 25.275 2.625
-41.475 25.275 0.375
-41.475 25.275 1.425
-42.225 25.275 1.275
-42.225 25.275 -0.825
-42.225 25.275 2.475
-40.275 24.225 1.125
-40.275 24.225 1.275
-40.275 24.225 1.425
-40.275 24.225 1.875
-40.275 24.225 0.825
-41.025 25.125 1.425
-43.275 24.525 -0.375
-43.275 24.525 0.825
-43.275 24.525 -0.225
-43.275 24.525 -1.125
-42.675 25.125 0.375
-42.675 25.125 1.425
-40.725 22.425 0.525
-40.725 22.425 0.675
-40.575 22.575 0.675
-40.575 22.575 3.075
-43.425 24.225 -0.675
-43.425 24.225 -0.075
-41.325 25.275 0.975
-41.325 25.275 1.575
-41.175 22.125 1.275
-42.975 22.425 0.975
-42.975 22.425 1.575
-42.375 25.275 1.875
-43.125 22.575 -0.225
-43.125 22.575 1.575
-42.525 22.125 1.575
-40.275 23.025 0.525
-40.875 22.275 2.925
-40.875 22.275 0.075
-40.875 22.275 -0.525
-40.875 22.275 0.675
-41.775 21.975 1.575
-41.925 21.975 1.725
-41.925 21.975 1.875
-40.425 22.725 1.125
-40.425 22.725 0.675
-40.425 22.725 -0.825
-40.425 22.725 -0.675
-42.825 22.275 2.175
-40.575 24.825 2.025
-43.425 23.025 2.175
-43.425 23.025 0.375
-41.625 21.975 1.275
-40.725 24.975 1.125
-40.725 24.975 0.825
-42.075 21.975 1.575
-42.075 21.975 1.425
-40.275 24.375 -0.075
-40.275 24.375 0.825
-40.275 24.375 1.275
-40.275 24.375 1.725
-40.275 24.375 0.525
-40.275 24.375 1.125
-40.125 23.625 1.725
-40.125 23.625 1.275
-40.125 23.775 1.575
-43.125 24.825 1.425
-42.975 24.975 -0.525
-40.125 23.475 -0.075
-43.425 24.375 2.925
-43.425 24.375 1.575
-43.425 24.375 0.525
-43.425 24.375 -0.075
-43.425 24.375 0.075
-41.175 25.275 1.575
-40.125 23.925 1.575
-40.125 23.925 0.975
-40.125 23.925 1.725
-43.575 23.625 2.175
-43.575 23.775 -0.675
-43.575 23.775 0.825
-43.575 23.775 0.525
-43.575 23.775 -0.075
-41.475 21.975 1.125
-41.475 21.975 0.525
-42.225 21.975 1.875
-42.225 21.975 1.575
-40.875 25.125 1.125
-40.875 25.125 2.175
-40.875 25.125 2.325
-43.575 23.475 0.225
-43.575 23.475 2.175
-43.575 23.475 0.375
-43.275 24.675 2.475
-43.275 24.675 1.575
-41.025 22.125 -1.125
-41.025 22.125 0.375
-41.025 22.125 -0.525
-41.025 22.125 1.425
-40.125 23.325 4.275
-40.125 23.325 2.025
-40.125 23.325 0.225
-43.575 23.925 0.525
-43.575 23.925 0.825
-41.775 25.425 2.325
-41.775 25.425 0.975
-41.775 25.425 1.275
-41.925 25.425 1.425
-41.925 25.425 1.125
-42.825 25.125 1.575
-42.825 25.125 0.825
-42.825 25.125 1.275
-42.825 25.125 2.175
-40.275 22.875 -0.225
-40.275 22.875 0.525
-40.275 22.875 0.825
-42.675 22.125 1.725
-40.125 24.075 0.825
-40.125 24.075 1.875
-40.125 24.075 1.125
-41.625 25.425 1.575
-42.075 25.425 2.475
-42.075 25.425 1.425
-42.075 25.425 1.875
-42.075 25.425 2.175
-43.425 22.875 1.725
-43.425 22.875 2.175
-41.325 21.975 1.575
-41.325 21.975 2.025
-43.575 24.075 2.925
-40.275 24.525 1.575
-40.275 24.525 2.325
-41.475 25.425 1.575
-41.475 25.425 1.425
-40.725 22.275 1.275
-43.125 22.425 1.875
-42.225 25.425 1.575
-42.225 25.425 2.625
-42.975 22.275 1.575
-42.975 22.275 2.025
-40.125 24.225 1.575
-42.675 25.275 2.025
-40.575 24.975 1.275
-40.575 24.975 1.425
-41.175 21.975 0.375
-41.175 21.975 2.175
-40.875 22.125 2.475
-40.875 22.125 1.575
-41.325 25.425 0.975
-41.325 25.425 1.725
-43.125 24.975 2.025
-43.125 24.975 1.275
-42.375 25.425 2.475
-40.725 25.125 1.275
-40.725 25.125 1.575
-40.725 25.125 1.125
-40.275 22.725 -0.225
-40.275 22.725 2.025
-40.275 22.725 -0.375
-40.275 22.725 0.825
-42.525 21.975 1.725
-42.525 21.975 1.425
-42.525 21.975 1.575
-42.825 22.125 1.425
-42.825 22.125 1.875
-43.275 24.825 0.375
-43.275 24.825 0.525
-43.275 24.825 1.125
-43.275 24.825 2.475
-43.275 24.825 -0.675
-42.975 25.125 0.675
-42.975 25.125 1.575
-43.425 22.725 2.475
-41.775 21.825 1.275
-41.775 21.825 2.325
-43.575 23.025 1.425
-43.575 23.025 2.175
-40.125 24.375 2.625
-40.125 24.375 0.975
-40.125 24.375 1.725
-40.125 24.375 1.575
-40.125 24.375 1.425
-42.075 21.825 0.375
-39.975 23.625 1.725
-39.975 23.775 1.575
-39.975 23.775 -1.125
-40.875 25.275 1.425
-43.575 24.375 1.575
-43.575 24.375 0.525
-41.175 25.425 0.825
-43.425 24.675 1.575
-43.425 24.675 -0.375
-43.425 24.675 1.875
-39.975 23.475 1.575
-42.825 25.275 0.675
-43.725 23.625 3.075
-43.725 23.625 0.825
-43.725 23.625 1.875
-43.725 23.625 0.225
-41.025 21.975 1.425
-41.025 21.975 2.175
-41.025 21.975 1.575
-41.475 21.825 1.125
-43.725 23.775 0.375
-43.725 23.775 1.275
-43.725 23.775 2.625
-43.725 23.775 0.225
-42.225 21.825 1.425
-42.225 21.825 1.725
-42.675 21.975 1.875
-43.125 22.275 1.575
-43.725 23.925 2.925
-43.725 23.925 1.875
-43.275 22.425 2.475
-43.275 22.425 1.725
-43.275 22.425 0.225
-43.275 22.425 1.575
-41.775 25.575 1.275
-41.925 25.575 0.825
-39.975 24.075 0.075
-39.975 24.075 0.975
-39.975 24.075 1.875
-43.575 22.875 -3.375
-43.575 22.875 1.725
-40.725 22.125 1.275
-40.275 22.575 -0.075
-42.075 25.575 1.875
-42.075 25.575 1.275
-42.075 25.575 0.825
-40.125 24.525 0.675
-40.125 24.525 0.825
-42.975 22.125 1.725
-41.325 21.825 1.275
-40.425 24.975 1.425
-40.425 24.975 0.975
-40.425 24.975 1.275
-40.425 24.975 1.125
-42.375 21.825 2.925
-42.375 21.825 2.025
-42.375 21.825 0.975
-42.375 21.825 1.425
-40.575 25.125 2.175
-43.725 24.075 2.775
-43.725 24.075 -0.375
-43.725 24.075 -0.075
-43.725 24.075 0.075
-43.425 22.575 1.725
-43.425 22.575 1.125
-43.575 24.525 -0.975
-43.275 24.975 0.975
-43.275 24.975 2.175
-43.275 24.975 1.725
-43.275 24.975 1.875
-43.125 25.125 -0.075
-43.125 25.125 0.225
-42.225 25.575 0.675
-42.225 25.575 1.275
-42.225 25.575 0.975
-42.675 25.425 1.725
-39.975 24.225 1.425
-39.975 24.225 0.975
-39.975 24.225 1.125
-43.725 23.175 0.075
-40.875 21.975 1.725
-40.875 21.975 1.575
-40.125 22.725 2.175
-40.125 22.725 1.275
-42.975 25.275 1.275
-42.975 25.275 0.825
-42.825 21.975 1.125
-41.175 21.825 1.425
-41.325 25.575 1.875
-42.525 21.825 2.025
-42.525 21.825 1.725
-42.525 21.825 1.875
-42.375 25.575 1.575
-42.375 25.575 2.175
-43.575 22.725 0.075
-40.425 22.275 0.675
-43.725 23.025 0.225
-39.975 24.375 0.825
-39.975 24.375 1.125
-41.775 21.675 3.525
-41.925 21.675 0.525
-41.925 21.675 1.275
-43.275 22.275 1.725
-43.275 22.275 1.875
-42.825 25.425 0.225
-42.825 25.425 1.725
-43.725 24.375 0.375
-42.075 21.675 2.325
-39.825 23.625 -0.825
-39.825 23.775 1.425
-42.525 25.575 1.725
-41.025 21.825 1.275
-41.025 21.825 2.475
-41.025 21.825 0.675
-40.425 25.125 1.275
-40.425 25.125 0.675
-40.425 25.125 2.025
-42.675 21.825 2.475
-42.675 21.825 1.125
-39.975 22.875 1.125
-39.825 23.925 0.225
-40.725 21.975 0.825
-40.725 21.975 1.425
-42.225 21.675 1.425
-42.225 21.675 0.375
-42.225 21.675 1.725
-40.275 24.975 0.825
-40.275 24.975 1.275
-40.275 24.975 2.175
-40.275 24.975 1.425
-40.275 24.975 2.325
-40.275 24.975 1.875
-43.875 23.775 0.825
-42.975 21.975 1.725
-43.875 23.475 1.725
-43.875 23.475 0.825
-43.875 23.475 2.775
-39.825 23.325 -0.375
-39.825 23.325 0.525
-43.725 22.875 1.725
-39.975 24.525 1.425
-39.975 24.525 0.675
-43.125 25.275 -0.225
-43.125 25.275 0.075
-43.125 25.275 1.875
-43.125 25.275 1.425
-39.825 24.075 -0.225
-43.875 23.325 0.825
-40.125 24.825 2.025
-40.125 24.825 1.425
-43.725 24.525 -0.525
-43.725 24.525 0.975
-43.875 24.075 2.175
-43.875 24.075 0.975
-43.875 24.075 0.075
-43.875 24.075 2.775
-43.575 24.825 0.375
-40.875 21.825 2.775
-42.975 25.425 1.275
-42.975 25.425 2.175
-42.225 25.725 1.275
-42.225 25.725 2.025
-39.825 24.225 1.125
-39.825 24.225 0.975
-39.975 22.725 1.275
-39.975 22.725 -0.075
-39.975 22.725 0.675
-42.825 21.825 0.825
-40.425 22.125 1.425
-40.275 22.275 0.375
-40.275 22.275 0.075
-40.275 22.275 0.675
-41.175 21.675 -1.125
-43.875 24.225 0.825
-43.875 24.225 -0.375
-43.875 24.225 0.225
-43.725 22.725 1.425
-43.725 22.725 4.275
-43.725 22.725 -0.225
-43.275 22.125 2.175
-43.275 22.125 1.125
-42.525 21.675 1.125
-42.525 21.675 1.725
-43.425 22.275 1.275
-39.825 23.025 0.525
-40.575 21.975 1.275
-42.375 25.725 1.725
-42.375 25.725 1.575
-40.125 22.425 0.675
-40.125 22.425 -1.425
-40.125 22.425 0.525
-43.125 21.975 1.725
-43.725 24.675 0.825
-43.725 24.675 4.425
-43.725 24.675 1.275
-39.825 24.375 0.675
-39.825 24.375 0.975
-43.875 23.025 0.075
-40.425 25.275 1.425
-42.825 25.575 2.025
-42.825 25.575 0.825
-42.825 25.575 2.325
-43.425 25.125 0.975
-43.875 24.375 1.575
-43.875 24.375 -0.075
-43.875 24.375 -0.375
-40.125 24.975 2.175
-41.025 21.675 0.825
-41.025 21.675 -0.075
-40.725 21.825 1.725
-41.625 21.525 -0.375
-40.575 25.425 5.925
-42.075 21.525 1.275
-42.525 25.725 1.275
-39.975 22.575 0.675
-42.675 21.675 1.725
-39.675 23.625 0.675
-39.675 23.625 0.975
-43.575 24.975 0.375
-43.575 24.975 0.525
-43.575 24.975 1.425
-39.675 23.775 1.125
-39.675 23.775 1.425
-39.825 22.875 0.675
-42.975 21.825 2.175
-42.975 21.825 0.975
-43.125 25.425 0.975
-41.475 21.525 0.975
-39.675 23.925 0.375
-39.675 23.925 2.025
-43.725 22.575 1.875
-43.725 22.575 2.175
-42.225 21.525 1.275
-44.025 23.625 -0.225
-44.025 23.625 -0.075
-44.025 23.625 1.275
-44.025 23.775 -0.075
-44.025 23.775 -0.525
-44.025 23.775 0.825
-39.825 24.525 0.525
-39.975 24.825 1.725
-39.975 24.825 -0.225
-39.975 24.825 0.675
-44.025 23.475 2.475
-44.025 23.475 2.625
-39.675 23.325 -1.275
-44.025 23.925 0.525
-44.025 23.925 0.825
-40.275 22.125 0.675
-39.675 24.075 0.225
-39.675 24.075 1.425
-39.675 24.075 1.125
-39.675 24.075 1.575
-43.725 24.825 1.125
-43.725 24.825 0.975
-44.025 23.325 1.875
-40.425 21.975 1.725
-42.075 25.875 1.125
-42.375 21.525 0.525
-42.675 25.725 1.275
-42.675 25.725 1.575
-43.425 22.125 2.325
-44.025 24.075 0.825
-43.575 22.275 1.575
-43.575 22.275 1.425
-42.825 21.675 1.125
-42.825 21.675 2.025
-39.825 22.725 1.275
-39.825 22.725 -0.225
-39.825 22.725 -0.525
-39.825 22.725 0.675
-41.475 25.875 1.575
-42.225 25.875 1.425
-42.225 25.875 2.025
-39.675 24.225 0.825
-39.675 24.225 0.975
-39.675 24.225 1.125
-40.275 25.275 0.525
-40.275 25.275 1.275
-40.275 25.275 0.825
-43.875 22.725 -0.075
-40.125 25.125 0.825
-43.125 21.825 0.525
-43.125 21.825 1.275
-43.425 25.275 1.125
-43.425 25.275 2.025
-44.025 24.225 -0.075
-42.525 21.525 2.625
-42.525 21.525 1.875
-43.725 22.425 1.575
-43.725 22.425 1.725
-43.575 25.125 2.025
-43.575 25.125 1.725
-39.675 23.025 0.825
-39.675 23.025 -0.375
-43.875 24.675 1.125
-43.875 24.675 -0.525
-43.875 24.675 0.975
-43.875 24.675 -0.975
-43.875 24.675 0.825
-43.875 24.675 1.425
-42.825 25.725 2.625
-39.975 24.975 0.975
-39.975 24.975 1.275
-39.975 24.975 0.675
-39.675 24.375 0.975
-39.675 24.375 0.825
-40.725 21.675 1.275
-43.725 24.975 0.825
-43.725 24.975 2.475
-44.025 24.375 -0.225
-44.025 24.375 1.575
-44.025 24.375 0.225
-44.025 24.375 -0.075
-44.025 24.375 0.075
-44.025 24.375 -0.375
-43.125 25.575 2.025
-42.975 21.675 0.075
-42.975 21.675 0.975
-42.675 21.525 0.975
-42.675 21.525 0.225
-42.675 21.525 1.725
-42.525 25.875 1.425
-42.525 25.875 2.175
-39.675 22.875 0.825
-41.625 21.375 2.325
-41.625 21.375 0.525
-40.275 21.975 1.125
-42.075 21.375 3.225
-43.875 22.575 1.725
-40.125 22.125 0.825
-39.525 23.625 1.575
-39.525 23.625 1.425
-39.525 23.775 0.975
-39.525 23.775 -0.075
-39.525 23.775 1.275
-39.525 23.775 0.375
-43.425 21.975 0.975
-44.025 22.875 2.025
-39.975 22.275 -0.075
-44.175 23.625 0.675
-44.175 23.775 1.275
-44.175 23.775 1.425
-44.175 23.775 0.825
-43.875 24.825 2.925
-43.875 24.825 2.475
-43.875 24.825 0.825
-43.875 24.825 1.125
-43.275 21.825 0.525
-39.525 23.325 1.275
-42.975 25.725 1.575
-44.025 24.525 1.725
-44.025 24.525 0.975
-44.025 24.525 -0.525
-44.025 24.525 1.875
-44.025 24.525 -1.125
-40.125 25.275 0.825
-44.175 23.925 0.825
-44.175 23.925 0.525
-39.525 24.075 0.825
-39.525 24.075 1.125
-39.525 24.075 -0.075
-41.925 26.025 1.425
-41.325 21.375 0.375
-44.175 23.325 2.325
-42.375 21.375 1.125
-43.425 25.425 1.425
-42.825 21.525 0.525
-42.825 21.525 0.975
-39.975 25.125 1.875
-39.975 25.125 0.825
-44.175 24.075 -0.075
-39.525 23.175 2.175
-43.125 21.675 1.425
-43.725 25.125 0.675
-43.725 25.125 0.525
-43.725 25.125 0.975
-43.725 25.125 -0.525
-39.525 24.225 0.975
-39.525 24.225 0.825
-39.525 24.225 1.275
-39.525 24.225 3.675
-39.525 24.225 2.175
-44.025 22.725 1.575
-44.025 22.725 2.025
-43.275 25.575 2.475
-43.875 22.425 1.575
-43.875 22.425 1.725
-44.175 24.225 1.575
-44.175 24.225 0.075
-44.175 24.225 1.125
-42.525 21.375 0.825
-42.525 21.375 1.125
-39.825 24.975 1.125
-39.825 24.975 1.275
-44.025 24.675 0.825
-44.025 24.675 -0.225
-44.025 24.675 1.125
-44.025 24.675 1.575
-44.025 24.675 0.975
-42.375 26.025 1.125
-42.825 25.875 1.425
-42.825 25.875 1.275
-43.875 24.975 0.525
-43.875 24.975 1.125
-43.875 24.975 0.675
-43.875 24.975 0.075
-43.875 24.975 4.425
-43.125 25.725 1.875
-43.125 25.725 2.175
-39.525 24.375 0.825
-39.525 24.375 0.975
-39.525 24.375 1.275
-39.525 24.375 0.675
-40.725 21.525 2.325
-44.175 23.025 0.975
-44.175 23.025 1.725
-40.275 21.825 0.075
-40.275 21.825 2.025
-39.975 22.125 1.725
-39.975 22.125 1.275
-43.575 21.975 0.525
-39.675 22.575 0.675
-39.675 22.575 0.525
-42.975 21.525 1.725
-42.975 21.525 0.975
-43.425 21.825 2.775
-44.175 24.375 1.125
-44.175 24.375 1.575
-44.025 22.575 2.025
-44.025 22.575 1.875
-42.675 21.375 0.375
-42.525 26.025 1.575
-39.525 22.875 -0.075
-39.525 22.875 0.675
-39.525 22.875 1.125
-39.525 22.875 1.275
-39.675 24.825 1.725
-39.675 24.825 1.575
-43.275 21.675 0.825
-43.575 25.425 2.325
-43.575 25.425 1.575
-39.375 23.625 0.825
-39.375 23.625 0.225
-39.375 23.775 0.675
-39.375 23.775 0.975
-43.875 22.275 1.275
-44.025 24.825 0.975
-43.725 25.275 1.125
-39.375 23.475 1.575
-43.425 25.575 -1.725
-42.975 25.875 1.725
-42.225 21.225 0.825
-42.225 21.225 1.425
-39.375 23.925 0.225
-39.375 23.925 0.975
-39.825 25.125 1.875
-39.825 25.125 1.275
-39.825 25.125 2.025
-44.175 24.525 -0.525
-44.175 24.525 0.975
-44.325 23.625 1.575
-44.325 23.625 0.375
-44.325 23.625 -0.825
-44.325 23.625 -0.075
-44.325 23.625 0.675
-44.325 23.775 -0.075
-44.325 23.775 1.425
-44.325 23.775 1.275
-44.325 23.775 0.825
-39.375 23.325 2.175
-44.325 23.475 -0.075
-40.875 21.375 3.075
-40.875 21.375 1.125
-40.575 21.525 3.375
-42.675 26.025 1.725
-42.675 26.025 1.875
-42.675 26.025 1.575
-43.875 25.125 -0.075
-43.875 25.125 0.375
-43.875 25.125 1.875
-39.375 24.075 0.825
-39.375 24.075 1.125
-42.825 21.375 2.175
-42.825 21.375 1.575
-41.325 21.225 2.625
-41.325 21.225 0.975
-43.275 25.725 1.425
-43.275 25.725 1.575
-39.525 22.725 0.675
-43.125 21.525 0.825
-42.375 21.225 1.275
-44.325 23.325 2.025
-44.325 24.075 -0.225
-39.375 23.175 2.475
-39.375 23.175 1.125
-39.975 21.975 1.875
-39.975 21.975 2.175
-39.675 24.975 0.525
-39.675 24.975 1.425
-39.675 24.975 1.275
-39.675 24.975 1.125
-39.675 24.975 1.575
-39.375 24.225 0.375
-39.375 24.225 1.275
-39.375 24.225 0.975
-44.325 23.175 2.175
-43.575 21.825 0.675
-43.575 21.825 0.525
-43.575 21.825 1.275
-41.175 21.225 1.275
-41.175 21.225 -0.525
-40.275 21.675 1.275
-40.275 21.675 3.525
-40.275 21.675 0.225
-44.175 24.675 -0.225
-44.175 24.675 0.075
-44.175 24.675 0.975
-44.025 24.975 0.825
-44.025 24.975 2.175
-44.025 24.975 0.975
-39.825 22.125 1.875
-42.525 21.225 0.675
-42.525 21.225 0.975
-42.525 21.225 1.425
-42.525 21.225 1.125
-42.525 21.225 2.025
-44.325 24.225 0.525
-44.325 24.225 2.025
-44.325 24.225 -0.075
-44.325 24.225 0.825
-44.325 24.225 1.125
-44.325 24.225 0.225
-43.125 25.875 0.975
-39.375 23.025 0.375
-39.375 23.025 0.675
-43.425 21.675 1.725
-43.875 22.125 1.425
-39.975 25.425 0.975
-39.975 25.425 0.675
-42.975 21.375 1.425
-42.975 21.375 1.275
-39.375 24.375 0.675
-39.375 24.375 1.575
-39.375 24.375 0.975
-39.375 24.375 0.525
-39.375 24.375 1.125
-43.725 25.425 1.575
-43.575 25.575 0.675
-39.825 25.275 1.575
-39.825 25.275 0.675
-44.175 22.575 0.975
-44.175 22.575 1.575
-44.325 24.375 1.125
-44.325 24.375 -0.075
-44.325 24.375 1.575
-44.325 24.375 0.075
-41.025 21.225 2.325
-41.025 21.225 0.225
-41.025 21.225 2.625
-43.275 21.525 0.675
-39.525 24.825 1.725
-39.525 24.825 2.325
-39.525 24.825 1.575
-42.675 21.225 1.125
-43.875 25.275 1.875
-43.875 25.275 2.625
-43.875 25.275 1.125
-43.425 25.725 1.875
-39.375 22.875 2.175
-44.025 22.275 1.125
-41.925 21.075 0.975
-44.175 24.825 1.275
-44.175 24.825 -0.225
-39.675 25.125 0.675
-39.675 25.125 1.125
-41.625 21.075 2.025
-39.375 24.525 1.125
-42.075 21.075 0.975
-42.075 21.075 1.275
-42.975 26.025 2.175
-39.225 23.625 -0.375
-39.225 23.625 1.575
-39.225 23.625 1.725
-39.225 23.775 -0.075
-39.225 23.775 0.675
-39.225 23.775 -0.375
-39.225 23.775 -0.525
-44.025 25.125 1.275
-44.025 25.125 1.725
-39.225 23.475 1.575
-40.575 21.375 1.125
-40.575 21.375 0.975
-41.475 21.075 0.525
-41.475 21.075 1.425
-41.475 21.075 0.675
-41.475 21.075 -0.825
-44.325 24.525 1.575
-44.325 24.525 1.125
-44.325 24.525 0.075
-44.325 24.525 -0.075
-44.325 24.525 0.525
-39.975 21.825 1.425
-39.975 21.825 1.875
-42.225 21.075 1.575
-43.275 25.875 2.325
-43.275 25.875 2.175
-43.275 25.875 1.575
-43.275 25.875 2.475
-39.225 23.925 -0.075
-39.225 23.925 0.975
-40.875 21.225 1.275
-44.475 23.625 0.525
-44.475 23.625 1.425
-44.475 23.625 1.575
-44.475 23.625 0.675
-40.125 21.675 1.875
-44.475 23.775 -0.225
-39.825 21.975 0.675
-39.825 21.975 0.075
-39.825 21.975 1.875
-39.825 21.975 0.375
-39.825 21.975 -0.525
-42.825 21.225 1.275
-42.825 21.225 1.125
-39.225 23.325 1.275
-39.225 23.325 1.575
-43.725 21.825 0.525
-43.725 21.825 1.425
-44.475 23.475 -0.975
-44.475 23.475 0.675
-44.475 23.475 0.525
-43.575 21.675 1.725
-39.225 24.075 1.275
-39.225 24.075 0.825
-41.325 21.075 1.125
-43.875 21.975 1.875
-43.875 21.975 0.975
-42.375 21.075 0.675
-42.375 21.075 1.125
-42.375 21.075 1.575
-42.375 21.075 -0.525
-39.525 24.975 -0.075
-39.525 24.975 1.575
-44.475 23.325 2.175
-39.225 23.175 4.725
-44.475 24.075 -0.375
-43.425 21.525 0.975
-44.175 24.975 1.125
-44.175 24.975 1.575
-39.225 24.225 0.225
-39.225 24.225 1.275
-39.225 24.225 0.675
-44.025 22.125 0.675
-44.325 24.675 -0.075
-43.125 26.025 2.325
-44.475 23.175 2.025
-44.475 23.175 2.325
-41.175 21.075 1.275
-43.875 25.425 1.575
-43.875 25.425 1.125
-42.525 21.075 1.425
-42.525 21.075 1.125
-42.525 21.075 0.525
-42.525 21.075 2.175
-44.475 24.225 1.575
-44.475 24.225 0.825
-44.475 24.225 0.675
-44.475 24.225 1.125
-44.475 24.225 2.475
-40.725 21.225 0.975
-42.975 21.225 0.525
-39.375 22.575 2.625
-39.375 22.575 1.875
-40.425 21.375 0.975
-44.025 25.275 1.725
-44.025 25.275 0.825
-44.025 25.275 2.025
-39.225 24.375 1.275
-39.225 24.375 0.525
-43.425 25.875 2.025
-44.475 23.025 1.125
-44.325 22.575 0.825
-44.325 22.575 1.575
-44.175 22.275 1.125
-39.375 24.825 1.575
-39.375 24.825 1.425
-39.375 24.825 2.325
-41.025 21.075 1.275
-41.025 21.075 1.575
-41.025 21.075 2.175
-41.025 21.075 1.125
-41.025 21.075 0.225
-44.475 24.375 1.125
-44.475 24.375 1.575
-42.675 21.075 1.125
-39.525 25.125 0.675
-39.525 25.125 1.125
-39.225 22.875 0.825
-39.225 22.875 1.125
-39.825 21.825 0.975
-44.325 24.825 0.975
-44.325 24.825 1.125
-44.325 24.825 1.575
-42.975 26.175 1.575
-42.975 26.175 1.275
-43.725 21.675 0.975
-44.175 25.125 0.225
-43.875 21.825 -3.225
-43.875 21.825 1.275
-40.125 21.525 0.525
-41.925 20.925 0.675
-41.925 20.925 0.075
-39.225 24.525 2.325
-39.225 24.525 1.725
-44.475 22.875 -0.375
-44.475 22.875 2.025
-39.675 21.975 0.525
-39.675 21.975 2.025
-43.275 26.025 1.725
-40.575 21.225 1.125
-40.575 21.225 0.375
-41.625 20.925 0.375
-43.575 21.525 1.125
-43.575 21.525 2.475
-39.375 22.425 -0.225
-43.125 21.225 0.975
-44.025 21.975 0.975
-44.475 24.525 0.075
-44.475 24.525 -0.075
-44.475 24.525 1.125
-39.075 23.775 1.425
-39.825 25.575 0.525
-40.875 21.075 1.275
-40.875 21.075 0.675
-40.875 21.075 0.975
-41.475 20.925 0.975
-41.475 20.925 0.525
-41.475 20.925 1.725
-42.225 20.925 0.825
-39.075 23.925 -0.225
-39.075 23.925 0.225
-39.075 23.925 2.625
-42.825 21.075 1.425
-42.825 21.075 -0.075
-42.675 26.325 1.275
-44.325 22.425 1.275
-40.275 21.375 3.225
-43.875 25.575 -1.725
-43.875 25.575 1.125
-44.625 23.625 1.875
-44.625 23.625 0.825
-44.625 23.625 2.475
-43.725 25.725 1.425
-43.725 25.725 2.325
-44.625 23.775 1.125
-44.625 23.775 0.375
-39.075 23.325 3.075
-43.425 21.375 0.675
-44.625 23.925 0.825
-39.075 24.075 0.975
-39.075 24.075 0.675
-39.075 24.075 1.275
-39.075 24.075 1.425
-39.075 24.075 -0.225
-39.075 24.075 0.525
-41.325 20.925 0.525
-44.025 25.425 1.725
-44.025 25.425 2.325
-44.025 25.425 1.875
-44.475 22.725 1.575
-42.375 20.925 1.875
-42.375 20.925 1.125
-39.225 24.675 1.275
-43.575 25.875 0.675
-44.325 24.975 0.525
-44.625 23.325 0.675
-39.075 23.175 -0.075
-44.625 24.075 0.825
-44.625 24.075 0.525
-44.475 24.675 0.975
-44.475 24.675 -0.225
-44.475 24.675 3.225
-39.075 24.225 0.975
-42.225 26.475 1.575
-44.625 23.175 2.025
-40.725 21.075 0.975
-40.725 21.075 0.825
-41.175 20.925 0.375
-41.175 20.925 1.425
-40.425 21.225 1.725
-40.425 21.225 0.975
-42.525 20.925 1.125
-42.525 20.925 0.075
-43.425 26.025 2.175
-39.375 22.275 2.475
-42.975 21.075 1.125
-42.975 21.075 0.825
-39.225 22.575 0.525
-43.275 21.225 1.125
-43.275 21.225 1.425
-43.275 21.225 1.275
-43.275 21.225 0.525
-39.825 21.675 1.725
-39.075 23.025 -0.225
-44.325 22.275 1.275
-44.325 22.275 0.975
-43.875 21.675 2.325
-43.875 21.675 1.125
-43.875 21.675 1.875
-43.875 21.675 1.575
-39.075 24.375 0.825
-39.075 24.375 1.275
-39.075 24.375 1.425
-44.475 22.575 1.725
-44.475 22.575 1.125
-39.225 24.825 1.275
-39.225 24.825 1.725
-39.225 24.825 2.025
-44.625 23.025 0.075
-44.025 21.825 1.125
-41.025 20.925 1.125
-41.025 20.925 0.525
-41.025 20.925 2.025
-41.025 20.925 0.375
-40.125 21.375 1.125
-40.125 21.375 0.975
-44.625 24.375 1.575
-44.625 24.375 1.125
-39.525 21.975 1.425
-39.525 21.975 2.775
-42.675 20.925 1.725
-44.475 24.825 0.225
-44.475 24.825 -0.075
-39.075 22.875 1.125
-39.075 22.875 -0.375
-43.275 26.175 1.875
-43.275 26.175 1.575
-43.275 26.175 1.125
-43.875 25.725 1.125
-40.575 21.075 0.525
-40.575 21.075 0.675
-40.575 21.075 1.425
-39.075 24.525 1.875
-43.725 25.875 2.175
-43.725 25.875 1.125
-43.125 21.075 0.525
-39.225 22.425 0.525
-41.925 20.775 1.125
-39.525 25.425 1.275
-40.275 21.225 1.425
-40.275 21.225 1.725
-40.275 21.225 1.275
-41.625 20.775 1.125
-41.625 20.775 0.825
-42.075 20.775 1.275
-42.075 20.775 2.475
-42.075 20.775 1.125
-44.625 24.525 1.125
-44.625 24.525 -0.375
-40.875 20.925 2.175
-40.875 20.925 1.125
-44.475 22.425 1.725
-44.475 22.425 2.025
-38.925 23.625 0.375
-38.925 23.625 0.825
-38.925 23.625 0.075
-44.175 25.425 1.875
-44.175 25.425 2.925
-38.925 23.775 2.625
-43.575 26.025 1.725
-43.575 26.025 2.025
-43.575 26.025 1.875
-41.475 20.775 0.825
-39.225 24.975 1.125
-39.225 24.975 2.025
-38.925 23.475 1.725
-38.925 23.475 -0.525
-38.925 23.475 2.475
-42.225 20.775 1.125
-42.225 20.775 2.325
-42.225 20.775 1.725
-42.225 20.775 1.875
-39.075 22.725 2.775
-39.075 22.725 0.525
-38.925 23.925 2.475
-38.925 23.925 2.175
-44.775 23.625 1.275
-44.775 23.775 0.675
-38.925 23.325 -0.675
-38.925 23.325 -0.975
-38.925 23.325 1.575
-44.475 24.975 -0.675
-44.475 24.975 0.825
-44.475 24.975 0.975
-44.475 24.975 -0.525
-44.775 23.475 0.225
-39.075 24.675 1.275
-39.075 24.675 1.575
-39.075 24.675 1.725
-39.075 24.675 2.175
-38.925 24.075 3.525
-38.925 24.075 2.175
-38.925 24.075 2.475
-38.925 24.075 0.825
-41.325 20.775 0.825
-44.775 23.925 0.825
-44.775 23.925 -0.375
-44.775 23.925 1.275
-44.775 23.925 1.125
-39.675 21.675 0.825
-39.675 21.675 1.875
-42.375 20.775 1.425
-42.375 20.775 1.725
-44.325 25.275 1.125
-44.325 25.275 2.025
-44.325 25.275 1.575
-44.325 25.275 0.825
-44.625 24.675 2.175
-43.875 21.525 0.825
-43.875 21.525 1.125
-43.875 21.525 0.975
-43.875 21.525 2.325
-40.425 21.075 1.575
-40.425 21.075 0.375
-40.425 21.075 1.425
-40.725 20.925 0.825
-40.725 20.925 1.575
-40.725 20.925 1.875
-38.925 24.225 1.125
-38.925 24.225 0.975
-38.925 24.225 1.575
-43.275 21.075 3.525
-43.725 21.375 1.575
-42.975 20.925 1.425
-42.975 20.925 0.225
-42.975 20.925 0.825
-41.175 20.775 0.525
-44.775 23.175 0.525
-44.775 23.175 2.175
-42.225 26.625 1.575
-39.075 22.575 2.775
-44.175 21.825 2.325
-44.175 21.825 1.125
-42.525 20.775 0.675
-44.475 22.275 1.275
-44.475 22.275 1.125
-39.825 25.875 1.575
-44.775 24.225 1.575
-38.925 23.025 0.675
-38.925 23.025 1.725
-40.125 21.225 1.125
-40.125 21.225 -0.375
-40.125 21.225 0.975
-39.225 25.125 3.225
-39.375 21.975 2.175
-44.025 25.725 -0.525
-39.075 24.825 1.575
-39.075 24.825 1.275
-39.075 24.825 0.225
-39.075 24.825 2.175
-42.375 26.625 1.875
-38.925 24.375 0.225
-38.925 24.375 0.525
-38.925 24.375 3.075
-44.475 25.125 0.375
-44.475 25.125 0.975
-44.325 21.975 2.325
-44.325 21.975 0.825
-41.025 20.775 2.475
-41.025 20.775 0.525
-44.625 24.825 1.725
-44.625 24.825 -0.225
-43.725 26.025 2.325
-44.775 24.375 0.825
-44.775 24.375 1.125
-38.925 22.875 1.125
-38.925 22.875 0.675
-40.575 20.925 1.575
-40.275 21.075 0.075
-39.075 22.425 -0.225
-39.075 22.425 2.025
-39.075 22.425 0.525
-44.325 25.425 1.125
-44.775 22.875 0.075
-44.775 22.875 1.575
-43.575 26.175 2.175
-41.775 20.625 -0.225
-41.925 20.625 2.025
-44.775 24.525 0.225
-44.775 24.525 1.125
-40.875 20.775 1.425
-40.875 20.775 1.125
-39.075 24.975 1.275
-39.825 21.375 0.225
-42.075 20.625 1.125
-42.075 20.625 0.975
-42.825 20.775 2.775
-42.825 20.775 1.425
-38.775 23.625 1.725
-38.775 23.625 1.575
-38.925 22.725 0.075
-38.925 22.725 2.775
-41.475 20.625 0.825
-38.775 23.475 0.975
-38.775 23.475 -0.075
-38.775 23.475 1.725
-44.175 21.675 1.275
-44.175 21.675 1.725
-42.225 20.625 2.325
-44.625 24.975 -0.375
-38.775 23.925 0.675
-43.125 26.475 2.175
-39.375 21.825 1.725
-44.475 25.275 0.825
-44.775 22.725 1.725
-44.775 22.725 2.025
-44.925 23.625 0.675
-44.925 23.625 0.075
-44.925 23.775 0.675
-38.775 23.325 1.125
-38.775 23.325 2.325
-38.775 23.325 0.975
-40.425 20.925 1.725
-40.425 20.925 0.825
-38.775 24.075 2.175
-38.775 24.075 1.575
-38.775 24.075 2.325
-44.925 23.925 -0.675
-44.925 23.925 0.075
-44.925 23.925 2.025
-42.375 20.625 1.575
-39.825 26.025 0.975
-39.075 22.275 0.675
-44.775 24.675 1.875
-44.775 24.675 1.575
-44.775 24.675 2.925
-43.275 20.925 3.525
-44.025 25.875 2.175
-44.025 25.875 1.575
-40.725 20.775 0.675
-38.775 23.175 0.975
-38.775 23.175 0.675
-38.775 23.175 -0.675
-44.175 25.725 1.575
-43.875 26.025 1.875
-44.925 24.075 1.125
-44.925 24.075 -0.675
-40.125 21.075 0.525
-38.775 24.225 1.425
-38.775 24.225 1.125
-38.925 22.575 0.525
-41.175 20.625 1.125
-41.175 20.625 0.375
-43.575 21.075 1.575
-42.525 20.625 1.425
-44.775 22.575 1.125
-38.775 23.025 0.675
-38.775 23.025 -0.525
-38.775 23.025 0.375
-44.475 21.975 0.975
-38.925 24.825 1.275
-38.925 24.825 2.025
-44.625 25.125 1.125
-44.625 25.125 0.225
-41.325 26.775 2.325
-38.775 24.375 0.975
-38.775 24.375 0.525
-38.775 24.375 1.725
-44.925 24.375 -0.375
-44.475 25.425 1.425
-44.475 25.425 1.575
-40.575 20.775 1.125
-40.575 20.775 0.075
-40.275 20.925 1.575
-40.275 20.925 0.975
-38.775 22.875 1.575
-38.775 22.875 1.275
-38.775 22.875 2.325
-38.775 22.875 -0.075
-38.775 22.875 0.825
-38.775 22.875 1.125
-39.075 22.125 1.425
-43.125 20.775 1.425
-44.025 21.375 1.125
-39.825 21.225 0.975
-38.925 22.425 2.025
-44.175 21.525 1.275
-44.175 21.525 0.225
-39.375 21.675 1.275
-39.375 21.675 1.875
-38.775 24.525 0.825
-38.775 24.525 0.675
-38.775 24.525 1.575
-38.775 24.525 3.075
-44.925 22.875 0.225
-44.775 22.425 1.275
-44.775 22.425 1.875
-38.925 24.975 1.425
-40.875 20.625 0.975
-44.925 24.525 1.575
-44.925 24.525 0.975
-39.975 21.075 2.475
-39.975 21.075 1.425
-39.975 21.075 0.975
-41.925 20.475 0.375
-39.225 21.825 1.875
-42.825 20.625 0.975
-44.025 26.025 1.275
-44.775 24.975 0.225
-44.775 24.975 0.375
-44.775 24.975 0.975
-38.775 22.725 0.525
-42.675 26.775 2.175
-44.625 25.275 1.425
-44.625 25.275 3.525
-38.625 23.625 1.575
-38.625 23.625 1.425
-38.625 23.775 1.575
-38.625 23.775 1.425
-38.625 23.775 -0.525
-44.325 25.725 0.975
-38.625 23.475 -0.225
-38.625 23.475 0.975
-43.875 26.175 1.125
-43.875 26.175 1.575
-38.625 23.925 1.875
-38.625 23.925 3.075
-38.625 23.925 -0.075
-38.625 23.925 1.125
-40.425 20.775 0.375
-38.925 22.275 2.775
-38.625 23.325 1.575
-38.625 23.325 1.425
-45.075 23.775 0.375
-41.325 20.475 1.125
-40.125 20.925 1.275
-38.625 24.075 1.275
-38.625 24.075 -0.375
-38.625 24.075 1.425
-44.925 24.675 -0.225
-44.925 24.675 1.425
-42.375 20.475 2.175
-42.375 20.475 1.275
-45.075 23.925 3.975
-45.075 23.925 0.825
-40.725 20.625 1.125
-44.475 25.575 0.225
-44.775 22.275 1.275
-41.775 26.925 0.975
-38.625 23.175 -0.075
-38.625 23.175 3.375
-38.925 25.125 1.275
-45.075 24.075 0.825
-45.075 24.075 -0.375
-45.075 24.075 -0.075
-45.075 24.075 2.025
-38.625 24.225 0.675
-38.625 24.225 0.975
-38.625 24.225 1.725
-39.525 21.375 0.525
-39.525 21.375 0.975
-39.675 21.225 0.675
-39.675 21.225 1.275
-45.075 23.175 0.975
-44.775 25.125 0.375
-44.775 25.125 1.425
-44.775 25.125 0.975
-44.925 22.575 2.025
-44.925 22.575 1.875
-38.775 24.825 1.425
-38.775 24.825 1.275
-38.775 24.825 2.775
-38.775 24.825 0.675
-44.175 21.375 0.975
-44.175 21.375 1.425
-38.625 23.025 0.075
-38.625 23.025 0.375
-38.625 23.025 1.425
-44.025 21.225 0.075
-44.325 21.525 0.525
-44.625 25.425 0.375
-39.825 21.075 1.425
-39.825 21.075 0.975
-39.825 21.075 1.275
-44.925 24.825 3.225
-44.925 24.825 1.725
-44.925 24.825 2.025
-44.925 24.825 1.125
-44.925 24.825 -0.525
-38.625 24.375 0.825
-38.625 24.375 1.875
-39.225 21.675 1.575
-40.275 20.775 2.025
-38.925 22.125 2.325
-44.475 21.675 0.075
-45.075 24.375 -0.225
-38.775 22.425 -0.675
-38.775 22.425 1.725
-44.175 26.025 -0.675
-44.175 26.025 1.275
-44.175 26.025 1.125
-38.625 22.875 2.775
-38.625 22.875 0.675
-44.775 22.125 1.875
-44.325 25.875 0.975
-44.325 25.875 1.125
-44.025 26.175 2.025
-44.025 26.175 0.975
-39.975 20.925 0.675
-39.975 20.925 1.575
-39.975 20.925 1.275
-39.975 20.925 0.525
-38.925 25.275 3.075
-44.925 22.425 2.325
-44.925 22.425 1.425
-44.925 22.425 2.175
-39.075 21.825 1.875
-39.075 21.825 2.175
-38.775 24.975 1.425
-44.475 25.725 0.375
-43.875 26.325 1.425
-43.875 26.325 1.275
-44.775 25.275 3.075
-44.925 24.975 -0.375
-44.925 24.975 0.225
-44.925 24.975 2.175
-44.925 24.975 0.525
-41.775 20.325 2.325
-41.925 20.325 2.175
-38.625 22.725 2.925
-38.625 22.725 2.625
-38.625 22.725 1.125
-38.475 23.625 1.875
-38.475 23.625 0.225
-38.475 23.775 2.025
-38.625 24.675 1.725
-38.625 24.675 1.125
-40.125 20.775 0.675
-45.075 22.725 1.125
-45.075 22.725 0.075
-39.525 21.225 0.975
-42.225 20.325 2.625
-44.625 25.575 0.375
-38.475 23.475 0.975
-38.475 23.475 1.725
-38.475 23.475 2.025
-38.925 21.975 0.675
-38.475 23.925 1.275
-38.475 23.925 0.375
-38.475 23.925 0.975
-38.475 23.925 1.425
-44.175 21.225 1.275
-39.675 21.075 1.275
-39.675 21.075 1.875
-39.675 21.075 1.125
-45.225 23.625 2.325
-45.225 23.625 1.875
-45.225 23.625 4.275
-45.075 24.675 0.225
-45.075 24.675 2.025
-45.075 24.675 1.125
-45.075 24.675 -0.225
-45.225 23.775 0.375
-45.225 23.775 0.225
-40.725 20.475 3.675
-40.725 20.475 1.425
-45.225 23.475 2.175
-45.225 23.475 2.025
-45.225 23.475 2.325
