# .PCD v0.7 - Point Cloud Data file format
VERSION 0.7
FIELDS x y z
SIZE 4 4 4
TYPE F F F
COUNT 1 1 1
WIDTH 2048
HEIGHT 1
VIEWPOINT 0 0 0 1 0 0 0
POINTS 2048
DATA ascii
-1.575 20.625 -3.525
-0.225 20.325 2.625
-3.375 21.375 1.575
-3.225 20.625 1.875
-3.225 20.325 1.425
-3.375 20.625 1.875
-3.525 21.675 1.125
-3.525 21.825 1.275
-2.925 19.725 2.025
-2.775 19.575 -0.525
-3.225 20.025 -0.825
-3.675 21.075 1.875
-2.775 19.425 -0.225
-3.075 19.575 0.675
-3.075 19.575 2.175
-3.375 19.725 1.575
-3.825 20.325 3.225
-4.125 21.375 0.825
-1.275 18.675 -2.625
-3.975 20.475 0.375
-4.125 21.075 0.075
-4.125 21.075 0.675
-4.125 20.925 0.075
-3.825 20.025 0.075
-2.475 18.825 0.375
-3.225 19.275 1.725
-3.225 19.275 1.575
-3.675 19.725 1.725
-4.125 20.625 0.525
-4.125 20.625 -0.975
-3.825 19.875 0.525
-1.725 18.525 0.375
-3.675 19.575 2.175
-4.275 20.925 0.825
-3.975 20.025 0.375
-3.075 18.975 1.575
-4.275 20.775 0.075
-4.275 20.775 1.125
-2.625 18.675 1.875
-4.125 20.025 1.725
-4.425 20.925 1.125
-3.975 19.725 0.675
-3.975 19.725 0.825
-4.275 20.325 -0.375
-4.275 20.325 0.975
-4.275 20.325 1.275
-4.125 19.875 0.825
-4.275 20.175 1.425
-3.975 19.575 1.275
-3.975 19.575 0.975
-3.975 19.575 0.675
0.375 18.825 0.825
-4.275 20.025 0.675
-4.275 20.025 -0.225
-1.125 18.225 0.525
-4.125 19.725 0.225
-4.125 19.725 1.125
-4.125 19.725 0.975
-2.475 18.375 0.225
-4.425 20.325 0.525
-4.425 20.325 0.675
-4.425 20.325 0.375
-3.375 18.825 1.275
-4.275 19.875 0.975
-4.425 20.175 0.375
-4.425 20.175 0.975
-4.425 20.175 0.225
-2.175 18.225 -1.275
-4.575 20.625 0.825
-3.225 18.675 2.175
-4.125 19.575 0.825
-0.075 18.375 0.975
-4.425 20.025 0.675
-4.275 19.725 0.825
-3.075 18.525 1.275
-4.725 21.375 1.125
-3.525 18.825 2.325
-3.525 18.825 1.725
-1.575 18.075 0.975
-4.725 21.075 0.375
-0.375 18.225 -0.975
-2.475 18.225 0.825
-4.575 20.325 0.225
-4.125 19.425 1.125
-4.725 20.925 0.225
-4.725 20.925 0.975
-2.925 18.375 1.875
-4.725 20.775 -0.825
-4.425 19.875 0.075
0.075 18.375 2.025
-4.575 20.175 -0.075
1.425 19.575 2.325
-4.275 19.575 0.825
-4.275 19.575 0.375
-4.275 19.575 0.675
-3.225 18.525 1.875
-4.725 20.625 1.125
-2.175 18.075 -2.175
-4.725 20.475 1.125
1.275 19.275 -0.825
-4.125 19.275 1.875
-4.425 19.725 0.675
-4.425 19.725 0.825
-4.425 19.725 0.975
-4.575 20.025 -0.075
-1.425 17.925 0.075
-1.425 17.925 0.375
-1.425 17.925 -0.525
-1.575 17.925 0.525
-4.275 19.425 0.825
-4.725 20.325 -0.225
-4.725 20.325 0.075
-0.375 18.075 -1.575
-2.475 18.075 0.825
-1.875 17.925 0.825
-1.875 17.925 0.675
-2.925 18.225 1.275
-2.925 18.225 2.475
-4.575 19.875 0.825
-4.425 19.575 0.675
-4.425 19.575 2.325
-2.025 17.925 0.375
-0.825 17.925 0.225
-2.625 18.075 0.675
-2.625 18.075 1.725
-2.625 18.075 0.525
-3.675 18.675 2.175
-3.675 18.675 1.125
-2.175 17.925 0.525
-0.675 17.925 2.475
-2.175 17.925 -1.875
-0.675 17.925 0.525
-2.175 17.925 0.825
-4.875 20.625 -0.525
-4.875 20.625 1.125
-4.875 20.625 -0.375
-3.525 18.525 0.525
-3.525 18.525 2.175
-4.275 19.275 0.675
-3.075 18.225 0.825
-2.325 17.925 1.425
-2.325 17.925 1.275
-2.325 17.925 1.125
-4.875 20.475 0.375
-2.775 18.075 2.175
-2.775 18.075 0.825
-3.375 18.375 0.825
-1.425 17.775 0.675
-1.575 17.775 0.975
-1.275 17.775 0.675
-1.575 17.775 1.275
-2.475 17.925 1.125
-2.475 17.925 0.825
-4.875 20.325 1.125
0.975 18.675 0.975
-1.725 17.775 0.525
-1.725 17.775 0.975
-1.725 17.775 2.625
-1.725 17.775 0.675
-1.125 17.775 1.275
-4.725 19.875 1.575
-2.925 18.075 0.825
-2.925 18.075 0.975
-2.925 18.075 1.875
0.375 18.225 2.325
-4.575 19.575 1.275
-4.575 19.575 0.975
-4.575 19.575 1.425
-0.975 17.775 0.375
-1.875 17.775 1.575
-1.875 17.775 0.675
-0.975 17.775 0.975
-5.025 20.775 0.975
-0.825 17.775 1.425
-2.025 17.775 0.675
-2.025 17.775 1.725
-2.025 17.775 1.575
-2.025 17.775 0.825
-0.825 17.775 0.675
-0.825 17.775 0.375
-2.625 17.925 0.825
-0.225 17.925 1.575
-4.875 20.175 0.675
-3.525 18.375 -2.325
-2.175 17.775 0.825
-2.175 17.775 0.675
-2.175 17.775 -1.575
-0.675 17.775 0.975
-2.175 17.775 1.125
-2.175 17.775 0.975
-0.075 17.925 1.275
-2.775 17.925 1.125
-2.775 17.925 1.425
-0.075 17.925 1.575
-4.575 19.425 1.125
-0.525 17.775 1.275
-2.325 17.775 0.975
-0.525 17.775 0.825
-2.325 17.775 0.675
-0.525 17.775 1.425
-2.325 17.775 1.875
-0.525 17.775 0.675
1.275 18.825 0.825
-1.425 17.625 0.825
-4.425 19.125 0.975
-1.425 17.625 1.125
-4.425 19.125 2.625
-3.675 18.375 1.875
-1.425 17.625 0.675
-5.025 20.325 0.975
-0.375 17.775 0.975
-2.475 17.775 0.525
-2.475 17.775 0.825
-0.375 17.775 0.675
-2.475 17.775 0.975
-2.475 17.775 0.675
-2.475 17.775 0.225
-1.575 17.625 0.525
-1.575 17.625 0.975
-1.575 17.625 2.175
-1.275 17.625 0.825
-1.275 17.625 1.725
-1.275 17.625 0.675
-1.575 17.625 0.675
-1.275 17.625 0.975
-1.275 17.625 1.275
-1.575 17.625 0.075
0.375 18.075 0.225
0.075 17.925 -2.775
-2.925 17.925 0.975
-2.925 17.925 0.825
-1.725 17.625 0.525
-1.125 17.625 1.875
-5.175 21.075 0.675
-1.125 17.625 1.575
-1.125 17.625 0.525
-1.725 17.625 0.975
-1.725 17.625 0.825
-1.125 17.625 -0.075
-1.725 17.625 1.275
-4.875 19.875 0.825
-4.875 19.875 0.975
-1.875 17.625 0.975
-1.875 17.625 1.275
-0.975 17.625 1.425
-1.875 17.625 0.675
-0.975 17.625 0.525
-0.975 17.625 1.575
-4.575 19.275 1.125
-4.575 19.275 0.675
-4.575 19.275 0.525
-2.625 17.775 0.975
-0.225 17.775 1.725
-2.625 17.775 0.675
-0.225 17.775 1.425
-2.625 17.775 1.125
-0.225 17.775 1.575
-2.025 17.625 1.875
-0.825 17.625 1.875
-2.025 17.625 0.675
-0.825 17.625 1.275
-2.025 17.625 2.475
-2.025 17.625 1.275
-2.025 17.625 0.975
-0.825 17.625 1.125
-2.025 17.625 0.825
-2.025 17.625 1.425
-0.675 17.625 0.975
-0.675 17.625 0.525
-2.175 17.625 1.275
-0.675 17.625 -1.275
-2.175 17.625 0.975
-2.175 17.625 1.125
1.875 19.425 1.725
-4.725 19.425 0.375
-4.725 19.425 0.825
-4.725 19.425 1.875
-3.375 18.075 2.025
0.525 18.075 0.825
1.575 18.975 3.075
-2.775 17.775 1.425
-2.775 17.775 0.375
-2.775 17.775 0.825
-0.075 17.775 1.725
-0.075 17.775 0.375
-2.775 17.775 1.125
-2.775 17.775 0.975
-2.325 17.625 0.975
-2.325 17.625 -0.075
-0.525 17.625 1.725
-4.575 19.125 2.625
-4.575 19.125 1.125
0.375 17.925 1.575
-3.225 17.925 1.125
-3.225 17.925 1.275
-4.875 19.575 0.525
-0.375 17.625 1.275
-0.375 17.625 1.125
-2.475 17.625 1.425
-2.475 17.625 0.525
-2.475 17.625 0.825
-0.375 17.625 0.825
-0.375 17.625 1.425
-2.475 17.625 1.125
-2.475 17.625 0.675
-0.375 17.625 1.575
-2.475 17.625 0.975
-1.425 17.475 0.075
-1.425 17.475 1.425
-1.425 17.475 0.975
-1.425 17.475 0.825
-2.925 17.775 1.425
0.075 17.775 1.875
0.075 17.775 1.125
-2.925 17.775 0.975
0.075 17.775 -2.775
0.075 17.775 1.725
-1.275 17.475 0.825
-1.275 17.475 1.275
-1.275 17.475 1.575
-1.275 17.475 0.675
-1.575 17.475 1.275
-1.275 17.475 1.125
-1.125 17.475 1.725
-1.125 17.475 1.125
-1.125 17.475 0.975
-1.725 17.475 0.375
-1.125 17.475 1.275
-3.525 18.075 1.425
-4.725 19.275 1.275
-4.725 19.275 2.625
-4.725 19.275 0.525
-0.975 17.475 0.375
-0.975 17.475 1.575
-1.875 17.475 1.425
-0.975 17.475 1.275
-0.975 17.475 1.425
-0.975 17.475 1.725
-1.875 17.475 1.125
1.425 18.675 1.275
-5.175 20.175 -0.375
-2.625 17.625 2.325
1.125 18.375 1.725
-0.225 17.625 1.725
-2.625 17.625 1.125
-0.225 17.625 0.225
-0.225 17.625 0.825
1.575 18.825 0.675
-2.025 17.475 0.675
-2.025 17.475 0.975
-2.025 17.475 1.275
-2.025 17.475 0.375
-0.825 17.475 1.425
-0.825 17.475 1.725
-2.025 17.475 1.725
-2.025 17.475 0.825
-2.025 17.475 1.425
-5.025 19.725 0.375
0.225 17.775 1.575
0.225 17.775 0.825
-3.375 17.925 1.275
0.525 17.925 1.125
0.525 17.925 1.725
-4.875 19.425 0.525
-0.675 17.475 1.425
-2.175 17.475 1.275
-2.175 17.475 1.425
-2.175 17.475 0.825
-2.175 17.475 0.525
-2.175 17.475 1.125
-0.675 17.475 3.225
-0.675 17.475 1.725
-0.675 17.475 0.675
-2.775 17.625 0.975
-0.075 17.625 1.275
-2.775 17.625 1.275
-2.775 17.625 1.125
-0.075 17.625 1.425
-0.075 17.625 1.125
-0.075 17.625 0.975
-5.175 20.025 2.175
-3.675 18.075 1.725
-3.675 18.075 1.575
0.825 18.075 1.425
0.825 18.075 1.725
-2.325 17.475 1.125
-0.525 17.475 1.725
-2.325 17.475 1.575
-2.325 17.475 -0.075
-0.525 17.475 1.275
-2.325 17.475 0.675
-3.225 17.775 -2.475
-3.225 17.775 0.675
0.375 17.775 1.275
0.375 17.775 1.575
-0.375 17.475 0.975
-0.375 17.475 -0.525
-2.475 17.475 0.225
-2.475 17.475 0.825
-2.475 17.475 1.125
-0.375 17.475 0.375
-2.475 17.475 0.975
0.675 17.925 0.975
-3.525 17.925 1.725
-2.925 17.625 1.725
-2.925 17.625 1.425
0.075 17.625 1.125
-2.925 17.625 1.275
-5.325 20.325 0.375
-4.875 19.275 0.675
-1.425 17.325 3.525
-1.425 17.325 1.575
-1.425 17.325 1.725
-1.425 17.325 1.425
-3.975 18.225 -0.075
-1.275 17.325 0.525
-1.575 17.325 0.375
-1.575 17.325 1.125
-4.575 18.825 0.525
-1.275 17.325 0.975
-1.275 17.325 1.725
-1.275 17.325 1.425
-1.125 17.325 1.275
-1.125 17.325 -0.525
-1.725 17.325 1.575
-5.475 21.825 0.675
-0.975 17.325 0.375
-1.875 17.325 1.275
-1.875 17.325 0.975
-1.875 17.325 -0.675
-1.875 17.325 -0.525
-0.975 17.325 1.275
-0.975 17.325 1.425
-2.625 17.475 1.575
-2.625 17.475 0.825
-2.625 17.475 1.125
-0.225 17.475 2.175
-0.225 17.475 1.125
-0.225 17.475 0.525
-0.225 17.475 1.725
-0.225 17.475 1.275
-0.225 17.475 1.425
-5.325 20.175 1.725
-3.825 18.075 1.725
-3.825 18.075 1.575
-3.825 18.075 1.875
0.975 18.075 2.025
-0.825 17.325 1.575
-2.025 17.325 0.675
-2.025 17.325 0.375
-2.025 17.325 -0.675
-2.025 17.325 1.125
-3.375 17.775 -0.525
0.525 17.775 1.725
-5.175 19.725 1.275
-5.175 19.725 1.575
-3.075 17.625 1.875
-3.075 17.625 0.825
-3.075 17.625 -0.225
-3.075 17.625 0.525
0.225 17.625 2.475
-3.675 17.925 1.575
-3.675 17.925 -2.175
-3.675 17.925 2.325
-3.675 17.925 0.975
-3.675 17.925 1.875
-4.875 19.125 1.275
-4.875 19.125 0.225
2.025 19.125 1.575
-0.675 17.325 -0.675
-2.175 17.325 1.275
-0.675 17.325 0.225
-2.175 17.325 0.675
-2.175 17.325 1.725
-2.175 17.325 1.875
-0.675 17.325 1.725
-0.675 17.325 0.675
-2.175 17.325 1.425
-2.775 17.475 0.975
-0.075 17.475 0.525
-0.075 17.475 0.975
-5.325 20.025 2.175
-5.325 20.025 -0.525
-5.325 20.025 1.275
-5.325 20.025 -1.425
1.425 18.375 1.275
1.275 18.225 0.675
1.275 18.225 1.875
-0.525 17.325 2.025
-2.325 17.325 1.725
-2.325 17.325 1.875
-2.325 17.325 2.175
-2.325 17.325 0.975
-2.325 17.325 0.825
-2.325 17.325 0.225
0.375 17.625 1.125
0.375 17.625 1.575
-3.225 17.625 -0.375
2.175 19.275 1.275
-3.525 17.775 -2.325
-3.525 17.775 2.175
-5.025 19.275 0.825
-5.025 19.275 1.425
0.675 17.775 0.675
-5.025 19.275 1.575
0.675 17.775 1.425
1.875 18.825 1.575
-3.975 18.075 1.125
1.125 18.075 2.475
-2.925 17.475 2.775
0.075 17.475 0.825
-5.475 20.325 0.075
-0.375 17.325 1.575
-2.475 17.325 -0.675
-2.475 17.325 1.875
-2.475 17.325 0.525
-2.475 17.325 0.675
-1.425 17.175 1.875
-1.425 17.175 0.975
-1.425 17.175 -0.225
-3.825 17.925 -1.275
0.975 17.925 1.575
-3.825 17.925 1.575
-1.575 17.175 1.125
-1.575 17.175 1.275
-1.275 17.175 2.325
-1.275 17.175 1.425
-1.275 17.175 -0.825
-1.275 17.175 -0.075
-1.725 17.175 1.425
-1.725 17.175 -1.125
-0.975 17.175 2.325
-0.975 17.175 1.425
-0.975 17.175 0.975
-0.975 17.175 0.825
-0.975 17.175 1.725
-2.625 17.325 0.525
-2.625 17.325 1.125
-2.625 17.325 2.625
-2.625 17.325 0.675
-2.625 17.325 0.825
-2.625 17.325 1.275
-0.225 17.325 1.875
-5.175 19.425 1.275
-3.375 17.625 2.325
0.525 17.625 3.975
0.525 17.625 0.525
0.525 17.625 1.425
0.225 17.475 1.875
0.225 17.475 -2.325
-2.025 17.175 1.875
-2.025 17.175 0.825
-0.825 17.175 1.725
-0.825 17.175 2.475
-2.025 17.175 1.575
-5.025 19.125 0.975
0.825 17.775 0.375
-3.675 17.775 1.425
1.425 18.225 1.425
1.725 18.525 1.275
1.275 18.075 1.725
-0.675 17.175 -2.625
-2.175 17.175 1.125
-2.175 17.175 1.575
-2.775 17.325 1.125
-2.775 17.325 0.825
-2.775 17.325 -2.925
-2.775 17.325 1.725
-0.075 17.325 1.425
1.125 17.925 0.525
1.125 17.925 0.375
1.125 17.925 1.575
-3.975 17.925 1.575
-3.975 17.925 1.875
-3.975 17.925 1.425
0.375 17.475 0.975
-3.225 17.475 2.475
-2.325 17.175 1.425
-2.325 17.175 0.675
-2.325 17.175 1.275
-0.525 17.175 2.775
-0.525 17.175 -2.475
-0.525 17.175 2.325
-0.525 17.175 3.825
-2.325 17.175 1.575
-5.325 19.575 0.825
0.675 17.625 1.875
-2.925 17.325 0.225
0.075 17.325 -0.075
-2.925 17.325 1.725
-2.925 17.325 2.775
-5.025 18.975 1.125
0.975 17.775 0.975
-3.825 17.775 1.425
-3.825 17.775 1.875
-3.825 17.775 1.575
-3.825 17.775 1.725
-2.475 17.175 1.575
-0.375 17.175 2.475
-2.475 17.175 1.275
-2.475 17.175 1.425
-0.375 17.175 1.425
-0.375 17.175 1.725
1.575 18.225 1.575
1.575 18.225 2.025
1.725 18.375 0.975
-1.425 17.025 0.075
-1.425 17.025 1.125
-1.275 17.025 -0.375
-1.275 17.025 1.125
-1.575 17.025 1.125
-1.575 17.025 1.725
-5.325 19.425 1.275
1.425 18.075 0.375
1.425 18.075 0.675
1.875 18.525 0.825
-1.125 17.025 -1.125
-1.725 17.025 1.425
-2.625 17.175 -0.075
-2.625 17.175 1.425
-2.625 17.175 1.575
-2.625 17.175 0.825
-2.625 17.175 -0.225
-0.225 17.175 1.875
-5.625 20.175 -0.075
-5.475 19.725 1.575
-5.175 19.125 0.975
-5.175 19.125 0.375
-3.675 17.625 1.875
0.825 17.625 -2.025
-5.175 19.125 0.825
0.225 17.325 1.275
-3.075 17.325 0.525
-0.975 17.025 -0.225
1.275 17.925 1.875
1.275 17.925 1.275
-4.125 17.925 1.425
-0.825 17.025 1.725
-0.825 17.025 -0.375
-0.825 17.025 1.875
-0.825 17.025 -0.225
-0.825 17.025 2.325
-2.025 17.025 1.125
-2.775 17.175 0.825
-2.775 17.175 1.275
-2.775 17.175 -0.825
-2.775 17.175 0.675
-0.075 17.175 2.025
-0.075 17.175 1.875
-0.075 17.175 2.475
-0.075 17.175 1.725
-5.625 20.025 1.575
-5.625 20.025 1.425
1.125 17.775 1.125
1.125 17.775 0.825
1.125 17.775 0.975
-5.025 18.825 0.825
-3.975 17.775 1.275
-3.975 17.775 1.425
-3.975 17.775 1.575
-3.975 17.775 4.425
-3.975 17.775 1.875
-0.675 17.025 0.825
-2.175 17.025 1.425
-2.175 17.025 1.725
-2.175 17.025 1.575
-3.225 17.325 2.325
-3.225 17.325 1.275
-3.225 17.325 2.475
-0.525 17.025 2.625
-0.525 17.025 1.425
-2.325 17.025 1.575
-0.525 17.025 0.525
-5.175 18.975 0.975
0.975 17.625 1.275
0.975 17.625 1.125
-3.825 17.625 0.975
-3.825 17.625 1.875
-3.825 17.625 1.575
1.725 18.225 1.575
-2.925 17.175 1.875
0.075 17.175 0.975
0.075 17.175 1.575
-5.625 19.875 3.825
1.875 18.375 1.275
1.575 18.075 1.575
1.575 18.075 1.275
1.425 17.925 1.125
1.425 17.925 0.975
1.425 17.925 1.575
-4.875 18.525 1.275
-0.375 17.025 1.575
-0.375 17.025 1.125
-2.475 17.025 1.425
-2.475 17.025 1.275
-2.475 17.025 0.825
-2.475 17.025 0.225
-0.375 17.025 3.225
-3.375 17.325 2.175
-1.425 16.875 2.175
-1.425 16.875 0.225
-1.425 16.875 -3.675
1.275 17.775 1.575
-4.125 17.775 1.725
-1.575 16.875 1.575
-1.575 16.875 1.725
-5.325 19.125 0.675
-1.575 16.875 1.125
-1.275 16.875 -0.225
-1.275 16.875 1.575
-1.275 16.875 -0.525
-1.575 16.875 1.425
-1.275 16.875 1.725
-1.725 16.875 -0.075
-1.725 16.875 1.725
-1.125 16.875 1.425
-1.125 16.875 0.675
-3.075 17.175 2.475
0.225 17.175 0.075
0.225 17.175 1.275
-5.625 19.725 1.725
-5.625 19.725 0.975
-0.225 17.025 3.975
-0.225 17.025 -2.175
-2.625 17.025 0.975
-1.875 16.875 1.575
-0.975 16.875 1.425
-1.875 16.875 1.425
-0.975 16.875 1.575
-0.975 16.875 1.875
-0.975 16.875 1.125
-0.975 16.875 0.825
1.125 17.625 1.425
-3.975 17.625 1.425
-3.975 17.625 2.025
-3.975 17.625 4.575
-5.175 18.825 0.675
-0.825 16.875 1.275
-2.025 16.875 1.575
-2.025 16.875 1.275
-0.825 16.875 1.725
-2.025 16.875 -0.375
-0.825 16.875 1.875
-0.825 16.875 2.925
-2.025 16.875 2.475
-5.775 20.025 1.575
-2.775 17.025 1.575
-0.075 17.025 2.025
-0.075 17.025 0.375
1.875 18.225 2.475
-2.175 16.875 1.575
-2.175 16.875 1.425
-0.675 16.875 5.625
-0.675 16.875 1.575
1.725 18.075 0.975
1.725 18.075 2.025
1.725 18.075 0.825
1.725 18.075 1.425
1.725 18.075 0.075
-3.525 17.325 3.075
-3.525 17.325 3.225
-3.225 17.175 -1.275
-3.225 17.175 3.375
0.375 17.175 2.775
1.575 17.925 1.125
1.575 17.925 0.375
1.575 17.925 1.425
2.025 18.375 1.125
0.975 17.475 3.525
0.975 17.475 1.125
-3.825 17.475 1.875
2.475 18.975 1.575
-5.325 18.975 0.675
-2.325 16.875 1.425
-2.325 16.875 2.325
-2.325 16.875 1.275
-2.325 16.875 1.725
-0.525 16.875 1.125
-0.525 16.875 1.425
-0.525 16.875 2.625
2.175 18.525 1.125
1.425 17.775 0.675
1.425 17.775 0.525
-4.275 17.775 1.875
-5.775 19.875 -0.075
-2.925 17.025 -1.275
-2.925 17.025 2.175
-2.925 17.025 1.725
-2.925 17.025 0.675
-2.925 17.025 -1.125
-2.925 17.025 1.425
-2.925 17.025 1.875
-2.925 17.025 2.025
0.075 17.025 2.175
-2.925 17.025 1.575
-0.375 16.875 1.725
-2.475 16.875 1.425
-2.475 16.875 1.575
-0.375 16.875 1.425
1.275 17.625 -2.775
-0.375 16.875 -2.775
-0.375 16.875 1.275
-0.375 16.875 2.475
-0.375 16.875 1.575
1.275 17.625 2.325
-2.475 16.875 2.325
-4.125 17.625 1.575
-4.125 17.625 2.325
-4.125 17.625 1.725
-3.375 17.175 1.575
-3.375 17.175 2.175
-3.375 17.175 2.475
0.825 17.325 -2.775
0.825 17.325 1.875
0.825 17.325 2.025
-3.675 17.325 0.675
-3.675 17.325 1.875
0.825 17.325 2.475
-1.425 16.725 1.725
-1.425 16.725 -0.375
-1.425 16.725 1.575
-1.425 16.725 1.875
-1.575 16.725 1.725
-1.575 16.725 1.125
-1.575 16.725 -0.675
-1.275 16.725 1.725
-1.275 16.725 1.575
-1.275 16.725 1.875
-5.775 19.725 2.175
0.225 17.025 0.675
0.225 17.025 2.475
0.225 17.025 1.875
-3.075 17.025 1.425
-0.225 16.875 1.275
-0.225 16.875 1.575
-0.225 16.875 4.425
-1.725 16.725 0.825
-1.125 16.725 2.175
-1.125 16.725 1.725
-1.125 16.725 -0.375
-1.125 16.725 1.875
-1.725 16.725 1.575
1.125 17.475 1.725
-3.975 17.475 2.325
-5.325 18.825 0.525
-5.325 18.825 1.725
1.875 18.075 1.425
-0.975 16.725 1.425
-0.975 16.725 0.075
-1.875 16.725 -0.225
-0.975 16.725 -0.825
-1.875 16.725 -0.375
-1.875 16.725 1.425
2.025 18.225 0.975
1.725 17.925 2.175
1.725 17.925 3.075
1.575 17.775 0.525
1.575 17.775 1.425
-4.425 17.775 1.875
-0.825 16.725 -0.675
-0.825 16.725 2.025
-0.825 16.725 1.725
-0.825 16.725 1.275
-2.025 16.725 0.975
-2.025 16.725 2.925
-2.025 16.725 0.525
-2.025 16.725 1.425
-3.525 17.175 2.325
-3.525 17.175 1.425
-3.525 17.175 1.725
0.675 17.175 0.075
-5.625 19.275 2.175
-2.775 16.875 2.025
-2.775 16.875 1.875
-0.075 16.875 2.025
-0.075 16.875 2.625
-0.075 16.875 1.725
-5.925 20.025 -0.525
-5.775 19.575 1.275
-5.775 19.575 1.125
-5.775 19.575 1.575
-3.225 17.025 1.425
0.375 17.025 1.575
-3.225 17.025 2.775
0.375 17.025 2.025
-2.175 16.725 1.425
-0.675 16.725 2.325
-0.675 16.725 -0.825
-0.675 16.725 1.575
-0.675 16.725 -0.225
-0.675 16.725 0.525
-0.675 16.725 1.425
-4.275 17.625 1.575
-5.175 18.525 2.475
-5.175 18.525 1.125
-2.325 16.725 3.375
-2.325 16.725 0.975
-2.325 16.725 1.575
-0.525 16.725 2.025
-0.525 16.725 2.175
-0.525 16.725 1.725
-0.525 16.725 1.575
1.275 17.475 3.225
-4.125 17.475 1.875
-4.125 17.475 1.575
-4.125 17.475 1.425
0.075 16.875 1.875
-2.925 16.875 1.275
-2.925 16.875 2.475
-2.925 16.875 -0.825
-2.925 16.875 -0.075
-5.325 18.675 0.375
-5.325 18.675 1.725
0.825 17.175 1.725
-5.625 19.125 0.825
-5.625 19.125 0.675
-0.375 16.725 1.575
-0.375 16.725 1.725
-2.475 16.725 1.425
-0.375 16.725 0.375
-0.375 16.725 1.275
-0.375 16.725 1.875
-6.075 20.325 1.725
-3.375 17.025 2.175
-3.375 17.025 1.725
1.875 17.925 1.125
-4.725 17.925 2.175
2.025 18.075 0.975
2.025 18.075 2.625
2.025 18.075 0.225
2.025 18.075 0.825
2.175 18.225 1.425
-5.025 18.225 2.325
1.725 17.775 1.725
-4.575 17.775 2.325
-5.475 18.825 3.375
-3.975 17.325 1.425
-5.925 19.725 1.575
-3.075 16.875 1.425
-3.075 16.875 2.775
-3.075 16.875 1.725
-3.075 16.875 2.025
0.225 16.875 2.325
-1.425 16.575 0.225
-0.225 16.725 1.575
-0.225 16.725 -1.575
-2.625 16.725 -0.075
2.325 18.375 1.725
2.325 18.375 1.875
-4.425 17.625 1.425
1.575 17.625 0.975
-1.275 16.575 2.025
-1.275 16.575 -0.375
-1.575 16.575 2.175
-1.275 16.575 -0.525
-1.125 16.575 1.725
-1.725 16.575 -0.525
-1.725 16.575 1.575
-1.725 16.575 1.725
-0.975 16.575 2.175
-4.275 17.475 2.025
-4.275 17.475 1.575
1.425 17.475 0.075
1.425 17.475 3.975
-3.525 17.025 0.825
-3.525 17.025 1.875
2.475 18.525 1.875
-5.775 19.275 2.025
-5.325 18.525 1.425
-5.775 19.275 1.425
0.975 17.175 2.475
-3.825 17.175 2.025
-3.825 17.175 2.175
-3.825 17.175 1.125
-0.825 16.575 -0.525
-0.825 16.575 0.225
-0.825 16.575 2.175
-0.075 16.725 -0.225
-0.075 16.725 1.725
-0.075 16.725 3.075
-0.075 16.725 -0.075
-5.925 19.575 1.425
-5.925 19.575 1.575
0.375 16.875 0.225
-2.175 16.575 0.975
-0.675 16.575 1.125
-0.675 16.575 1.875
-0.675 16.575 2.025
-2.175 16.575 -0.375
-2.175 16.575 2.325
-2.175 16.575 -0.825
-2.175 16.575 1.575
2.625 18.675 1.425
-4.875 17.925 1.875
2.025 17.925 1.425
2.025 17.925 1.725
2.175 18.075 0.825
-2.325 16.575 2.475
-0.525 16.575 2.175
-0.525 16.575 -2.775
-0.525 16.575 -0.825
-0.525 16.575 1.725
-0.525 16.575 -0.525
-0.525 16.575 0.075
-5.025 18.075 2.325
-2.925 16.725 2.325
-2.925 16.725 2.025
0.075 16.725 1.575
2.325 18.225 1.575
2.325 18.225 1.725
2.325 18.225 2.925
2.325 18.225 0.825
-4.575 17.625 2.475
-5.775 19.125 0.225
-5.775 19.125 2.475
1.725 17.625 3.375
1.725 17.625 0.525
-3.675 17.025 2.175
-3.675 17.025 1.875
-3.675 17.025 2.625
-5.925 19.425 -0.525
-5.925 19.425 0.525
-5.925 19.425 1.725
1.125 17.175 1.275
1.125 17.175 0.975
1.125 17.175 1.425
-3.975 17.175 1.575
-0.375 16.575 2.325
-0.375 16.575 1.875
-0.375 16.575 1.425
-2.475 16.575 -0.075
-2.475 16.575 -0.825
-4.425 17.475 1.875
-4.425 17.475 1.425
1.575 17.475 1.425
2.475 18.375 1.875
-3.075 16.725 1.875
-3.075 16.725 1.575
0.225 16.725 1.875
0.225 16.725 1.575
-0.225 16.575 -0.225
-0.225 16.575 1.425
-2.625 16.575 3.675
-2.625 16.575 -0.525
-2.625 16.575 2.175
-1.425 16.425 -0.075
-1.575 16.425 2.025
-1.575 16.425 1.575
2.625 18.525 1.275
-5.475 18.525 0.975
1.425 17.325 0.825
2.625 18.525 1.425
-4.275 17.325 1.875
-1.725 16.425 1.875
-1.125 16.425 1.725
-1.125 16.425 -0.225
-1.725 16.425 0.975
-3.525 16.875 1.275
-3.525 16.875 2.475
-5.925 19.275 1.575
-5.925 19.275 1.725
-5.775 18.975 0.825
-3.825 17.025 1.875
-1.875 16.425 -0.825
-1.875 16.425 0.975
-1.875 16.425 1.575
0.375 16.725 1.275
2.175 17.925 1.275
-3.225 16.725 1.425
-0.825 16.425 -0.375
-2.025 16.425 1.575
-0.825 16.425 -0.825
-6.075 19.575 1.425
-6.075 19.575 1.275
-6.225 20.025 1.275
-2.775 16.575 -0.075
-2.775 16.575 0.375
-2.775 16.575 2.025
-2.775 16.575 -0.675
-0.075 16.575 1.725
-0.075 16.575 2.025
-0.075 16.575 -3.675
-0.075 16.575 2.325
2.025 17.775 -0.675
1.275 17.175 1.725
1.275 17.175 2.325
1.275 17.175 1.425
-4.125 17.175 1.125
-5.625 18.675 0.375
-5.625 18.675 0.975
-5.625 18.675 1.275
-4.725 17.625 2.625
1.875 17.625 1.125
1.875 17.625 2.025
2.325 18.075 1.425
-0.675 16.425 1.875
-0.675 16.425 0.675
-0.675 16.425 2.475
-0.675 16.425 -0.825
-2.175 16.425 -2.775
-2.175 16.425 -0.825
-4.575 17.475 1.725
2.475 18.225 -0.525
2.475 18.225 2.025
2.475 18.225 1.425
0.075 16.575 2.025
0.075 16.575 1.875
0.075 16.575 -0.225
0.075 16.575 3.075
0.075 16.575 2.475
-2.925 16.575 -0.225
-2.925 16.575 2.325
-2.925 16.575 1.725
-2.925 16.575 2.025
-2.925 16.575 1.425
-2.925 16.575 -0.075
-0.525 16.425 -0.525
-0.525 16.425 -2.175
-0.525 16.425 -0.075
-0.525 16.425 1.875
-0.525 16.425 -3.225
-0.525 16.425 -0.975
-0.525 16.425 -0.375
-0.525 16.425 1.425
-2.325 16.425 2.025
-2.325 16.425 -0.525
-2.325 16.425 0.225
-2.325 16.425 2.475
-2.325 16.425 -0.375
-2.325 16.425 -0.975
-3.675 16.875 2.025
-3.675 16.875 1.875
2.625 18.375 1.575
2.625 18.375 0.675
-4.425 17.325 1.575
-4.425 17.325 2.025
1.575 17.325 0.825
-3.375 16.725 -0.375
-3.375 16.725 -0.225
0.525 16.725 2.775
-6.075 19.425 1.125
-5.775 18.825 0.525
-3.975 17.025 1.725
-3.975 17.025 1.425
-3.975 17.025 1.575
-0.375 16.425 -0.525
-0.375 16.425 1.125
-0.375 16.425 -0.225
-0.375 16.425 -0.075
-2.475 16.425 -0.225
-2.475 16.425 0.225
-2.475 16.425 1.725
-2.475 16.425 2.025
-2.475 16.425 1.875
-4.275 17.175 -0.525
-4.275 17.175 2.025
1.425 17.175 1.425
1.425 17.175 0.675
1.425 17.175 2.175
1.425 17.175 1.575
0.225 16.575 2.025
0.225 16.575 2.475
0.225 16.575 -3.675
-3.075 16.575 -0.225
-3.075 16.575 -0.525
-3.075 16.575 2.325
-5.625 18.525 0.975
2.775 18.525 1.275
2.775 18.525 1.125
2.175 17.775 1.875
-0.225 16.425 -0.075
-0.225 16.425 2.025
-2.625 16.425 -0.525
-2.625 16.425 -0.675
-2.625 16.425 -0.975
2.325 17.925 1.575
-4.875 17.625 0.675
-4.875 17.625 2.025
-4.875 17.625 2.625
2.025 17.625 1.875
2.025 17.625 2.025
-5.925 18.975 1.875
0.975 16.875 2.625
-3.825 16.875 1.875
-1.425 16.275 1.575
-1.425 16.275 0.675
-1.425 16.275 0.375
-3.525 16.725 -0.525
-3.525 16.725 -0.075
-6.075 19.275 1.125
-1.575 16.275 0.075
-1.275 16.275 -0.975
-1.275 16.275 -0.825
-1.275 16.275 -0.225
-1.575 16.275 -0.975
-1.575 16.275 1.425
1.875 17.475 2.325
1.875 17.475 2.775
2.475 18.075 1.725
-1.125 16.275 -0.525
-1.125 16.275 0.225
-1.125 16.275 -0.975
-1.125 16.275 0.075
-1.725 16.275 2.625
2.925 18.675 0.975
2.925 18.675 0.825
1.275 17.025 1.875
-0.975 16.275 2.925
-0.975 16.275 -0.225
-0.975 16.275 -0.075
-1.875 16.275 1.575
0.375 16.575 -3.225
0.375 16.575 1.275
0.375 16.575 -1.425
-3.225 16.575 2.775
2.625 18.225 1.425
2.625 18.225 2.325
-5.475 18.225 1.875
-2.775 16.425 0.675
-2.775 16.425 1.875
-2.775 16.425 0.075
-0.075 16.425 2.475
-0.075 16.425 -0.225
-0.075 16.425 2.625
1.725 17.325 2.175
1.725 17.325 1.575
-0.825 16.275 -0.225
-0.825 16.275 0.525
-0.825 16.275 -0.525
-0.825 16.275 0.075
-0.675 16.275 -0.375
-0.675 16.275 0.225
-0.675 16.275 -0.825
-0.675 16.275 -0.525
-2.175 16.275 1.725
-2.175 16.275 0.375
-4.425 17.175 1.875
-4.425 17.175 2.025
2.775 18.375 0.825
-5.625 18.375 1.125
-5.625 18.375 1.575
-5.625 18.375 0.225
-3.675 16.725 2.475
-3.675 16.725 -1.275
-6.075 19.125 0.525
-6.075 19.125 1.875
-6.075 19.125 2.175
0.075 16.425 -2.625
0.075 16.425 2.025
-2.925 16.425 2.175
-2.925 16.425 3.825
-2.925 16.425 2.025
3.075 18.825 1.875
-5.925 18.825 1.875
-5.925 18.825 1.275
-5.925 18.825 2.025
-0.525 16.275 -0.075
-0.525 16.275 -0.225
-2.325 16.275 1.275
-6.225 19.425 0.675
-6.225 19.425 1.275
0.525 16.575 1.875
2.175 17.625 1.275
2.175 17.625 1.875
-5.775 18.525 1.725
-5.775 18.525 1.275
-5.775 18.525 1.575
1.425 17.025 1.725
1.425 17.025 2.025
1.425 17.025 2.175
2.025 17.475 2.625
-4.875 17.475 2.325
-0.375 16.275 -0.075
-0.375 16.275 2.475
-0.375 16.275 -0.225
0.225 16.425 2.925
-3.075 16.425 -0.375
-3.075 16.425 -0.225
-6.375 19.725 2.175
-6.375 19.725 0.825
1.875 17.325 1.725
1.875 17.325 3.675
2.625 18.075 1.725
2.625 18.075 0.825
0.975 16.725 2.475
-3.825 16.725 2.025
-6.075 18.975 1.275
-6.075 18.975 2.025
-6.525 20.175 0.375
-3.525 16.575 2.025
-6.225 19.275 1.425
-0.225 16.275 -0.075
-2.625 16.275 1.125
-2.625 16.275 2.025
1.275 16.875 2.175
-4.125 16.875 1.275
-4.125 16.875 3.225
-4.125 16.875 -0.225
2.775 18.225 1.725
2.775 18.225 1.425
-5.625 18.225 1.725
-5.625 18.225 1.575
1.725 17.175 2.175
1.725 17.175 1.425
1.725 17.175 1.575
-4.575 17.175 1.875
-4.575 17.175 2.325
-1.425 16.125 -0.075
-1.425 16.125 1.425
-1.425 16.125 -0.675
-1.425 16.125 0.525
-1.425 16.125 0.225
-1.575 16.125 -0.825
-1.275 16.125 1.425
-1.275 16.125 -0.375
-1.275 16.125 1.725
-1.275 16.125 -0.225
-1.575 16.125 1.575
-1.575 16.125 2.025
-1.575 16.125 1.875
-1.125 16.125 -0.075
-1.125 16.125 0.225
-1.725 16.125 -0.975
-1.725 16.125 -0.375
-1.725 16.125 1.875
-1.725 16.125 2.475
-1.725 16.125 -0.225
-1.725 16.125 0.675
-1.125 16.125 0.525
-3.225 16.425 -4.125
-6.375 19.575 1.125
-0.975 16.125 -1.275
-1.875 16.125 1.575
-0.975 16.125 -1.575
-0.975 16.125 -0.525
-1.875 16.125 -2.925
-1.875 16.125 2.025
-0.075 16.275 1.275
-0.075 16.275 -0.225
-0.825 16.125 -0.225
-0.825 16.125 -3.525
-0.825 16.125 0.225
-0.825 16.125 -0.675
-2.025 16.125 -0.525
-2.025 16.125 -2.325
-2.025 16.125 0.525
-5.775 18.375 1.875
1.575 17.025 2.025
1.575 17.025 2.175
1.575 17.025 0.975
-6.225 19.125 1.575
-3.675 16.575 -0.825
-0.675 16.125 -0.075
-0.675 16.125 -0.975
-0.675 16.125 -0.225
-0.675 16.125 0.075
-0.675 16.125 -0.675
-2.175 16.125 0.225
2.325 17.625 2.025
-5.175 17.625 2.775
0.075 16.275 1.875
-2.925 16.275 3.525
-2.925 16.275 -0.525
-2.925 16.275 0.075
-3.375 16.425 -0.675
-3.375 16.425 -2.775
-4.875 17.325 0.525
-0.525 16.125 -0.675
-0.525 16.125 -0.225
-2.325 16.125 2.175
-2.325 16.125 2.775
-5.925 18.525 1.125
1.875 17.175 1.575
1.875 17.175 1.425
1.875 17.175 1.725
1.875 17.175 2.925
1.875 17.175 1.875
-4.725 17.175 1.425
2.775 18.075 0.975
2.775 18.075 1.125
-0.375 16.125 -0.225
-0.375 16.125 -0.075
-0.375 16.125 -0.375
-0.375 16.125 -1.275
-0.375 16.125 0.075
-0.375 16.125 -3.075
-2.475 16.125 3.225
0.225 16.275 2.025
-6.225 18.975 0.525
-6.225 18.975 1.725
-3.825 16.575 -0.825
-3.825 16.575 -0.525
2.925 18.225 1.425
-5.775 18.225 1.275
-5.775 18.225 1.575
-5.775 18.225 1.125
-5.775 18.225 1.725
1.725 17.025 1.725
1.725 17.025 0.525
1.725 17.025 -0.375
1.725 17.025 2.175
-4.575 17.025 4.425
-4.575 17.025 2.025
-4.575 17.025 1.725
1.725 17.025 2.025
-3.525 16.425 4.125
-6.375 19.275 2.025
-6.375 19.275 1.275
-0.225 16.125 -0.825
-0.225 16.125 -0.975
-2.625 16.125 1.425
-1.425 15.975 0.375
-1.425 15.975 -0.375
-1.425 15.975 -0.525
-1.425 15.975 -0.225
-1.275 15.975 1.275
-1.575 15.975 -0.525
-1.275 15.975 -1.125
-1.275 15.975 -0.225
-1.275 15.975 0.375
-1.275 15.975 3.075
-1.275 15.975 -0.525
-1.275 15.975 1.875
-1.575 15.975 1.575
-1.575 15.975 1.725
-1.575 15.975 -1.275
-1.575 15.975 -0.825
3.075 18.375 -0.675
1.575 16.875 2.325
1.575 16.875 1.875
-5.925 18.375 1.125
-5.925 18.375 0.825
-4.425 16.875 3.975
-4.425 16.875 1.575
-1.125 15.975 0.075
-1.125 15.975 2.175
-1.125 15.975 1.725
-1.725 15.975 0.825
-1.725 15.975 -0.525
-1.725 15.975 -0.075
-1.725 15.975 -0.675
-6.525 19.575 0.825
-3.225 16.275 -0.075
-5.175 17.475 2.625
2.325 17.475 2.025
-1.875 15.975 -0.525
-1.875 15.975 -0.675
-1.875 15.975 0.375
-1.875 15.975 -0.225
-1.875 15.975 1.725
2.175 17.325 2.025
2.175 17.325 1.875
-5.475 17.775 -0.825
-5.025 17.325 2.025
-5.475 17.775 2.775
-2.775 16.125 0.975
-0.075 16.125 -0.675
-0.075 16.125 2.475
-2.025 15.975 1.725
-0.825 15.975 1.725
-2.025 15.975 -0.825
-2.025 15.975 1.575
-2.025 15.975 -0.675
-4.875 17.175 2.475
2.025 17.175 1.575
-3.975 16.575 1.275
-3.975 16.575 -0.525
-6.225 18.825 1.575
-6.225 18.825 2.175
3.375 18.825 0.525
-3.675 16.425 2.775
-3.675 16.425 -1.425
-3.675 16.425 2.475
-6.375 19.125 1.875
-6.375 19.125 1.125
-6.375 19.125 0.975
-0.675 15.975 -0.675
-0.675 15.975 -0.375
-2.175 15.975 1.425
-0.675 15.975 -0.525
3.225 18.525 1.575
3.225 18.525 1.725
2.925 18.075 1.425
2.925 18.075 2.475
2.925 18.075 1.875
0.075 16.125 0.375
0.075 16.125 1.275
0.075 16.125 -0.375
-6.675 19.875 0.675
-6.525 19.425 0.525
-6.525 19.425 1.575
-3.375 16.275 -0.525
1.875 17.025 2.625
1.875 17.025 1.725
-4.725 17.025 2.025
-2.325 15.975 -0.975
-2.325 15.975 1.875
-2.325 15.975 1.425
-0.525 15.975 5.775
-0.525 15.975 0.375
-0.525 15.975 -0.375
3.075 18.225 0.975
-5.925 18.225 2.625
-5.925 18.225 1.875
-5.925 18.225 1.725
-4.575 16.875 1.575
-6.375 18.975 0.375
-6.375 18.975 2.175
-6.375 18.975 1.725
-3.825 16.425 2.475
-3.825 16.425 -0.825
-2.475 15.975 2.175
-6.675 19.725 1.875
0.225 16.125 0.225
0.225 16.125 2.325
0.225 16.125 0.675
0.225 16.125 -0.225
-3.075 16.125 1.275
-3.075 16.125 0.825
-6.225 18.675 0.525
-6.225 18.675 2.175
-6.225 18.675 1.875
-4.125 16.575 1.575
-5.325 17.475 2.775
-5.325 17.475 1.425
-6.525 19.275 1.275
-6.525 19.275 1.125
-3.525 16.275 0.375
-3.525 16.275 -0.075
-3.525 16.275 0.225
-5.475 17.625 2.025
-2.625 15.975 0.075
-2.625 15.975 0.525
-2.625 15.975 1.125
-2.625 15.975 -1.275
-2.625 15.975 0.975
-2.625 15.975 -0.375
-2.625 15.975 -0.675
-0.225 15.975 0.225
2.775 17.775 -0.075
-4.425 16.725 -0.375
3.225 18.375 1.275
-3.225 16.125 0.825
-3.225 16.125 2.775
-3.225 16.125 -0.525
-3.225 16.125 -2.625
-1.425 15.825 -0.525
-1.425 15.825 -2.925
2.925 17.925 1.875
2.925 17.925 -0.075
-1.575 15.825 -0.825
-1.275 15.825 0.825
-1.575 15.825 -0.525
-1.575 15.825 2.775
-1.275 15.825 2.175
-1.275 15.825 -0.675
-1.275 15.825 0.075
-1.275 15.825 2.475
-1.575 15.825 -0.075
2.025 17.025 3.375
-4.875 17.025 1.875
-1.725 15.825 1.875
-1.725 15.825 2.475
-1.725 15.825 -0.675
-1.125 15.825 -0.225
-1.125 15.825 2.325
-1.125 15.825 -0.075
-2.775 15.975 0.075
-3.975 16.425 1.725
-6.375 18.825 1.725
-1.875 15.825 -0.375
-1.875 15.825 0.375
-1.875 15.825 0.825
-1.875 15.825 2.175
-1.875 15.825 -0.525
-1.875 15.825 0.525
-0.975 15.825 1.425
-0.975 15.825 -0.075
-0.975 15.825 1.725
-0.975 15.825 1.275
-6.525 19.125 0.375
-3.675 16.275 -0.225
-3.675 16.275 -0.375
-4.725 16.875 2.325
-4.725 16.875 2.475
3.075 18.075 1.875
3.075 18.075 2.475
3.075 18.075 1.275
-2.025 15.825 -0.825
-0.825 15.825 -0.225
-4.275 16.575 1.575
-6.225 18.525 1.425
-3.375 16.125 0.525
-3.375 16.125 -0.525
-3.375 16.125 0.975
-3.375 16.125 3.975
-3.375 16.125 0.675
-6.675 19.425 0.825
-6.675 19.425 0.525
-6.675 19.425 0.225
-6.675 19.425 2.625
0.525 16.125 1.725
-0.675 15.825 -4.125
-0.675 15.825 -0.825
-0.675 15.825 -0.675
-2.175 15.825 0.225
-2.175 15.825 -0.075
-2.175 15.825 0.525
-0.675 15.825 3.375
-2.925 15.975 0.525
-2.925 15.975 -0.675
-2.925 15.975 -0.075
-2.925 15.975 -0.225
-2.925 15.975 -0.375
-2.925 15.975 -4.275
0.075 15.975 0.075
-6.075 18.225 0.375
-6.075 18.225 1.875
3.225 18.225 1.275
-2.325 15.825 0.525
-2.325 15.825 2.325
-2.325 15.825 -0.675
-2.325 15.825 0.225
-0.525 15.825 -0.525
-0.525 15.825 -0.675
-0.525 15.825 -1.125
-0.525 15.825 -0.375
-0.525 15.825 0.675
-0.525 15.825 0.075
-0.525 15.825 -0.225
-5.325 17.325 2.325
-5.325 17.325 1.875
-5.175 17.175 2.775
-5.625 17.625 0.075
-5.625 17.625 2.175
-6.525 18.975 1.575
-6.525 18.975 1.275
-6.525 18.975 0.525
-3.825 16.275 -0.075
-3.825 16.275 -0.525
-3.825 16.275 -0.375
-6.375 18.675 1.575
-6.375 18.675 0.825
-6.375 18.675 2.175
-4.125 16.425 -1.275
-4.125 16.425 -0.975
-3.075 15.975 -0.225
-3.075 15.975 0.225
-3.075 15.975 -1.575
-3.075 15.975 -0.075
2.925 17.775 -0.525
-5.775 17.775 2.475
-2.475 15.825 0.225
-2.475 15.825 0.525
-2.475 15.825 2.325
-2.475 15.825 1.575
-2.475 15.825 2.475
-2.475 15.825 -0.525
-2.475 15.825 -0.675
-0.375 15.825 -0.225
-0.375 15.825 -0.075
-3.525 16.125 -0.075
-3.525 16.125 1.575
-3.525 16.125 -0.225
0.675 16.125 2.025
-6.675 19.275 1.575
-6.675 19.275 0.375
-6.225 18.375 1.275
-4.425 16.575 -1.575
1.575 16.575 4.725
3.075 17.925 2.775
-4.875 16.875 2.025
-2.625 15.825 -0.675
-0.225 15.825 -1.125
-0.225 15.825 -0.825
-0.225 15.825 2.925
-0.225 15.825 0.975
-0.225 15.825 0.375
-0.225 15.825 -0.975
-2.625 15.825 2.475
-2.625 15.825 2.175
-3.225 15.975 0.075
-3.225 15.975 -0.525
-3.225 15.975 0.525
-6.825 19.575 1.425
0.375 15.975 2.775
-1.425 15.675 -0.525
-1.425 15.675 -3.075
-1.425 15.675 -0.225
-1.425 15.675 3.075
1.875 16.725 2.175
-1.575 15.675 1.875
-1.575 15.675 -0.375
-1.575 15.675 -0.675
-1.575 15.675 1.725
-1.275 15.675 -0.075
-1.575 15.675 2.175
3.225 18.075 0.225
-6.075 18.075 1.425
-6.525 18.825 0.975
-6.525 18.825 1.575
-6.525 18.825 0.525
-6.525 18.825 0.075
-6.525 18.825 0.675
-3.975 16.275 2.025
-3.975 16.275 0.675
-1.725 15.675 0.525
-1.725 15.675 -0.225
-1.725 15.675 0.225
-1.725 15.675 -0.075
-1.725 15.675 -0.525
-1.125 15.675 -0.975
-1.125 15.675 -0.825
-1.125 15.675 1.875
-1.125 15.675 -0.075
0.825 16.125 2.175
-3.675 16.125 0.525
-3.675 16.125 2.025
-3.675 16.125 2.175
-4.275 16.425 -0.075
-0.075 15.825 -0.225
-6.375 18.525 1.275
-2.775 15.825 0.525
-2.775 15.825 0.225
-2.775 15.825 0.975
-0.975 15.675 -0.675
-0.975 15.675 -0.225
-1.875 15.675 1.875
-1.875 15.675 0.225
-1.875 15.675 1.275
-1.875 15.675 -0.975
-1.875 15.675 0.525
-1.875 15.675 -0.675
-0.975 15.675 0.375
-5.475 17.325 1.875
-5.475 17.325 2.325
-5.625 17.475 2.025
2.775 17.475 1.125
-0.825 15.675 -0.225
-0.825 15.675 -0.075
-0.825 15.675 1.275
-0.825 15.675 1.875
-2.025 15.675 -1.125
-2.025 15.675 0.225
-2.025 15.675 -0.825
-2.025 15.675 -0.675
-2.025 15.675 0.825
-2.025 15.675 0.525
-2.025 15.675 2.175
-6.225 18.225 2.325
-6.225 18.225 1.425
3.375 18.225 0.075
-3.375 15.975 0.525
-3.375 15.975 0.825
-3.375 15.975 0.225
-4.575 16.575 1.875
0.525 15.975 1.875
0.525 15.975 -1.275
0.525 15.975 -0.375
1.725 16.575 2.925
2.925 17.625 0.225
-0.675 15.675 1.875
-2.175 15.675 0.075
-2.175 15.675 0.525
-2.175 15.675 -0.825
0.075 15.825 2.475
-2.925 15.825 0.525
-2.925 15.825 0.375
-2.925 15.825 -0.225
-2.925 15.825 -0.375
-2.925 15.825 0.225
-5.025 16.875 1.875
-5.925 17.775 2.625
-2.325 15.675 0.675
-2.325 15.675 1.125
-2.325 15.675 0.525
-2.325 15.675 0.375
-2.325 15.675 -0.375
-2.325 15.675 0.975
-0.525 15.675 -0.975
-0.525 15.675 -0.375
-0.525 15.675 2.175
-6.525 18.675 0.525
-6.525 18.675 1.575
-6.525 18.675 1.425
-6.525 18.675 0.975
-6.525 18.675 0.825
-6.525 18.675 0.675
-4.125 16.275 1.725
0.975 16.125 -0.975
-3.825 16.125 -1.425
-3.825 16.125 1.575
-3.825 16.125 0.825
-3.825 16.125 0.225
-3.825 16.125 1.725
-6.375 18.375 2.025
3.525 18.375 1.575
3.525 18.375 1.425
-4.875 16.725 2.475
-6.075 17.925 0.225
-6.075 17.925 1.575
3.225 17.925 1.425
3.225 17.925 2.325
0.225 15.825 -0.225
0.225 15.825 -0.075
-3.075 15.825 0.525
-3.075 15.825 1.125
-3.075 15.825 0.975
-3.525 15.975 0.825
-3.525 15.975 1.275
-6.825 19.275 0.525
-6.825 19.275 1.125
-2.475 15.675 0.975
-2.475 15.675 0.525
-2.475 15.675 -0.675
-2.475 15.675 -0.375
-2.475 15.675 3.075
-2.475 15.675 0.825
-0.375 15.675 -0.075
-0.375 15.675 0.225
-0.375 15.675 -0.225
-0.375 15.675 -0.375
-2.625 15.675 4.575
-2.625 15.675 0.675
-2.625 15.675 0.975
-2.625 15.675 -0.825
-0.225 15.675 -0.225
-0.225 15.675 -0.975
-0.225 15.675 -0.375
-0.225 15.675 -0.075
-6.225 18.075 0.675
-6.225 18.075 3.375
-4.725 16.575 2.325
-4.725 16.575 -1.275
3.375 18.075 1.425
-5.475 17.175 2.475
-5.475 17.175 2.175
-3.225 15.825 0.525
-3.975 16.125 1.875
-3.975 16.125 -0.075
-3.975 16.125 2.175
-3.975 16.125 -0.225
-6.675 18.825 1.275
-6.675 18.825 2.625
-6.675 18.825 0.675
-6.675 18.825 0.525
-6.675 18.825 1.425
-6.525 18.525 0.525
-6.525 18.525 1.875
-4.275 16.275 1.875
-1.425 15.525 -0.525
-1.425 15.525 1.875
-1.425 15.525 0.525
-1.425 15.525 0.675
-1.425 15.525 0.975
-1.425 15.525 0.225
-3.675 15.975 0.825
-3.675 15.975 1.725
-3.675 15.975 0.525
-6.825 19.125 -2.025
-1.275 15.525 -0.375
-1.275 15.525 1.575
-1.275 15.525 0.525
-1.275 15.525 0.225
-1.275 15.525 -0.675
-1.275 15.525 -0.525
-1.575 15.525 -0.225
-1.575 15.525 0.525
-1.575 15.525 -0.525
-1.575 15.525 0.975
-1.275 15.525 -0.075
-2.775 15.675 0.525
-0.075 15.675 0.075
-0.075 15.675 1.575
-0.075 15.675 -0.375
-0.075 15.675 -0.225
-1.125 15.525 -0.075
-1.125 15.525 0.225
-1.125 15.525 0.525
-1.725 15.525 0.675
-1.725 15.525 0.225
-1.725 15.525 0.525
-1.725 15.525 1.125
-1.725 15.525 -0.525
3.075 17.625 2.325
3.075 17.625 2.175
3.075 17.625 0.225
-1.725 15.525 -0.825
3.075 17.625 2.475
-1.125 15.525 0.375
-7.125 20.025 2.625
-6.375 18.225 1.275
-6.375 18.225 2.325
-6.375 18.225 1.875
3.525 18.225 1.275
-0.975 15.525 0.525
-0.975 15.525 0.375
-0.975 15.525 2.325
-1.875 15.525 -0.375
-1.875 15.525 2.025
-1.875 15.525 0.675
-1.875 15.525 0.975
-1.875 15.525 1.125
-1.875 15.525 0.525
-1.875 15.525 0.225
-0.975 15.525 0.075
-1.875 15.525 -0.825
-4.575 16.425 1.725
-4.575 16.425 2.625
-0.825 15.525 1.425
-0.825 15.525 0.975
-0.825 15.525 -0.525
-2.025 15.525 -0.675
-2.025 15.525 1.125
-2.025 15.525 0.525
-2.025 15.525 -0.075
-2.025 15.525 2.025
-2.025 15.525 0.075
-5.025 16.725 2.325
-5.025 16.725 2.175
-5.025 16.725 -0.525
-2.025 15.525 0.975
-6.075 17.775 1.575
-6.075 17.775 0.225
3.225 17.775 2.175
3.225 17.775 1.725
-3.375 15.825 -3.225
-3.375 15.825 0.525
-3.375 15.825 0.975
-2.925 15.675 0.825
-2.925 15.675 0.975
-2.925 15.675 0.525
0.075 15.675 -0.675
0.075 15.675 1.725
0.075 15.675 0.825
-2.175 15.525 -0.225
-2.175 15.525 0.375
-2.175 15.525 -0.975
-0.675 15.525 2.325
-0.675 15.525 1.275
-0.675 15.525 1.425
-2.175 15.525 0.675
-6.675 18.675 1.725
-6.675 18.675 1.575
-6.675 18.675 0.375
-6.675 18.675 0.525
-6.675 18.675 1.425
-4.125 16.125 2.025
-4.125 16.125 -0.075
-4.125 16.125 0.525
-4.125 16.125 -1.125
-3.825 15.975 -0.225
-3.825 15.975 0.525
-3.825 15.975 1.725
-3.825 15.975 0.975
-3.825 15.975 -1.575
3.375 17.925 2.175
-6.225 17.925 2.025
-6.225 17.925 1.725
-6.225 17.925 1.275
-6.225 17.925 1.575
-4.875 16.575 4.425
-4.875 16.575 -0.975
-6.525 18.375 2.025
-6.525 18.375 1.875
-4.425 16.275 0.525
-4.425 16.275 -0.225
-4.425 16.275 2.625
-4.425 16.275 2.925
-2.325 15.525 1.125
-2.325 15.525 0.525
-0.525 15.525 -0.675
-0.525 15.525 -0.975
-2.325 15.525 -0.225
-2.325 15.525 -0.075
-2.325 15.525 0.075
-2.325 15.525 0.225
-3.075 15.675 0.525
0.225 15.675 1.575
0.225 15.675 1.275
-3.075 15.675 -0.375
-3.525 15.825 0.975
-3.525 15.825 0.825
-3.525 15.825 0.525
-3.525 15.825 1.275
0.675 15.825 1.275
0.675 15.825 -0.525
0.675 15.825 0.075
-5.625 17.175 0.525
-5.625 17.175 2.325
2.775 17.175 3.375
-2.475 15.525 -0.075
-2.475 15.525 -0.225
-2.475 15.525 -0.375
-2.475 15.525 0.825
-0.375 15.525 0.075
-0.375 15.525 0.975
-0.375 15.525 -0.225
-2.475 15.525 0.525
-0.375 15.525 -0.375
-0.375 15.525 -0.525
-5.775 17.325 2.475
-5.775 17.325 2.175
-5.775 17.325 0.525
-4.725 16.425 1.725
-6.375 18.075 1.725
-6.375 18.075 2.025
3.525 18.075 2.625
3.075 17.475 2.175
-5.925 17.475 3.225
-5.925 17.475 2.625
2.475 16.875 -3.225
2.475 16.875 5.175
-0.225 15.525 0.075
-2.625 15.525 -0.225
-2.625 15.525 0.825
-2.625 15.525 0.225
-2.625 15.525 0.525
-0.225 15.525 2.025
-2.625 15.525 -0.375
-0.225 15.525 -0.525
-0.225 15.525 1.425
-0.225 15.525 0.975
-3.975 15.975 0.975
-3.975 15.975 1.875
-3.975 15.975 3.075
-6.825 18.825 1.275
-6.825 18.825 0.375
-6.825 18.825 -0.075
-5.175 16.725 2.625
-6.075 17.625 2.475
-4.275 16.125 0.525
-4.275 16.125 0.375
-4.275 16.125 3.525
-4.275 16.125 -1.125
-4.275 16.125 0.825
-4.275 16.125 0.225
3.225 17.625 2.475
3.225 17.625 -0.075
-6.675 18.525 0.525
-6.675 18.525 0.225
0.375 15.675 0.075
-3.225 15.675 -0.375
-3.225 15.675 -2.775
-3.225 15.675 0.525
-3.675 15.825 0.825
-3.675 15.825 1.425
0.825 15.825 -0.375
