# .PCD v0.7 - Point Cloud Data file format
VERSION 0.7
FIELDS x y z
SIZE 4 4 4
TYPE F F F
COUNT 1 1 1
WIDTH 2048
HEIGHT 1
VIEWPOINT 0 0 0 1 0 0 0
POINTS 2048
DATA ascii
5.325 61.875 -0.225
5.325 62.025 -1.575
5.475 61.875 -0.375
5.175 61.725 -1.125
5.175 62.025 -0.225
5.175 61.725 -1.275
5.325 61.575 3.675
5.025 61.875 -0.975
5.625 61.875 -0.225
5.175 62.175 -1.575
5.175 62.175 -1.425
5.025 61.725 -1.125
5.025 62.025 -0.225
5.625 62.025 1.425
5.025 61.725 0.225
5.025 62.175 -0.975
5.025 62.175 -1.125
5.325 62.325 -1.725
4.875 62.025 0.225
4.875 62.025 -0.225
4.875 62.025 -0.525
5.175 62.325 -1.425
5.775 62.175 1.125
4.875 62.175 -0.225
5.025 62.325 -0.075
5.025 61.425 -0.075
5.625 62.325 1.125
4.725 61.875 0.375
5.325 61.275 -1.425
5.325 61.275 -1.125
5.175 61.275 -0.225
4.875 61.425 -0.225
5.775 61.425 -1.575
4.875 62.325 -0.975
5.775 62.325 -0.225
4.725 62.175 -0.225
5.025 61.275 -0.525
5.025 61.275 0.225
5.025 61.275 -0.225
5.025 61.275 -0.975
5.325 61.125 -0.225
4.875 62.475 0.225
5.925 62.325 0.375
5.925 62.325 0.525
4.725 62.325 -0.825
6.075 62.025 -0.825
5.475 61.125 -0.825
5.175 61.125 -0.225
5.175 62.625 -0.375
5.175 62.625 -0.975
5.025 62.625 -0.375
5.025 62.625 -2.625
5.025 61.125 0.375
5.925 61.275 -1.275
5.925 62.475 -1.725
4.725 62.475 -1.275
4.725 61.275 -1.575
4.875 61.125 0.075
4.875 62.625 -0.375
6.075 61.425 -1.575
6.225 61.875 -0.975
5.475 62.775 -0.825
5.475 60.975 -0.225
5.175 60.975 0.525
5.175 60.975 0.375
6.225 62.025 0.525
5.025 62.775 -1.275
5.625 60.975 -0.225
6.225 61.575 -0.375
6.225 62.175 1.275
6.225 62.175 0.075
4.425 61.575 -1.575
4.425 61.575 -0.525
4.425 62.175 0.525
5.925 61.125 0.825
4.725 62.625 0.075
4.725 62.625 0.225
6.075 62.475 0.675
6.075 62.475 -0.225
4.875 62.775 -1.125
5.775 62.775 2.175
6.225 62.325 0.225
6.225 62.325 -0.525
4.425 61.425 1.275
4.275 61.875 -1.425
5.475 62.925 -1.125
5.175 60.825 -0.975
6.375 61.725 -0.225
6.375 61.725 -0.375
6.375 61.725 0.375
4.275 62.025 -0.975
6.375 62.025 0.525
4.575 62.625 -0.525
4.575 62.625 1.125
4.575 62.625 -0.225
4.575 62.625 -1.425
4.575 62.625 -0.975
5.925 60.975 -1.575
4.725 62.775 -0.225
4.425 62.475 -1.425
4.425 62.475 -1.125
4.425 61.275 1.425
5.625 60.825 -0.225
6.375 62.175 1.125
6.375 62.175 -0.375
6.375 62.175 -0.225
4.275 61.575 -0.975
6.375 61.575 -0.075
5.775 60.825 -1.425
4.275 62.325 0.225
6.375 62.325 -0.225
6.375 61.425 1.125
6.375 62.325 0.075
4.275 62.325 0.975
6.075 60.975 3.075
4.575 62.775 -0.225
4.425 62.625 -1.125
4.425 61.125 0.675
4.425 61.125 -1.275
4.425 62.625 -0.975
4.125 61.875 0.525
6.525 61.875 0.075
5.325 60.675 -1.125
5.925 62.925 0.675
4.725 62.925 -0.225
6.525 62.025 -0.075
6.525 61.725 0.375
6.525 62.025 0.675
4.125 62.025 -0.975
4.125 61.725 0.225
6.375 62.475 -0.225
6.375 62.475 0.225
6.375 62.475 0.525
6.525 61.575 -0.375
4.125 61.575 0.525
6.525 62.175 1.275
6.525 61.575 -0.225
6.525 62.175 -0.075
6.525 62.175 0.825
6.225 62.775 1.125
4.425 60.975 0.525
4.425 60.975 -0.525
4.425 60.975 -0.825
4.425 60.975 -0.375
4.425 62.775 -0.825
4.425 60.975 0.975
4.125 62.325 0.375
4.125 61.425 -2.475
4.125 61.425 0.525
6.525 62.325 0.375
6.525 61.425 0.075
4.125 61.425 0.225
6.525 61.425 -0.975
4.125 62.325 -1.125
4.125 62.325 0.525
5.775 63.075 1.275
4.875 60.675 -0.075
6.075 60.825 -0.825
6.075 62.925 0.675
4.275 61.125 0.375
6.375 62.625 -0.075
6.375 62.625 0.225
4.275 62.625 -1.725
6.525 62.475 0.375
4.125 61.275 -1.725
6.525 62.475 0.675
6.525 62.475 -0.525
6.525 61.275 -0.075
5.925 60.675 0.225
6.675 61.875 -0.375
6.675 61.875 0.225
3.975 61.875 1.125
3.975 61.875 -0.975
5.325 60.525 -1.275
5.325 63.225 -0.375
6.675 62.025 1.275
6.675 62.025 0.525
6.675 62.025 -0.075
6.675 61.725 0.225
3.975 62.025 0.975
5.175 63.225 -1.275
6.225 62.925 0.525
6.225 62.925 -0.075
6.225 62.925 0.825
4.425 60.825 0.825
4.425 60.825 0.675
4.275 60.975 -0.375
4.275 62.775 -1.275
6.375 60.975 0.675
6.675 61.575 -0.525
3.975 62.175 0.825
5.625 63.225 0.675
5.625 63.225 0.975
4.125 62.625 0.375
6.525 62.625 0.675
4.125 62.625 2.775
6.525 62.625 -0.075
4.575 63.075 0.075
4.575 60.675 0.975
4.575 60.675 0.525
6.075 63.075 -0.375
6.675 61.425 -1.425
6.675 62.325 0.375
3.975 62.325 0.975
3.975 62.325 -2.625
3.975 62.325 0.825
4.875 63.225 -0.375
6.675 61.275 0.225
6.675 61.275 -0.825
6.675 62.475 1.125
3.975 62.475 -0.375
3.975 62.475 0.375
3.975 62.475 0.675
5.925 60.525 -0.375
4.725 63.225 -1.425
4.725 63.225 -0.375
4.275 60.825 -1.575
6.525 62.775 0.225
3.825 61.875 1.275
5.325 60.375 -1.275
5.325 63.375 0.975
6.825 61.875 0.075
5.325 60.375 -1.125
6.225 63.075 -0.675
6.225 63.075 0.525
4.425 60.675 0.675
4.425 63.075 -0.525
3.825 61.725 1.275
3.825 61.725 0.375
3.825 62.025 0.675
3.825 61.575 0.525
6.825 61.575 -0.675
3.825 62.175 0.525
6.675 62.625 0.525
6.675 61.125 -0.075
6.675 62.625 0.675
6.675 62.625 0.225
3.975 62.625 -0.525
4.575 63.225 -1.125
4.575 63.225 -1.425
4.575 60.525 0.525
6.075 63.225 0.375
5.775 63.375 0.975
5.775 60.375 -0.975
6.825 61.425 0.375
6.825 61.425 -0.825
3.825 62.325 1.125
3.825 62.325 0.525
3.825 61.425 -0.075
4.125 60.825 0.525
4.125 62.925 1.125
6.525 60.825 0.975
4.275 60.675 -2.175
4.725 60.375 1.425
6.825 61.275 0.525
3.825 62.475 0.675
3.825 61.275 0.525
3.825 61.275 0.825
3.825 62.475 0.975
6.675 60.975 -1.575
6.675 60.975 -0.525
3.975 62.775 0.675
6.225 63.225 0.525
4.425 63.225 0.225
4.425 63.225 0.075
5.475 60.225 -0.225
5.475 60.225 -0.975
5.475 60.225 -0.075
5.025 60.225 1.875
6.975 62.175 3.225
3.675 62.175 1.125
3.675 62.175 1.275
4.575 63.375 -0.375
3.825 61.125 0.975
4.575 63.375 -1.125
4.575 60.375 1.275
4.125 60.675 0.675
6.675 60.825 1.275
3.975 60.825 1.725
3.975 60.825 0.075
5.775 63.525 0.825
5.775 63.525 1.125
5.775 60.225 -1.275
3.675 61.425 0.525
4.275 60.525 0.225
6.375 63.225 0.375
3.675 62.325 0.975
4.275 63.225 -1.425
4.275 63.225 -0.525
6.825 60.975 -0.075
3.825 60.975 1.275
6.825 60.975 -0.375
3.825 60.975 0.525
6.225 63.375 0.225
4.425 63.375 -0.375
5.925 63.525 0.675
5.925 63.525 0.825
5.925 60.225 -0.525
4.725 63.525 -0.825
4.725 60.225 0.825
5.475 60.075 -0.525
5.175 60.075 1.725
5.475 60.075 -0.225
3.525 62.025 -4.725
3.525 62.025 -0.375
4.125 60.525 -4.125
4.575 63.525 -1.275
4.575 63.525 -0.975
4.575 63.525 -1.725
4.575 60.225 2.025
6.075 63.525 0.525
4.575 60.225 0.825
4.575 60.225 0.525
6.975 61.125 0.525
3.675 62.625 1.125
3.675 61.125 0.525
5.025 63.675 -0.225
5.025 63.675 -0.825
5.625 63.675 0.975
5.625 60.075 0.225
5.625 60.075 0.375
5.625 60.075 -0.225
7.125 62.175 0.375
3.525 62.175 -0.075
3.525 61.575 0.075
3.525 61.575 0.225
3.525 61.575 0.825
3.825 62.925 0.375
3.825 60.825 0.525
6.825 62.925 0.375
6.375 63.375 0.375
4.275 63.375 -0.375
6.375 63.375 -0.075
6.375 63.375 0.975
4.275 60.375 -1.425
5.775 60.075 -0.225
4.875 60.075 1.275
7.125 62.325 -0.225
7.125 62.325 3.225
6.225 63.525 0.675
6.225 63.525 0.825
6.225 63.525 1.275
4.425 63.525 -1.575
6.975 60.975 1.125
4.425 63.525 -1.125
3.675 60.975 0.075
3.675 60.975 0.525
3.675 60.975 -0.075
4.725 63.675 1.575
6.525 60.375 0.675
4.125 63.375 -0.225
4.125 60.375 -1.125
3.825 60.675 -0.225
4.575 60.075 2.025
6.075 60.075 -0.075
7.125 61.125 0.825
3.375 61.875 0.675
3.375 61.875 -0.375
3.375 61.875 0.525
6.975 60.825 -0.825
6.975 62.925 1.875
6.375 63.525 0.375
4.275 60.225 0.225
6.375 63.525 -0.225
4.275 63.525 -0.225
3.675 62.925 1.125
3.675 60.825 -0.075
6.375 63.525 0.225
3.375 62.025 0.075
3.375 62.025 -0.075
5.475 59.925 1.575
5.175 63.825 -1.125
5.475 63.825 2.025
3.375 61.575 -0.075
3.375 61.575 0.375
3.375 62.175 -0.375
5.625 63.825 0.975
5.625 63.825 1.875
5.625 59.925 0.525
7.275 62.325 0.825
7.275 62.325 0.975
3.375 62.325 -0.375
4.875 63.825 1.575
4.875 59.925 -1.275
4.875 59.925 0.975
6.225 63.675 1.125
6.225 60.075 -1.275
6.225 60.075 0.675
6.225 63.675 1.575
4.425 60.075 0.075
3.525 62.775 -0.675
3.825 63.225 -1.125
6.525 60.225 2.025
3.375 61.275 0.225
3.375 62.475 -0.225
3.375 62.475 -0.525
6.975 60.675 0.825
5.925 59.925 -0.225
5.925 63.825 0.675
4.725 59.925 1.125
4.725 59.925 0.975
7.125 62.925 1.275
7.275 61.125 0.825
3.375 62.625 -0.525
6.075 63.825 0.975
6.075 59.925 -0.225
6.075 63.825 2.025
6.075 63.825 0.225
3.225 61.875 0.075
3.225 61.875 0.975
3.225 61.875 0.375
5.325 63.975 -0.675
3.225 61.725 -0.225
3.225 61.725 0.075
3.225 61.575 -0.075
3.825 63.375 -0.825
3.825 63.375 -1.125
6.825 60.375 0.975
5.025 63.975 1.275
6.975 60.525 0.225
7.275 60.975 -3.075
3.225 62.325 -0.375
3.225 62.325 -0.225
3.225 61.425 0.525
4.875 59.775 0.375
4.875 59.775 0.975
4.875 59.775 0.825
6.225 63.825 0.525
6.225 63.825 0.075
6.225 63.825 0.675
6.225 63.825 1.125
7.125 60.675 0.375
7.125 60.675 0.225
3.525 63.075 1.425
3.525 63.075 0.825
3.525 63.075 1.125
3.225 62.475 -0.375
5.925 63.975 0.075
5.925 63.975 -0.525
4.725 63.975 1.125
4.725 59.775 1.125
7.275 60.825 0.375
6.375 63.825 0.675
4.275 63.825 -1.725
6.375 63.825 1.275
6.375 59.925 0.825
6.375 63.825 0.225
3.825 63.525 0.975
3.825 63.525 -1.125
6.825 60.225 2.325
3.825 60.225 -0.375
3.225 61.125 -0.225
3.225 62.625 -1.725
3.225 62.625 -0.675
3.225 62.625 -0.075
4.575 63.975 1.425
6.075 63.975 0.975
6.675 63.675 0.525
6.675 60.075 1.875
6.675 63.675 0.975
3.975 63.675 -1.425
3.975 60.075 -0.075
5.325 59.625 -0.525
3.075 61.875 0.675
3.075 61.875 0.375
3.075 61.875 0.525
3.525 63.225 1.125
3.525 60.525 0.075
3.075 61.725 -0.075
5.175 64.125 -0.825
5.475 59.625 -1.125
3.075 61.725 0.675
5.475 59.625 1.125
3.075 61.725 0.525
3.075 62.025 0.225
3.075 62.025 -0.075
3.075 62.025 -0.375
5.025 59.625 -0.525
3.225 62.775 -0.375
3.225 62.775 -0.675
3.225 62.775 -0.525
6.225 59.775 -0.375
6.225 59.775 -0.225
4.425 63.975 -1.575
4.425 63.975 -0.225
4.425 63.975 -0.525
4.425 63.975 -1.725
4.425 59.775 1.125
7.275 60.675 0.375
3.375 63.075 1.425
7.275 60.675 0.825
4.125 63.825 0.225
6.525 63.825 0.675
4.875 59.625 0.375
4.875 59.625 -1.125
4.875 59.625 0.975
3.075 61.425 -0.075
5.925 64.125 -0.525
5.925 64.125 0.975
4.725 64.125 -1.575
4.725 59.625 1.125
3.075 62.475 0.375
3.075 62.475 -0.075
3.675 60.225 -0.225
6.825 60.075 1.875
6.825 60.075 2.325
3.525 63.375 -0.375
7.425 62.925 2.025
3.225 62.925 -0.675
6.375 63.975 0.675
4.275 63.975 -0.375
4.575 64.125 -0.675
4.575 64.125 1.125
6.075 59.625 -0.375
6.075 64.125 0.075
7.275 60.525 0.825
7.275 60.525 0.375
6.675 63.825 0.675
3.975 59.925 0.975
3.975 63.825 0.225
5.325 59.475 1.125
5.175 59.475 0.675
5.175 59.475 1.125
5.475 59.475 -1.125
5.175 59.475 0.825
2.925 61.725 1.125
2.925 62.175 4.125
2.925 62.175 0.225
3.225 60.675 -0.075
4.125 63.975 -0.375
4.125 59.775 -0.375
6.525 59.775 1.575
3.225 63.075 -0.375
3.225 63.075 1.725
5.025 64.275 -0.675
3.075 62.775 0.075
6.225 59.625 -0.525
4.425 59.625 1.275
6.975 60.075 0.225
3.675 60.075 -0.075
3.675 63.675 0.525
4.875 59.475 0.375
4.875 59.475 0.825
7.125 60.225 -0.075
2.925 62.325 0.225
5.775 64.275 1.125
4.875 64.275 -0.375
3.375 60.375 -0.225
3.375 60.375 -0.375
3.375 63.375 -0.975
7.275 60.375 0.825
3.825 59.925 0.375
3.825 59.925 -0.225
6.825 59.925 1.275
4.725 59.475 0.825
2.925 62.475 -0.075
2.925 62.475 0.375
5.925 64.275 -0.825
3.075 62.925 -0.675
4.275 59.625 1.125
7.425 60.525 1.125
3.975 59.775 0.525
3.975 63.975 0.075
3.975 63.975 0.225
3.975 63.975 -0.375
4.575 59.475 1.125
2.925 62.625 -0.225
4.575 64.275 -1.425
7.125 60.075 1.875
7.125 60.075 0.825
7.125 60.075 1.275
3.525 60.075 -0.075
3.525 63.675 0.825
6.525 64.125 -0.225
4.125 59.625 0.375
4.125 59.625 -0.075
5.175 59.325 -1.125
5.475 64.425 1.425
3.375 63.525 -1.425
3.375 63.525 -1.275
4.425 59.475 1.725
2.925 62.775 -0.225
4.425 64.275 -1.275
5.625 59.325 -0.225
3.225 63.375 -0.825
3.825 59.775 0.075
3.825 59.775 0.675
6.825 63.975 -0.225
3.825 63.975 -0.225
3.825 63.975 -0.375
3.825 63.975 -0.525
4.875 59.325 0.675
4.875 59.325 1.275
4.875 59.325 0.825
4.875 64.425 2.475
4.875 59.325 1.725
4.875 59.325 0.975
5.775 59.325 -0.075
2.775 61.425 -0.225
4.725 64.425 -0.675
4.725 59.325 0.975
4.275 59.475 -0.075
2.925 62.925 -0.075
2.925 62.925 -0.225
2.775 61.275 -0.225
4.275 64.275 -1.275
6.675 64.125 0.525
6.675 59.625 1.575
3.975 59.625 0.225
3.975 59.625 0.525
3.075 63.225 -0.375
3.375 60.075 -0.225
7.275 60.075 -0.225
7.125 59.925 0.825
4.575 64.425 -0.975
6.075 64.425 -0.525
4.575 59.325 1.125
4.575 59.325 0.675
4.575 59.325 0.825
3.225 63.525 -0.825
3.225 63.525 -0.675
3.675 59.775 -0.075
3.675 59.775 -0.525
6.525 59.475 1.275
4.125 59.475 0.525
4.125 59.475 0.375
6.225 64.425 -0.675
6.225 64.425 0.675
6.225 64.425 0.225
6.225 59.325 -0.675
4.425 64.425 -1.425
4.425 59.325 0.675
4.425 59.325 1.275
3.825 64.125 -0.225
3.825 59.625 0.075
3.825 59.625 0.525
3.825 59.625 0.675
5.175 59.175 1.725
5.175 64.575 1.575
5.025 59.175 0.675
4.875 59.175 0.825
5.775 64.575 1.725
5.775 59.175 0.225
5.775 59.175 -0.525
5.775 59.175 -0.225
5.775 59.175 0.375
3.975 59.475 0.675
6.675 64.275 -0.075
6.675 64.275 0.225
7.275 59.925 1.125
3.375 59.925 -0.225
7.125 59.775 1.725
5.925 59.175 -0.225
4.725 59.175 0.825
4.725 59.175 0.975
6.975 64.125 0.825
6.975 59.625 0.675
6.975 59.625 0.975
6.975 59.625 0.075
3.675 59.625 0.075
3.675 64.125 1.275
3.675 64.125 -1.125
4.575 59.175 1.125
6.075 64.575 0.525
6.525 64.425 1.725
6.525 64.425 0.975
4.125 59.325 0.825
4.125 64.425 -0.825
6.825 64.275 0.825
6.225 64.575 -0.225
4.425 64.575 -1.425
4.425 59.175 1.275
5.325 64.725 1.425
5.175 59.025 -1.125
3.375 63.975 0.975
7.425 59.925 0.525
7.125 64.125 0.375
7.125 59.625 0.375
7.125 59.625 0.225
3.525 59.625 0.075
3.525 59.625 3.075
3.525 64.125 0.975
6.675 64.425 0.825
3.975 59.325 0.675
6.675 64.425 0.975
3.975 64.425 -1.125
3.975 64.425 -0.975
8.175 62.325 1.575
4.875 59.025 1.275
4.875 59.025 0.975
6.375 64.575 0.375
4.275 59.175 0.825
3.675 59.475 0.525
5.925 59.025 0.375
4.725 59.025 0.825
6.075 64.725 0.075
4.575 59.025 0.825
6.075 59.025 -0.225
4.575 59.025 0.675
6.525 64.575 0.825
4.125 59.175 0.675
6.525 64.575 0.675
6.825 64.425 0.675
3.825 59.325 0.825
3.825 64.425 -0.975
3.825 64.425 -2.325
3.825 64.425 -2.625
2.775 63.375 0.075
2.775 63.375 0.375
3.225 63.975 1.125
7.275 59.625 -1.125
3.075 63.825 -0.075
4.425 64.725 0.375
2.475 62.775 1.725
6.225 59.025 -0.225
5.625 64.875 1.725
5.625 64.875 1.125
5.625 64.875 1.275
2.625 63.225 0.225
6.675 64.575 0.825
3.975 64.575 -0.225
3.975 59.175 1.575
3.975 59.175 -0.525
3.975 59.175 0.675
5.775 64.875 0.225
4.275 64.725 0.375
4.275 64.725 0.825
6.975 64.425 0.675
3.675 64.425 0.375
3.675 59.325 0.375
6.375 59.025 -0.375
4.275 59.025 0.825
5.925 58.875 -0.075
4.725 58.875 0.825
3.825 64.575 -0.225
6.825 64.575 1.125
7.275 59.475 -0.825
4.575 64.875 0.675
7.725 63.825 0.825
4.125 59.025 0.675
2.925 63.825 -0.075
3.375 64.275 -1.125
3.375 64.275 0.975
3.525 64.425 0.225
7.125 64.425 0.375
3.525 64.425 0.075
3.525 64.425 -0.525
2.775 60.075 0.225
4.425 58.875 1.125
6.675 64.725 0.525
6.675 64.725 0.375
5.475 58.725 -0.525
5.475 58.725 -0.225
3.675 64.575 -0.375
3.675 64.575 -0.225
4.275 64.875 0.975
5.775 58.725 -0.075
3.075 59.625 0.225
5.775 65.025 0.975
5.775 65.025 0.675
7.425 59.475 1.425
7.725 59.775 -5.475
3.225 64.275 2.175
3.225 64.275 1.125
5.925 58.725 -1.425
5.925 58.725 -0.075
5.925 65.025 0.675
7.275 59.325 1.125
2.775 63.825 -0.225
6.825 59.025 0.825
4.125 58.875 0.825
4.125 58.875 1.275
6.525 64.875 0.975
6.525 64.875 1.575
6.075 58.725 0.225
4.575 65.025 -0.975
4.575 65.025 0.675
6.075 65.025 1.275
2.625 60.075 0.675
3.525 64.575 -0.225
7.125 59.175 0.525
6.225 58.725 0.225
4.425 58.725 1.275
4.425 58.725 1.125
3.975 58.875 1.425
2.475 63.525 0.525
3.675 59.025 0.225
5.475 65.175 1.425
3.225 64.425 0.825
2.775 63.975 0.075
2.775 63.975 -0.075
5.625 58.575 -0.525
5.025 65.175 1.725
5.025 58.575 0.675
5.025 58.575 0.525
4.275 58.725 0.975
4.275 58.725 0.675
6.375 58.725 0.975
6.375 58.725 -0.525
4.275 65.025 -5.625
4.275 65.025 -1.275
6.375 65.025 0.825
5.775 65.175 1.425
5.775 58.575 -0.375
4.875 58.575 0.675
2.625 63.825 0.225
2.625 63.825 0.075
3.375 64.575 -0.225
7.275 59.175 0.825
5.925 65.175 1.275
5.925 58.575 0.375
5.925 58.575 0.225
3.525 64.725 0.525
6.525 65.025 0.975
6.525 65.025 1.125
6.525 65.025 1.425
4.125 65.025 2.625
6.075 58.575 -0.225
4.575 58.575 0.975
3.075 64.425 1.275
7.875 64.125 0.825
2.775 64.125 -1.875
2.775 64.125 0.525
6.225 58.575 1.875
4.425 65.175 -0.825
4.425 65.175 0.975
4.425 58.575 1.125
2.625 63.975 -0.075
3.225 64.575 -1.425
6.975 58.875 0.525
6.675 58.725 -1.875
3.375 64.725 0.375
3.375 64.725 -0.225
7.275 59.025 0.975
7.275 59.025 0.675
7.275 59.025 0.225
2.475 63.825 0.675
5.475 58.425 0.975
5.175 65.325 0.825
6.375 65.175 0.975
5.025 58.425 0.375
5.025 58.425 0.825
5.625 65.325 1.275
4.875 58.425 0.825
4.875 65.325 1.275
4.875 65.325 -0.675
6.825 58.725 0.525
3.825 65.025 -0.225
6.825 65.025 1.275
7.125 58.875 1.875
3.525 64.875 -0.225
2.925 64.425 3.825
4.725 65.325 1.275
6.525 58.575 0.675
4.125 58.575 0.225
4.125 58.575 0.825
6.075 58.425 0.375
7.425 59.025 -0.225
7.425 59.025 0.675
6.975 58.725 1.575
6.975 58.725 0.375
6.975 58.725 1.425
3.675 65.025 -0.225
3.675 65.025 -0.375
6.675 58.575 -1.125
3.975 58.575 0.225
6.675 65.175 1.275
6.675 65.175 1.125
6.225 58.425 -0.225
6.225 58.425 0.375
6.225 65.325 0.225
4.425 58.425 0.675
4.425 58.425 0.975
4.425 58.425 1.575
3.375 64.875 -0.225
5.325 65.475 1.125
5.325 58.275 0.975
5.175 65.475 0.825
6.375 58.425 -0.075
4.275 58.425 0.825
4.275 58.425 0.225
2.925 64.575 -4.875
2.925 64.575 -0.075
2.625 64.275 1.275
6.825 65.175 0.975
6.825 65.175 1.425
6.825 58.575 0.675
8.625 60.375 0.975
7.125 58.725 0.075
2.475 64.125 -0.075
5.925 65.475 1.125
4.725 58.275 0.675
6.525 65.325 1.425
6.525 65.325 1.275
4.125 58.425 1.275
7.425 58.875 0.075
7.425 58.875 0.675
3.225 64.875 -0.225
3.225 64.875 0.225
2.325 63.975 0.075
2.325 63.975 -0.075
4.575 58.275 0.825
6.975 65.175 0.675
7.275 58.725 0.075
4.425 58.275 -0.075
8.025 64.425 1.875
2.925 64.725 -1.575
8.175 59.475 -0.525
7.725 59.025 0.675
1.725 62.925 0.075
2.325 64.125 0.075
2.325 64.125 0.525
2.325 64.125 0.825
2.325 64.125 0.375
3.075 64.875 -0.525
3.075 64.875 -0.225
7.575 58.875 -0.375
7.575 58.875 0.375
7.575 58.875 0.225
7.575 58.875 0.525
6.375 58.275 0.525
4.275 58.275 0.675
5.175 65.625 1.725
7.125 58.575 -0.075
5.025 58.125 0.225
5.025 65.625 1.575
7.425 58.725 0.075
7.425 58.725 -0.075
6.525 65.475 0.975
4.725 58.125 0.675
6.075 58.125 4.125
6.075 58.125 2.025
7.875 59.025 0.825
6.975 58.425 0.375
6.975 58.425 1.275
6.975 58.425 0.675
7.275 58.575 1.875
7.275 58.575 0.075
7.275 58.575 -0.075
7.725 58.875 0.525
2.925 64.875 -0.225
2.325 64.275 0.225
6.675 58.275 -0.075
4.425 58.125 0.525
7.575 58.725 -0.075
2.175 64.125 -0.075
3.075 65.025 -0.225
7.125 58.425 -0.075
7.125 58.425 0.225
4.275 58.125 0.825
4.275 58.125 3.075
4.275 65.625 -5.325
6.375 65.625 0.675
3.825 58.275 1.125
3.825 58.275 1.425
7.425 58.575 0.975
7.425 58.575 -0.075
7.425 58.575 0.075
2.625 64.725 1.575
5.775 57.975 -0.075
5.775 65.775 1.575
2.325 64.425 0.075
2.325 64.425 -1.125
2.775 64.875 1.725
2.775 64.875 -0.825
6.975 58.275 0.825
7.275 58.425 -0.225
6.075 65.775 0.675
6.675 58.125 0.675
7.125 58.275 0.075
3.825 58.125 1.275
6.825 58.125 1.575
6.825 65.625 2.775
7.425 58.425 -0.375
7.425 58.425 -0.075
7.425 58.425 -0.225
7.425 58.425 0.225
2.175 64.425 0.075
2.775 65.025 -2.475
5.625 57.825 -0.375
5.025 57.825 0.525
5.625 57.825 -0.075
5.775 57.825 -0.075
6.525 57.975 0.825
5.925 57.825 -0.225
4.725 57.825 1.575
7.275 58.275 -0.075
7.275 58.275 0.075
6.975 58.125 0.975
6.975 58.125 0.225
6.975 65.625 -5.025
6.975 58.125 -0.375
4.575 65.925 1.425
7.575 58.425 0.525
2.625 58.725 -2.025
2.625 65.025 -1.125
2.025 64.425 0.675
2.025 64.425 -0.225
6.825 57.975 0.675
2.925 65.325 0.225
2.925 65.325 0.375
5.175 57.675 1.275
5.175 57.675 0.825
5.025 57.675 0.525
4.875 57.675 0.525
5.775 57.675 0.225
5.775 57.675 0.375
6.975 57.975 -0.075
5.925 57.675 -0.225
4.725 66.075 1.425
5.925 66.075 0.675
7.575 58.275 0.075
2.475 65.025 -1.425
2.025 64.575 0.075
1.125 62.625 -0.075
6.075 57.675 0.825
6.075 57.675 -0.225
1.875 64.425 -0.075
7.125 57.975 0.075
7.125 57.975 0.975
7.125 57.975 1.275
7.125 57.975 0.225
7.425 58.125 -0.225
3.225 65.625 -0.375
6.825 57.825 0.675
6.825 57.825 0.975
6.375 57.675 0.375
5.325 57.525 -0.525
5.625 66.225 -4.275
7.275 57.975 0.225
3.375 57.975 4.425
6.525 57.675 0.675
6.525 57.675 0.225
6.975 57.825 0.375
3.075 65.625 -0.375
2.625 65.325 0.075
2.625 65.325 0.225
2.775 65.475 -0.375
7.125 57.825 1.425
2.925 65.625 -0.375
6.825 57.675 0.675
6.825 57.675 0.825
4.275 66.225 1.425
7.275 57.825 1.575
3.375 65.925 -5.625
7.275 57.825 0.075
2.625 65.475 -0.375
5.325 57.375 1.275
1.725 64.575 0.375
7.575 57.975 -0.075
5.475 57.375 -1.575
4.125 66.225 1.425
6.525 57.525 0.825
6.975 57.675 1.275
6.975 57.675 0.975
6.975 57.675 1.125
4.875 57.375 1.275
4.875 57.375 1.125
5.775 57.375 1.275
1.575 64.425 0.975
0.975 63.225 -1.425
6.675 57.525 0.825
6.675 57.525 -0.075
7.125 57.675 0.375
1.425 64.275 0.525
4.425 66.375 -0.675
2.475 65.475 -0.375
2.475 65.475 -0.675
1.725 64.725 -0.525
8.175 58.275 -4.575
6.825 57.525 0.825
6.825 57.525 -0.075
4.275 66.375 0.075
1.575 64.575 -0.975
7.275 57.675 0.075
6.975 57.525 0.675
6.525 57.375 -0.375
1.425 64.425 0.225
5.025 57.225 1.275
1.875 65.025 -1.575
7.125 57.525 0.675
7.125 57.525 0.825
7.125 57.525 0.375
1.275 64.275 0.075
2.475 65.625 -0.225
0.675 60.975 0.675
6.825 57.375 0.675
1.425 64.575 0.075
7.275 57.525 0.525
1.875 65.175 -1.875
2.175 65.475 -0.225
2.175 65.475 -1.575
5.175 57.075 0.075
5.175 57.075 0.525
4.125 57.225 -0.075
1.575 64.875 -0.675
7.425 57.525 -0.525
2.475 65.775 -0.975
4.725 57.075 1.125
4.725 57.075 1.425
5.925 57.075 -1.725
2.925 66.075 5.025
3.975 66.525 -0.975
7.125 57.375 0.525
6.225 57.075 -1.425
4.425 66.675 0.075
4.425 66.675 -0.675
6.825 57.225 1.275
2.175 65.625 -0.375
1.575 65.025 0.075
6.375 57.075 -0.225
6.375 57.075 -0.825
4.275 66.675 0.075
4.275 66.675 -0.675
1.425 64.875 -0.525
6.975 57.225 1.125
4.125 66.675 2.175
4.125 66.675 0.075
4.125 66.675 -0.375
4.125 66.675 0.525
4.125 57.075 -0.225
5.325 56.925 -1.725
1.275 64.725 -0.075
9.375 59.025 -0.225
5.175 56.925 1.275
5.625 56.925 -1.575
4.875 56.925 0.825
6.675 57.075 1.125
3.975 66.675 -0.975
3.975 66.675 0.225
3.975 57.075 -0.225
4.725 56.925 0.225
2.025 65.625 -0.075
4.575 66.825 0.075
4.575 66.825 -0.075
1.425 65.025 -0.075
3.825 66.675 -0.975
4.425 66.825 0.375
4.275 66.825 -0.975
1.125 64.725 -0.675
6.975 57.075 1.125
3.675 66.675 -0.375
3.675 66.675 -0.825
2.475 66.075 -0.825
4.125 66.825 -0.675
0.825 64.275 0.825
7.425 57.225 0.225
5.175 56.775 0.825
5.025 56.775 0.525
5.025 56.775 1.125
2.625 66.225 -1.275
5.775 56.775 0.075
4.875 56.775 1.275
3.525 66.675 -1.125
3.525 66.675 -0.375
2.175 65.925 0.075
2.175 65.925 -1.425
3.975 56.925 0.825
3.975 66.825 -0.825
3.975 66.825 -0.375
4.575 66.975 -0.375
4.575 66.975 0.525
1.125 64.875 -0.525
1.125 64.875 0.825
2.325 66.075 -0.675
7.575 57.225 0.225
7.575 57.225 0.375
3.825 66.825 -0.825
3.825 66.825 -0.375
3.825 66.825 -0.075
6.825 56.925 1.125
4.425 66.975 -0.375
4.425 66.975 -0.075
7.275 57.075 0.975
1.575 58.275 1.725
2.475 66.225 -1.275
0.975 64.725 0.675
4.275 66.975 -0.525
4.275 66.975 -0.075
4.275 66.975 -0.975
4.275 56.775 1.725
4.275 56.775 0.375
1.875 65.775 -1.425
3.675 66.825 -0.225
3.675 66.825 0.225
2.025 65.925 2.625
0.675 59.475 -2.475
0.675 64.275 0.675
4.125 66.975 -0.525
4.125 66.975 -0.075
4.125 56.775 0.375
8.025 57.375 0.375
0.825 64.575 0.675
5.325 56.625 0.225
5.325 56.625 0.675
1.125 65.025 -0.675
1.125 65.025 -0.825
5.625 56.625 1.275
5.625 56.625 -0.075
5.025 56.625 1.425
7.125 56.925 0.825
3.525 66.825 -0.375
3.525 66.825 -0.075
5.775 56.625 -0.375
5.775 56.625 -0.075
5.775 56.625 0.375
5.775 56.625 -0.675
3.975 66.975 -0.075
3.975 66.975 -0.525
5.925 56.625 -0.825
5.925 56.625 -0.075
3.075 66.675 -0.375
0.675 64.425 0.825
4.575 56.625 0.975
4.575 56.625 1.575
3.825 66.975 -0.975
3.825 66.975 -0.225
3.825 66.975 -0.525
1.875 65.925 0.225
1.875 65.925 0.075
1.875 65.925 -1.425
3.375 66.825 -0.375
3.375 66.825 -0.525
3.375 66.825 -0.825
3.375 66.825 -0.075
0.825 64.725 -0.525
4.425 56.625 0.225
4.425 67.125 0.075
2.025 66.075 -1.575
2.025 66.075 -0.375
2.025 66.075 2.475
4.275 56.625 1.725
4.275 56.625 -0.675
3.675 66.975 -0.525
3.675 66.975 -0.375
3.675 66.975 -1.125
3.675 56.775 0.975
7.725 57.075 0.675
7.725 57.075 0.375
2.175 66.225 -0.375
0.975 65.025 -0.825
3.225 66.825 -0.825
3.225 66.825 -0.375
7.425 56.925 1.125
7.425 56.925 -0.075
2.625 66.525 0.825
4.125 56.625 0.675
5.475 56.475 0.975
5.625 56.475 -1.575
0.825 64.875 1.125
5.025 67.275 1.875
1.725 65.925 -0.675
5.775 56.475 0.525
3.975 67.125 -0.675
0.525 64.425 0.675
1.125 65.325 -1.575
1.875 66.075 -0.375
3.075 66.825 0.075
3.075 66.825 -0.675
6.075 56.475 -0.075
4.575 56.475 0.825
4.575 56.475 1.275
2.475 66.525 -2.775
3.375 66.975 -0.525
2.025 66.225 -0.375
0.225 59.925 -2.325
4.425 56.475 0.975
0.825 65.025 -0.525
7.725 66.825 -0.375
7.725 56.925 0.075
7.725 56.925 0.375
2.925 66.825 0.075
2.925 66.825 -1.425
3.675 56.625 -0.675
0.525 64.575 0.825
0.525 64.575 1.125
7.425 56.775 0.525
7.425 56.775 0.825
1.425 65.775 -1.275
1.575 65.925 -0.375
1.275 65.625 -0.375
1.125 65.475 -0.225
4.125 56.475 0.675
6.525 56.475 3.075
1.725 66.075 -0.375
0.675 64.875 -0.675
5.325 56.325 1.575
3.525 67.125 -0.675
3.525 67.125 -0.825
5.175 56.325 0.075
5.175 67.425 1.875
0.975 65.325 0.225
2.775 66.825 -1.425
2.775 66.825 0.975
2.775 66.825 0.075
7.875 66.825 0.375
3.075 66.975 0.675
7.575 56.775 0.375
0.825 65.175 -0.675
4.725 56.325 0.525
2.475 57.075 2.025
4.575 56.325 0.525
4.575 56.325 1.275
4.575 56.325 0.975
4.575 56.325 0.675
3.825 56.475 0.525
6.825 56.475 1.425
0.675 65.025 -0.675
0.675 65.025 -0.225
0.675 65.025 1.275
2.175 66.525 -1.425
2.175 66.525 -0.975
1.575 66.075 -0.225
2.925 66.975 -0.525
2.925 66.975 -1.125
2.925 66.975 -0.075
7.725 56.775 0.225
0.225 64.275 0.675
2.625 66.825 -0.375
2.625 66.825 0.225
2.625 66.825 0.075
8.025 56.925 0.075
6.975 56.475 1.275
4.275 56.325 0.675
3.225 67.125 -0.075
3.225 67.125 -0.525
3.225 67.125 0.825
4.125 56.325 0.825
3.525 67.275 0.225
2.775 66.975 0.075
2.775 66.975 -0.375
0.225 64.425 0.375
7.875 56.775 0.375
5.475 56.175 0.975
5.625 56.175 0.825
5.025 56.175 1.575
3.075 67.125 -0.525
7.575 56.625 -0.225
2.475 66.825 -0.075
2.475 66.825 0.075
2.475 66.825 0.225
4.875 56.175 0.525
4.875 67.575 0.825
4.725 56.175 0.825
4.725 56.175 0.225
4.725 56.175 0.675
4.725 56.175 1.425
0.525 65.025 -0.225
3.375 67.275 -0.375
4.575 56.175 0.675
4.575 56.175 0.375
2.625 66.975 0.525
2.625 66.975 0.225
2.625 66.975 -0.075
0.225 64.575 0.225
0.225 64.575 -0.375
4.425 56.175 0.825
4.425 56.175 0.675
4.425 67.575 0.075
7.725 56.625 -0.075
2.925 67.125 0.825
2.925 67.125 -0.525
0.375 64.875 -0.225
0.675 65.325 -0.525
7.425 56.475 -0.075
7.425 56.475 0.675
3.225 67.275 -0.675
3.225 67.275 -0.525
3.525 67.425 -0.375
3.525 67.425 0.075
7.875 67.125 0.825
7.875 56.625 0.075
2.475 66.975 0.975
0.225 64.725 -0.375
5.325 56.025 -1.575
3.075 67.275 -0.825
5.475 56.025 0.825
4.875 56.025 1.425
5.775 56.025 -0.075
2.175 66.825 -0.075
0.375 65.025 -0.675
0.375 65.025 -0.075
5.925 56.025 0.075
4.725 56.025 0.675
3.375 67.425 -0.075
4.575 56.025 0.525
2.625 67.125 1.125
2.625 67.125 -0.375
2.625 67.125 0.825
0.075 64.575 0.075
7.725 56.475 0.375
-0.075 64.275 0.825
2.925 67.275 0.525
2.925 67.275 -0.525
7.725 67.275 0.075
2.325 66.975 -0.375
0.225 64.875 -0.525
4.425 56.025 0.825
4.425 56.025 0.675
3.225 67.425 -0.075
4.275 67.725 0.075
0.375 65.175 0.375
1.425 66.375 0.225
4.125 56.025 0.225
2.775 67.275 0.075
2.775 67.275 0.525
2.775 67.275 -0.975
0.075 64.725 0.075
2.475 67.125 0.525
2.475 67.125 1.125
7.125 67.575 1.425
3.075 67.425 -0.225
7.575 56.325 0.675
7.575 56.325 -0.075
2.175 66.975 -0.075
0.225 65.025 -0.075
0.225 65.025 0.075
5.175 55.875 1.275
5.475 55.875 1.125
4.875 55.875 1.575
4.875 55.875 0.675
7.275 67.575 0.225
5.925 55.875 -0.075
5.925 55.875 -0.375
4.725 55.875 -0.075
2.625 67.275 0.375
2.625 67.275 -0.375
2.625 67.275 0.075
6.825 67.725 0.975
1.125 66.225 0.075
1.125 66.225 -0.675
7.725 56.325 0.075
7.725 67.425 1.125
0.075 58.875 -0.975
6.075 55.875 -0.075
6.075 55.875 0.375
6.075 55.875 0.525
4.575 55.875 0.525
2.325 67.125 0.675
2.325 67.125 -0.375
1.275 66.375 0.225
6.225 55.875 -0.075
4.425 55.875 0.375
1.425 66.525 -0.375
0.225 65.175 -0.825
7.425 56.175 1.875
7.425 67.575 0.225
6.975 67.725 0.825
4.275 67.875 0.375
4.275 55.875 0.375
6.375 55.875 0.525
0.525 65.625 -0.975
2.475 67.275 -0.375
2.475 67.275 -1.875
2.475 67.275 0.375
7.125 67.725 0.375
1.725 66.825 -1.275
2.175 67.125 -0.375
2.175 67.125 0.825
0.075 65.025 0.075
5.325 55.725 0.525
5.325 55.725 0.825
0.975 66.225 -0.375
5.175 55.725 1.275
5.175 55.725 0.975
5.475 55.725 0.825
1.125 66.375 -0.375
1.875 66.975 0.225
5.025 55.725 0.675
7.275 67.725 -0.525
4.875 55.725 0.675
4.875 55.725 0.525
4.875 55.725 2.325
4.875 55.725 -1.125
1.275 66.525 -0.375
2.625 67.425 -0.375
8.025 67.425 0.675
-0.225 64.575 0.375
8.325 67.275 -0.225
2.325 67.275 -1.725
5.925 55.725 -1.125
9.225 57.075 2.925
1.425 66.675 -0.375
7.725 56.175 0.375
0.075 65.175 -0.975
2.025 67.125 1.125
2.025 67.125 1.275
2.025 67.125 -0.375
2.025 67.125 0.975
2.025 67.125 -0.675
10.275 58.125 0.375
7.425 67.725 1.575
7.425 67.725 1.125
6.225 55.725 0.525
4.425 55.725 0.525
7.425 56.025 -0.075
3.675 67.875 -0.675
2.475 67.425 -0.975
4.275 55.725 0.525
6.375 55.725 -0.075
4.275 68.025 0.975
1.725 66.975 0.225
1.725 66.975 -0.375
7.875 56.175 0.375
7.875 56.175 -0.225
7.875 56.175 0.225
2.775 67.575 -0.375
2.775 67.575 -1.275
-0.075 65.025 -0.975
8.475 67.275 0.375
2.175 67.275 -0.525
0.825 66.225 -0.225
0.975 66.375 -0.225
0.675 66.075 -0.825
0.675 66.075 -0.525
0.675 66.075 -0.675
4.125 68.025 0.675
3.075 67.725 0.075
7.575 56.025 0.225
9.375 57.075 1.125
1.875 67.125 -0.375
1.875 67.125 0.375
1.875 67.125 -0.825
1.875 67.125 -0.525
8.775 67.125 -1.125
0.075 65.325 -0.975
5.475 55.575 0.675
5.175 55.575 0.825
5.175 55.575 0.975
9.225 56.925 0.975
1.425 66.825 0.525
5.025 68.175 -4.425
5.025 55.575 0.825
5.625 55.575 1.275
8.025 56.175 0.375
8.025 56.175 1.125
4.875 55.575 0.225
4.875 55.575 0.675
4.875 55.575 0.075
2.925 67.725 -0.825
7.725 56.025 -0.825
4.725 68.175 1.125
4.725 55.575 0.825
4.725 55.575 0.375
5.925 55.575 2.025
5.925 55.575 1.875
-0.075 65.175 -1.125
2.025 67.275 1.725
2.025 67.275 -0.675
3.825 68.025 -3.075
4.575 68.175 1.425
4.425 68.175 0.675
4.425 55.575 0.075
4.425 55.575 0.225
10.575 58.275 0.525
1.725 67.125 -1.575
1.725 67.125 0.075
1.725 67.125 -1.425
1.725 67.125 -0.525
-0.375 64.725 0.225
2.475 67.575 -5.325
-0.225 65.025 0.225
4.275 68.175 1.275
4.275 68.175 1.425
4.275 68.175 0.525
4.275 68.175 1.575
6.375 55.575 0.375
1.275 66.825 0.525
-0.075 65.325 -0.975
1.875 67.275 -0.375
1.875 67.275 -0.675
1.875 67.275 1.575
7.125 68.025 1.575
4.125 68.175 1.575
1.425 66.975 0.075
8.325 67.575 -0.075
3.975 68.175 1.575
3.975 55.575 -2.175
6.675 68.175 1.575
6.675 68.175 0.975
8.025 56.025 0.375
8.025 56.025 0.225
8.025 56.025 0.975
5.325 68.325 1.425
5.325 55.425 0.525
5.325 55.425 1.725
9.075 67.125 0.675
1.575 67.125 0.375
1.575 67.125 0.525
5.175 68.325 1.275
5.475 55.425 1.125
2.025 67.425 -0.825
2.025 67.425 -1.725
10.875 58.575 0.525
-0.225 65.175 0.375
-0.225 65.175 -0.375
5.025 55.425 -0.225
5.025 55.425 0.225
5.025 55.425 0.525
7.725 55.875 0.825
7.725 55.875 0.225
4.875 55.425 1.875
5.925 55.425 -0.525
4.725 55.425 -2.475
1.725 67.275 -0.225
6.075 68.325 0.825
6.075 55.425 2.025
7.425 68.025 1.275
7.425 68.025 1.725
-0.525 64.725 0.675
8.175 56.025 0.525
1.275 66.975 0.225
3.675 68.175 1.725
8.475 67.575 0.675
4.425 55.425 -0.825
7.875 55.875 -0.375
1.875 67.425 -0.675
1.425 67.125 -0.075
1.425 67.125 0.225
7.575 55.725 -0.075
7.575 55.725 -0.525
-0.075 65.625 -0.975
-0.525 64.875 0.675
8.025 55.875 -0.075
0.525 66.375 0.225
0.525 66.375 0.075
0.525 66.375 -0.975
-0.675 64.575 0.675
5.325 68.475 0.825
5.325 55.275 0.675
7.725 55.725 0.375
5.175 55.275 0.975
5.025 68.475 1.875
1.125 66.975 0.225
1.125 66.975 -0.075
1.125 66.975 0.075
5.025 55.275 0.225
5.025 55.275 0.975
5.025 55.275 0.825
4.875 68.475 1.725
4.875 55.275 0.525
4.875 55.275 0.675
5.775 55.275 -0.675
6.825 68.325 1.575
3.825 68.325 1.875
4.725 68.475 1.125
4.725 55.275 0.825
1.275 67.125 -0.225
1.275 67.125 -0.075
3.225 68.175 -0.525
4.575 68.475 1.575
-0.675 64.725 0.375
2.475 67.875 -3.525
2.475 67.875 0.225
8.175 55.875 0.525
-0.525 65.025 0.525
7.875 55.725 -0.375
4.425 68.475 1.575
6.225 55.275 0.075
0.675 66.675 -0.375
4.275 55.275 1.125
0.525 66.525 -0.375
0.525 66.525 0.825
0.375 66.375 -0.675
0.375 66.375 -0.375
0.825 66.825 -0.375
7.125 55.425 0.225
1.575 67.425 -0.075
-0.225 65.625 -1.725
10.875 58.125 -0.825
0.975 66.975 -0.075
0.975 66.975 -0.375
4.125 68.475 1.575
8.325 55.875 3.225
-0.675 64.875 0.225
1.125 67.125 -0.075
6.675 55.275 0.225
7.725 55.575 -0.225
-0.075 65.925 -1.575
5.325 68.625 1.425
1.275 67.275 -0.075
5.175 55.125 0.675
5.175 55.125 1.125
5.025 55.125 0.675
5.025 55.125 0.825
4.875 55.125 0.675
4.875 68.625 1.575
2.175 67.875 0.375
4.725 55.125 0.675
4.725 55.125 0.525
4.725 68.625 1.425
-0.675 65.025 -0.225
-0.675 65.025 0.825
-0.675 65.025 -0.075
9.225 67.425 -0.375
1.425 67.425 0.225
-0.225 65.775 -1.575
0.525 66.675 -0.525
1.875 67.725 1.575
1.875 67.725 1.725
4.575 55.125 0.825
4.575 55.125 -1.575
6.075 55.125 -0.225
6.075 55.125 0.075
6.075 55.125 -1.725
-0.525 65.325 -0.675
0.675 66.825 -0.375
0.375 66.525 -0.375
2.775 68.175 0.975
0.225 66.375 -0.225
4.425 55.125 0.525
6.225 55.125 -0.075
6.225 55.125 0.375
6.225 55.125 0.525
0.975 67.125 -0.075
0.975 67.125 -0.375
1.575 67.575 -0.375
6.375 68.625 3.525
4.275 68.625 -1.125
1.125 67.275 -0.075
-0.825 64.875 0.225
-0.675 65.175 -0.225
2.025 67.875 0.375
8.025 55.575 -0.825
-0.525 65.475 -1.425
3.375 68.475 -5.025
7.725 55.425 0.075
7.725 55.425 -0.675
2.925 68.325 1.125
0.525 66.825 -1.125
5.325 54.975 0.825
0.675 66.975 -0.375
5.475 54.975 1.425
0.225 66.525 -1.275
0.225 66.525 -0.225
0.225 66.525 0.375
5.475 68.775 0.825
5.625 54.975 0.975
5.625 54.975 1.875
5.025 54.975 0.675
1.425 67.575 -1.125
-0.375 65.775 -1.425
-0.375 65.775 -0.225
-0.825 65.025 0.825
4.875 54.975 0.525
0.825 67.125 0.075
0.075 66.375 -1.425
1.875 67.875 0.675
-0.675 65.325 -0.075
4.725 68.775 1.275
7.875 68.325 0.825
7.875 55.425 0.075
4.575 68.775 1.125
4.575 68.775 0.825
1.575 67.725 -0.375
1.575 67.725 -0.225
1.575 67.725 -0.075
1.575 67.725 0.375
4.425 68.775 0.675
1.125 67.425 0.375
-0.225 66.075 -1.125
-0.975 64.875 -0.225
6.375 54.975 -0.075
-0.825 65.175 -0.225
8.025 55.425 0.225
2.625 68.325 -0.525
1.275 67.575 0.225
1.275 67.575 0.075
-0.675 65.475 -1.425
6.525 54.975 -0.075
6.525 54.975 -0.975
4.125 68.775 -4.875
0.675 67.125 0.075
0.075 66.525 -1.125
0.075 66.525 -1.425
0.075 66.525 0.375
3.375 68.625 1.575
3.375 68.625 0.525
0.825 67.275 -0.375
1.425 67.725 -0.375
1.425 67.725 0.225
1.425 67.725 -0.075
6.675 54.975 -0.825
6.675 54.975 -1.125
8.475 68.175 1.125
-0.975 65.025 -0.225
-0.975 65.025 0.825
5.325 54.825 0.225
-0.225 66.225 -0.975
-1.125 64.725 -0.225
-1.125 64.725 0.375
0.975 67.425 -0.075
0.975 67.425 -0.525
-0.825 65.325 -0.375
-0.825 65.325 0.225
1.875 68.025 0.975
5.025 54.825 0.075
5.775 54.825 -1.125
5.775 54.825 0.225
4.875 54.825 0.075
4.875 54.825 0.525
3.225 68.625 1.125
2.775 68.475 1.275
2.775 68.475 -0.825
5.925 54.825 -0.075
5.925 54.825 1.725
4.725 54.825 0.525
1.125 67.575 0.225
1.125 67.575 -0.075
1.125 67.575 0.375
4.575 54.825 0.525
-0.975 65.175 -0.225
-0.975 65.175 -0.075
0.075 66.675 0.525
0.075 66.675 -1.125
1.275 67.725 0.225
1.275 67.725 0.525
1.275 67.725 0.075
-0.075 66.525 0.225
-0.075 66.525 -1.275
0.675 67.275 -1.425
0.675 67.275 -0.225
0.675 67.275 0.075
-1.275 64.575 -0.075
0.825 67.425 0.075
0.825 67.425 -0.225
-0.225 66.375 0.075
4.125 68.925 -0.825
4.125 68.925 0.375
1.425 67.875 -0.225
0.975 67.575 -0.525
0.975 67.575 0.075
0.975 67.575 0.225
0.975 67.575 -0.075
3.375 68.775 0.825
3.975 68.925 1.575
8.475 55.425 1.725
-1.125 65.025 0.375
-0.975 65.325 -0.075
-0.975 65.325 -0.225
8.175 55.275 1.125
5.325 54.675 0.075
1.125 67.725 0.225
1.125 67.725 -0.075
1.125 67.725 0.525
5.475 54.675 -0.525
5.475 54.675 1.275
-0.825 65.625 -0.525
-0.825 65.625 -1.425
3.825 68.925 1.725
0.225 66.975 -0.525
4.875 54.675 0.375
4.875 54.675 0.075
0.375 67.125 -0.075
0.375 67.125 -0.525
7.875 55.125 0.525
0.075 66.825 -0.375
0.075 66.825 -1.275
-0.075 66.675 -0.375
-0.075 66.675 -0.225
5.925 54.675 1.425
0.525 67.275 0.225
1.275 67.875 -0.075
6.075 54.675 0.975
4.575 54.675 -0.375
0.675 67.425 -0.225
0.675 67.425 -0.075
-0.225 66.525 -0.375
2.325 68.475 1.125
-1.275 64.875 -0.075
4.425 69.075 1.425
3.075 68.775 1.575
-0.375 66.375 -0.375
-0.375 66.375 -0.675
0.825 67.575 0.075
0.825 67.575 -0.225
0.825 67.575 0.375
0.825 67.575 -0.675
0.825 67.575 -1.125
8.025 55.125 0.675
8.025 55.125 0.525
8.025 55.125 0.375
2.625 68.625 -0.225
4.275 69.075 1.125
-0.825 65.775 -0.975
-0.825 65.775 1.125
0.975 67.725 -0.375
0.975 67.725 0.525
0.975 67.725 -0.525
6.525 54.675 -0.975
2.175 68.475 1.125
2.175 68.475 -4.875
8.475 55.275 1.875
-1.275 65.025 0.675
7.275 54.825 -0.825
-1.125 65.325 0.525
-1.125 65.325 -0.075
0.075 66.975 -0.525
0.225 67.125 -0.375
1.125 67.875 0.375
1.125 67.875 -0.075
3.975 69.075 0.525
8.175 55.125 0.225
8.175 55.125 0.825
8.175 55.125 0.675
1.575 68.175 -0.075
-0.975 65.625 1.275
-0.975 65.625 1.125
-0.225 66.675 -1.425
5.175 54.525 1.425
5.175 54.525 0.525
3.825 69.075 0.525
3.825 69.075 1.275
5.025 54.525 1.275
5.625 54.525 1.125
-0.375 66.525 -0.225
2.775 68.775 -0.825
5.775 54.525 1.125
1.275 68.025 -0.525
1.275 68.025 -0.375
1.275 68.025 -0.225
5.925 54.525 0.975
4.725 54.525 1.125
4.725 54.525 2.775
2.025 68.475 -4.275
0.825 67.725 -0.675
0.825 67.725 0.525
0.825 67.725 0.225
-1.125 65.475 -0.375
-1.125 65.475 0.525
8.325 55.125 0.225
8.325 55.125 0.525
2.325 68.625 1.275
9.225 55.575 0.525
1.425 68.175 -0.525
-0.975 65.775 -1.275
2.625 68.775 -0.525
0.975 67.875 -0.375
0.975 67.875 -0.075
0.975 67.875 0.075
0.975 67.875 -0.225
0.975 67.875 0.225
4.275 69.225 0.375
6.375 54.525 -1.275
0.375 67.425 -0.075
-1.275 65.325 0.225
-1.275 65.325 0.825
1.125 68.025 -0.225
8.475 55.125 -0.225
-0.375 66.675 -1.575
3.375 69.075 0.675
2.475 68.775 -0.975
2.475 68.775 -0.225
0.675 67.725 -1.575
-0.525 66.525 0.225
2.775 68.925 1.425
2.775 68.925 1.725
0.825 67.875 0.525
0.825 67.875 0.225
0.825 67.875 -0.225
-0.675 66.375 -1.125
3.225 69.075 1.125
5.475 54.375 -1.275
5.175 54.375 1.575
5.175 54.375 0.975
5.025 54.375 0.525
-1.425 65.175 0.225
-1.425 65.175 1.125
5.775 54.375 1.125
4.875 54.375 1.275
2.025 68.625 1.725
1.725 68.475 2.025
5.925 54.375 1.125
5.925 54.375 1.275
2.325 68.775 -0.075
-0.075 67.125 -1.575
0.075 67.275 -0.375
3.675 69.225 0.525
6.975 54.525 0.075
3.675 54.525 0.975
3.075 69.075 1.125
-0.375 66.825 -0.525
0.525 67.725 1.125
-0.525 66.675 0.675
-0.525 66.675 -0.375
1.125 68.175 -0.075
-0.975 66.075 0.525
6.375 54.375 0.075
-1.425 65.325 0.225
-1.425 65.325 0.525
-1.425 65.325 0.675
2.175 68.775 0.075
-1.275 65.625 -0.525
-1.275 65.625 -0.225
2.475 68.925 -0.225
-1.125 65.925 -1.275
3.975 69.375 0.075
-0.825 66.375 -0.975
-0.825 66.375 -0.675
-0.825 66.375 0.075
-0.825 66.375 -0.375
-0.825 66.375 -1.575
2.775 69.075 -0.675
-0.375 66.975 -0.375
8.625 54.975 1.575
-1.575 65.175 -0.075
-1.575 65.175 0.075
-1.575 65.175 0.225
6.825 54.375 1.425
2.025 68.775 -0.225
-1.425 65.475 0.375
-1.425 65.475 0.975
5.475 54.225 0.675
0.975 68.175 -0.075
5.025 54.225 1.425
8.325 54.825 0.225
-0.525 66.825 -0.375
9.225 55.275 0.375
-1.275 65.775 1.725
4.725 54.225 1.275
3.675 54.375 0.825
-0.675 66.675 -0.375
-1.125 66.075 -1.275
-1.125 66.075 0.825
1.125 68.325 1.275
1.125 68.325 -0.675
6.225 54.225 -0.225
6.225 54.225 0.075
-0.825 66.525 -0.375
-0.825 66.525 0.225
-1.575 65.325 -0.225
6.375 54.225 0.525
6.375 54.225 0.075
-1.425 65.625 -0.675
1.575 68.625 1.725
-1.725 65.025 0.525
-1.725 65.025 0.225
-0.975 66.375 -0.225
-1.875 64.725 0.225
6.525 54.225 0.075
-0.225 67.275 -0.375
3.375 69.375 0.825
3.375 69.375 1.575
-0.375 67.125 -4.275
-0.375 67.125 -0.375
3.975 69.525 0.075
3.975 69.525 -0.375
-0.675 66.825 -1.425
