# .PCD v0.7 - Point Cloud Data file format
VERSION 0.7
FIELDS x y z
SIZE 4 4 4
TYPE F F F
COUNT 1 1 1
WIDTH 2048
HEIGHT 1
VIEWPOINT 0 0 0 1 0 0 0
POINTS 2048
DATA ascii
-69.075 83.775 2.325
-69.075 83.475 2.175
-69.075 83.475 0.675
-69.075 83.475 0.075
-68.925 83.775 0.375
-68.925 83.475 2.025
-68.925 83.475 1.875
-68.925 83.475 -0.975
-69.225 83.625 0.375
-69.225 83.625 0.075
-69.225 83.625 1.275
-69.225 83.625 0.675
-69.225 83.475 1.125
-68.775 83.775 2.175
-68.775 83.475 -1.425
-68.775 83.475 0.075
-68.925 83.925 -0.075
-68.925 83.325 -1.125
-68.925 83.325 3.075
-68.925 83.325 0.225
-69.225 83.925 -0.525
-69.225 83.325 -0.975
-69.225 83.325 -1.125
-69.225 83.325 0.825
-69.375 83.775 0.525
-69.375 83.775 -0.375
-69.375 83.475 0.675
-68.775 83.925 -0.075
-68.775 83.325 -0.825
-68.775 83.325 -0.225
-68.625 83.775 0.075
-68.625 83.775 2.475
-69.075 84.075 -0.225
-69.075 83.175 0.375
-69.375 83.325 3.375
-68.925 84.075 3.375
-68.925 84.075 1.575
-68.925 83.175 -0.825
-69.225 84.075 0.975
-69.225 84.075 1.125
-69.225 84.075 0.225
-69.225 83.175 -0.675
-69.525 83.625 0.675
-68.625 83.925 1.425
-68.625 83.925 2.625
-69.525 83.775 3.075
-69.525 83.775 -0.825
-69.525 83.475 3.825
-69.525 83.475 3.975
-69.375 83.175 2.325
-68.475 83.775 2.625
-69.525 83.325 2.475
-69.075 84.225 0.525
-68.925 84.225 0.525
-68.925 84.225 0.675
-68.925 84.225 -1.275
-68.925 84.225 3.075
-68.625 83.175 -0.975
-68.925 83.025 -0.975
-68.925 83.025 0.075
-69.225 84.225 0.525
-68.475 83.925 2.175
-68.475 83.325 0.825
-69.675 83.625 -0.675
-68.775 84.225 2.175
-68.775 83.025 -1.125
-69.675 83.775 3.975
-69.675 83.775 -0.825
-69.525 84.075 3.525
-69.525 83.175 3.075
-69.375 84.225 0.525
-69.375 83.025 1.275
-68.325 83.625 -0.225
-68.325 83.625 2.775
-68.325 83.625 -2.175
-69.675 83.925 3.075
-69.675 83.325 -0.225
-69.675 83.325 1.575
-68.475 84.075 2.625
-68.475 84.075 2.025
-68.475 84.075 -0.525
-68.475 83.175 0.075
-68.475 83.175 0.525
-68.475 83.175 0.825
-68.325 83.775 3.075
-68.325 83.775 -0.525
-68.625 84.225 1.725
-68.625 84.225 2.025
-68.625 84.225 2.175
-68.625 84.225 2.625
-68.625 83.025 -0.675
-68.625 83.025 -0.825
-68.625 83.025 -0.525
-69.075 84.375 0.225
-69.075 82.875 1.425
-68.325 83.925 2.175
-68.325 83.925 -0.525
-68.325 83.925 3.225
-68.325 83.325 -0.225
-69.225 82.875 2.475
-69.525 83.025 2.325
-69.675 84.075 0.675
-69.675 84.075 -0.675
-69.825 83.625 -0.675
-69.825 83.625 3.375
-68.475 84.225 2.025
-68.475 84.225 2.175
-68.475 83.025 2.625
-68.475 83.025 -0.375
-68.475 83.025 -1.125
-69.375 84.375 0.675
-69.375 84.375 -0.225
-68.325 84.075 1.275
-68.325 84.075 1.875
-68.325 84.075 2.175
-68.325 84.075 2.025
-68.325 83.175 2.925
-68.325 83.175 0.825
-68.175 83.625 2.775
-68.175 83.775 2.325
-68.175 83.775 1.725
-68.175 83.775 2.175
-68.175 83.775 3.075
-69.675 84.225 0.675
-69.675 84.225 0.375
-69.675 84.225 1.125
-69.525 84.375 2.475
-68.925 84.525 2.325
-68.175 83.925 1.125
-68.175 83.925 2.025
-68.175 83.925 2.475
-68.175 83.925 -0.525
-68.175 83.325 2.925
-68.925 82.725 0.375
-68.925 82.725 0.675
-68.925 82.725 1.425
-69.825 84.075 -0.525
-69.825 84.075 -0.825
-69.825 83.175 4.275
-69.225 84.525 -0.525
-68.325 83.025 -0.225
-68.325 83.025 1.875
-68.325 83.025 1.275
-68.475 84.375 2.475
-68.475 84.375 2.325
-68.475 82.875 2.925
-68.775 82.725 0.675
-69.975 83.625 2.025
-69.975 83.625 3.525
-69.375 84.525 0.225
-68.175 84.075 1.875
-68.175 84.075 2.925
-68.175 84.075 2.175
-68.175 84.075 2.475
-68.175 83.175 0.825
-68.175 83.175 -0.075
-68.175 83.175 -0.675
-68.625 84.525 2.475
-68.625 84.525 2.025
-68.625 84.525 2.775
-69.675 84.375 3.525
-68.625 82.725 2.475
-68.625 82.725 0.675
-68.625 82.725 1.275
-69.975 83.925 1.275
-69.975 83.325 4.275
-69.825 84.225 -0.525
-69.825 84.225 0.675
-69.825 84.225 1.275
-68.025 83.775 1.725
-68.025 83.775 1.875
-68.025 83.775 1.575
-69.525 84.525 2.775
-68.325 82.875 -0.075
-68.175 83.025 2.025
-68.025 83.925 2.175
-68.025 83.925 2.025
-68.025 83.925 2.325
-69.075 84.675 1.875
-69.075 84.675 -0.675
-68.025 83.325 3.525
-68.925 84.675 4.425
-68.925 84.675 2.475
-68.925 84.675 2.925
-68.475 84.525 3.825
-68.475 84.525 2.025
-68.925 82.575 2.925
-68.925 82.575 3.225
-68.925 82.575 1.875
-68.475 82.725 0.375
-68.475 82.725 0.675
-68.475 82.725 1.125
-69.825 84.375 3.375
-69.825 82.875 3.375
-69.825 82.875 2.175
-70.125 83.625 -3.375
-68.025 84.075 1.725
-68.025 83.175 -0.225
-68.025 83.175 0.825
-70.125 83.775 -0.975
-69.675 84.525 3.075
-70.125 83.475 3.225
-69.675 82.725 2.475
-69.975 84.225 -0.375
-69.975 84.225 0.675
-69.975 84.225 -0.225
-68.625 84.675 1.725
-68.625 84.675 2.775
-68.625 84.675 2.025
-68.625 82.575 -0.975
-70.125 83.925 3.675
-70.125 83.325 2.625
-68.175 82.875 2.175
-68.175 82.875 3.075
-68.175 82.875 2.325
-68.325 84.525 2.325
-68.325 82.725 0.675
-68.325 82.725 0.075
-67.875 83.625 0.525
-67.875 83.775 1.725
-67.875 83.475 -0.825
-67.875 83.475 2.625
-68.025 84.225 2.925
-68.025 84.225 -0.375
-68.025 83.025 -0.525
-70.125 84.075 1.275
-70.125 83.175 2.175
-68.475 84.675 2.325
-68.475 82.575 0.825
-68.475 82.575 2.175
-67.875 83.925 3.525
-67.875 83.925 2.475
-67.875 83.925 1.575
-67.875 83.325 2.025
-69.075 84.825 2.775
-69.825 84.525 0.075
-69.825 84.525 -0.225
-69.825 84.525 2.325
-69.825 84.525 3.375
-68.925 84.825 1.725
-68.925 84.825 2.025
-69.825 82.725 3.075
-69.075 82.425 3.075
-68.925 82.425 3.225
-69.975 82.875 0.375
-69.225 84.825 2.775
-69.225 84.825 -0.975
-68.775 84.825 2.775
-68.775 84.825 2.025
-68.775 82.425 2.325
-69.675 84.675 0.525
-68.175 84.525 -0.075
-67.875 83.175 1.875
-70.275 83.625 2.475
-69.375 84.825 2.925
-70.125 84.225 0.675
-70.125 83.025 2.025
-69.375 82.425 3.375
-70.275 83.475 2.175
-68.625 84.825 2.325
-68.325 82.575 0.525
-68.625 82.425 1.275
-70.275 83.325 2.175
-69.525 84.825 3.075
-69.525 84.825 -0.675
-69.525 84.825 0.075
-69.525 82.425 -4.275
-69.975 84.525 1.875
-67.725 83.625 2.025
-69.975 82.725 6.675
-67.725 83.775 3.375
-67.725 83.775 1.725
-67.725 83.775 1.875
-67.725 83.475 0.225
-67.725 83.475 2.775
-67.725 83.475 0.525
-67.725 83.475 -0.375
-69.825 84.675 0.225
-69.825 84.675 0.525
-69.825 84.675 0.375
-68.475 84.825 2.175
-70.275 84.075 1.275
-68.475 82.425 -0.075
-68.475 82.425 0.675
-70.275 83.175 2.175
-70.125 84.375 -0.675
-70.125 84.375 -0.075
-70.125 82.875 0.525
-70.125 82.875 2.025
-67.725 83.325 0.225
-67.725 83.325 2.625
-69.075 84.975 2.775
-68.025 82.725 -0.225
-68.025 82.725 -0.375
-68.925 84.975 2.475
-68.925 84.975 1.725
-68.925 84.975 1.275
-68.925 84.975 2.025
-68.175 84.675 2.775
-69.075 82.275 2.475
-68.175 82.575 -0.225
-69.225 84.975 3.075
-69.225 82.275 2.025
-68.775 84.975 2.925
-68.775 84.975 2.025
-68.775 84.975 2.475
-67.725 84.075 2.475
-67.725 83.175 1.875
-70.275 83.025 2.625
-70.275 83.025 2.775
-68.325 84.825 2.175
-69.375 84.975 -0.975
-68.325 82.425 0.675
-68.325 82.425 2.625
-69.375 82.275 -0.075
-70.425 83.775 2.175
-70.425 83.475 1.725
-69.975 84.675 0.675
-69.975 84.675 0.975
-69.975 84.675 0.825
-69.975 84.675 -0.525
-69.975 84.675 0.075
-69.975 84.675 2.325
-69.975 84.675 0.525
-69.975 82.575 2.925
-70.125 84.525 -0.075
-70.125 84.525 0.675
-67.725 84.225 2.475
-69.525 84.975 2.325
-69.525 84.975 3.075
-67.725 83.025 1.875
-69.825 84.825 3.225
-69.825 84.825 3.075
-68.025 84.675 1.875
-68.025 82.575 2.325
-68.025 82.575 2.175
-68.475 84.975 2.325
-68.475 84.975 1.575
-68.475 84.975 2.175
-68.475 82.275 1.425
-68.475 82.275 0.675
-68.475 82.275 2.775
-67.575 83.475 2.775
-67.575 83.475 2.025
-67.575 83.475 2.175
-67.575 83.475 2.325
-67.875 82.725 0.375
-70.425 83.175 1.875
-70.425 83.175 2.025
-68.175 82.425 1.275
-68.175 82.425 1.125
-67.575 83.925 3.075
-67.575 83.325 -0.525
-67.575 83.325 1.725
-67.575 83.325 2.475
-67.575 83.325 3.375
-67.575 83.325 3.075
-69.675 84.975 -0.525
-68.925 85.125 2.175
-68.925 85.125 2.625
-69.075 82.125 2.175
-67.725 84.375 2.475
-68.925 82.125 2.475
-69.225 82.125 1.875
-70.125 84.675 0.525
-70.125 84.675 0.225
-70.125 84.675 -0.975
-70.125 84.675 0.675
-70.125 84.675 0.975
-70.125 84.675 0.075
-68.775 85.125 2.175
-70.425 83.025 2.475
-67.575 83.175 2.325
-67.575 83.175 1.875
-68.775 82.125 -0.375
-68.775 82.125 2.325
-68.325 82.275 0.675
-69.375 82.125 2.475
-70.575 83.625 2.025
-70.575 83.625 2.175
-68.625 85.125 2.175
-68.625 85.125 0.825
-68.625 85.125 2.325
-70.575 83.475 1.275
-67.875 82.575 0.675
-67.875 82.575 -0.375
-68.025 84.825 1.725
-69.825 84.975 0.975
-69.825 84.975 -0.375
-68.025 82.425 0.375
-70.575 83.925 2.625
-70.575 83.925 2.475
-67.575 83.025 1.125
-67.575 83.025 1.725
-67.575 83.025 3.525
-69.525 85.125 -3.225
-67.725 84.525 2.625
-67.725 84.525 2.775
-67.725 84.525 2.325
-67.725 84.525 1.725
-70.425 82.875 1.875
-67.725 82.725 3.675
-68.475 85.125 2.475
-68.175 82.275 2.775
-68.175 82.275 -0.375
-68.175 82.275 -0.225
-68.175 82.275 0.675
-68.475 82.125 2.175
-68.475 82.125 -0.825
-70.575 84.075 3.225
-70.575 83.175 1.575
-70.125 84.825 1.725
-70.125 84.825 0.525
-70.125 82.425 2.025
-70.275 84.675 2.325
-70.275 84.675 0.675
-70.275 82.575 1.875
-70.275 82.575 2.325
-69.675 85.125 -0.075
-69.675 85.125 -0.375
-67.425 83.925 2.325
-67.425 83.325 1.875
-67.425 83.325 2.175
-67.425 83.325 2.025
-67.575 84.375 3.225
-67.575 84.375 2.325
-67.575 82.875 3.075
-67.575 82.875 1.875
-67.575 82.875 3.525
-69.975 84.975 -0.225
-69.975 84.975 -0.375
-68.325 85.125 1.875
-68.325 85.125 1.575
-68.325 85.125 1.425
-68.325 85.125 2.025
-70.575 84.225 1.575
-70.575 84.225 1.875
-70.575 84.225 2.775
-70.575 83.025 1.425
-70.575 83.025 1.125
-70.575 83.025 4.575
-67.875 84.825 1.875
-67.425 84.075 2.625
-67.425 84.075 2.325
-68.775 85.275 -0.825
-67.425 83.175 2.325
-67.425 83.175 2.475
-67.425 83.175 2.025
-67.425 83.175 2.175
-67.725 84.675 2.175
-67.725 84.675 1.875
-67.725 82.575 3.675
-67.725 82.575 -0.525
-68.025 84.975 1.725
-68.025 84.975 1.275
-68.025 84.975 2.175
-69.375 85.275 0.975
-68.025 82.275 0.675
-68.025 82.275 -0.225
-69.825 85.125 2.775
-68.625 85.275 2.175
-70.725 83.775 3.525
-67.575 82.725 2.925
-67.575 82.725 3.375
-67.575 82.725 2.025
-67.425 84.225 2.325
-67.425 83.025 1.725
-67.425 83.025 3.225
-67.425 83.025 2.025
-70.725 83.925 3.075
-68.175 85.125 1.125
-68.175 85.125 1.875
-69.525 81.975 2.475
-70.275 84.825 1.125
-68.175 82.125 2.775
-68.175 82.125 3.375
-68.175 82.125 -0.375
-70.125 84.975 -0.375
-70.125 82.275 2.175
-70.425 84.675 0.675
-70.725 83.175 2.325
-70.725 83.175 2.175
-67.275 83.775 -0.075
-67.275 83.475 0.225
-67.275 83.475 2.625
-69.675 85.275 2.775
-69.675 85.275 -0.525
-69.675 85.275 -1.125
-67.425 84.375 2.325
-69.975 85.125 3.075
-69.975 85.125 -0.825
-67.725 84.825 1.875
-67.425 82.875 3.975
-67.425 82.875 2.175
-67.425 82.875 2.925
-67.725 82.425 0.675
-67.725 82.425 -0.075
-67.725 82.425 -0.375
-67.875 84.975 1.275
-67.875 84.975 1.875
-69.975 82.125 2.325
-69.975 82.125 2.025
-67.275 83.925 3.375
-67.275 83.925 3.075
-70.575 84.525 3.525
-67.575 84.675 1.875
-67.575 84.675 1.725
-67.575 82.575 -0.525
-70.725 84.225 1.125
-70.725 84.225 2.325
-70.725 84.225 -0.225
-69.075 85.425 2.625
-69.075 85.425 2.325
-68.025 85.125 1.725
-68.025 85.125 0.675
-68.025 85.125 1.425
-68.025 85.125 1.875
-68.925 81.825 2.775
-68.025 82.125 0.825
-69.225 85.425 2.625
-67.275 84.075 2.625
-67.275 84.075 2.175
-67.275 83.175 -0.525
-67.275 83.175 2.175
-67.275 83.175 -0.375
-67.275 83.175 1.875
-67.275 83.175 2.025
-67.275 83.175 3.075
-68.775 85.425 0.825
-69.375 85.425 2.775
-70.275 84.975 -1.125
-69.375 81.825 1.575
-70.275 82.275 1.725
-70.275 82.275 2.625
-70.275 82.275 2.175
-70.425 84.825 2.475
-67.425 84.525 1.725
-67.425 84.525 2.325
-67.425 82.725 3.225
-68.625 85.425 0.825
-68.625 85.425 0.675
-68.625 81.825 2.775
-70.875 83.475 2.625
-70.725 84.375 3.225
-67.275 84.225 1.725
-67.275 84.225 1.875
-67.275 84.225 2.625
-70.725 82.875 2.175
-70.125 85.125 2.775
-70.125 85.125 -0.825
-67.275 83.025 2.625
-67.275 83.025 -0.525
-67.275 83.025 2.025
-67.275 83.025 1.725
-68.175 85.275 1.425
-68.175 85.275 1.275
-68.175 85.275 1.875
-68.175 85.275 1.575
-70.125 82.125 2.025
-70.125 82.125 1.875
-70.125 82.125 2.325
-70.575 84.675 -0.825
-70.875 83.925 4.275
-67.725 84.975 1.875
-67.725 82.275 0.375
-67.725 82.275 -0.525
-68.475 85.425 1.875
-68.475 85.425 1.275
-68.475 85.425 2.175
-68.475 85.425 0.675
-68.475 85.425 1.725
-68.475 85.425 2.025
-67.575 84.825 1.725
-67.575 84.825 1.875
-67.575 84.825 2.025
-68.475 81.825 2.925
-67.575 82.425 0.375
-67.875 85.125 -0.075
-67.875 82.125 0.825
-70.875 84.075 2.775
-69.975 85.275 -0.525
-69.975 85.275 0.225
-70.875 83.175 1.725
-69.975 81.975 5.175
-69.975 81.975 2.175
-67.275 84.375 2.025
-67.275 84.375 2.175
-67.275 84.375 2.475
-67.275 84.375 1.275
-67.275 82.875 2.175
-67.275 82.875 3.375
-67.125 83.775 2.175
-67.125 83.775 1.725
-67.125 83.775 2.475
-67.425 84.675 1.575
-67.425 84.675 2.175
-67.425 82.575 2.475
-67.125 83.925 1.875
-67.125 83.925 2.325
-67.125 83.925 0.675
-67.125 83.925 2.475
-68.025 85.275 1.575
-68.025 85.275 1.875
-68.025 85.275 1.425
-68.025 85.275 1.125
-68.325 85.425 1.575
-68.025 81.975 0.825
-70.425 84.975 -1.125
-70.425 82.275 1.875
-70.275 85.125 -0.675
-70.275 85.125 -0.525
-70.275 82.125 1.725
-70.275 82.125 1.425
-70.275 82.125 2.325
-70.575 84.825 -1.125
-70.575 84.825 0.675
-68.925 81.675 0.975
-67.125 84.075 2.025
-67.125 84.075 0.825
-67.125 84.075 1.425
-69.225 85.575 2.175
-69.225 85.575 2.025
-70.575 82.425 2.925
-68.775 81.675 0.825
-67.275 84.525 1.575
-67.275 82.725 -0.825
-70.125 85.275 2.475
-70.125 85.275 -0.225
-70.125 85.275 -0.975
-70.125 81.975 2.175
-70.125 81.975 1.875
-69.375 81.675 2.925
-67.575 84.975 1.575
-67.725 85.125 2.025
-67.725 85.125 1.575
-67.575 82.275 -0.075
-67.575 82.275 -0.375
-68.625 85.575 2.175
-68.175 85.425 1.725
-68.175 85.425 1.575
-70.875 84.375 0.825
-68.175 81.825 -0.525
-68.175 81.825 -0.825
-71.025 83.625 1.125
-67.125 84.225 1.875
-67.125 83.025 2.025
-67.125 83.025 1.875
-67.425 82.425 2.475
-67.425 82.425 -0.375
-67.425 82.425 0.375
-69.525 85.575 0.225
-69.525 85.575 2.475
-67.875 85.275 2.025
-69.525 81.675 1.725
-69.525 81.675 1.275
-67.875 81.975 0.825
-67.875 81.975 1.275
-67.875 81.975 1.425
-67.875 81.975 0.525
-71.025 83.925 3.675
-68.475 85.575 0.825
-69.975 85.425 0.375
-69.975 81.825 1.425
-69.975 81.825 1.575
-69.975 81.825 2.025
-67.275 84.675 -1.575
-67.275 84.675 2.475
-71.025 83.175 1.425
-71.025 83.175 1.725
-67.125 84.375 1.725
-67.125 84.375 1.875
-67.125 84.375 1.575
-67.275 82.575 -0.825
-70.425 85.125 3.075
-70.425 85.125 0.225
-70.425 85.125 0.525
-67.125 82.875 2.025
-67.125 82.875 2.175
-67.125 82.875 1.725
-70.575 84.975 0.675
-70.425 82.125 0.825
-70.425 82.125 2.325
-70.425 82.125 2.175
-70.425 82.125 0.675
-69.675 85.575 2.175
-69.675 85.575 -0.975
-70.875 84.525 -1.125
-70.575 82.275 1.425
-66.975 83.625 1.875
-69.675 81.675 1.875
-69.675 81.675 1.725
-69.675 81.675 0.375
-68.025 85.425 0.375
-68.025 85.425 1.125
-66.975 83.775 2.325
-68.025 81.825 0.825
-70.275 85.275 2.775
-70.275 85.275 -1.125
-70.275 81.975 3.375
-70.275 81.975 2.025
-68.325 85.575 0.375
-68.325 85.575 1.575
-68.325 85.575 1.425
-68.325 85.575 1.875
-66.975 83.925 2.025
-66.975 83.925 2.175
-66.975 83.925 1.725
-70.725 82.425 1.725
-71.025 83.025 1.425
-67.425 84.975 1.125
-69.075 85.725 2.475
-69.075 85.725 1.425
-69.075 85.725 1.875
-68.925 85.725 2.475
-68.925 85.725 0.375
-66.975 84.075 1.725
-66.975 84.075 1.875
-70.125 85.425 -0.075
-67.725 81.975 1.275
-67.725 81.975 0.825
-67.125 84.525 1.725
-67.125 84.525 0.825
-69.225 85.725 2.175
-69.225 85.725 2.625
-67.125 82.725 2.025
-67.125 82.725 2.175
-69.825 81.675 1.725
-69.825 81.675 0.825
-69.825 81.675 1.275
-69.225 81.525 1.875
-69.225 81.525 -4.575
-68.775 85.725 1.425
-68.775 85.725 1.575
-68.775 81.525 3.375
-67.275 84.825 1.125
-67.275 84.825 1.275
-67.275 84.825 -2.025
-69.375 85.725 2.175
-69.375 85.725 2.325
-67.275 82.425 -0.375
-71.025 84.375 2.325
-71.025 82.875 1.275
-71.025 82.875 2.175
-68.625 85.725 1.725
-66.975 84.225 1.725
-67.875 81.825 -0.225
-67.875 81.825 2.925
-67.875 81.825 0.825
-68.625 81.525 2.925
-71.175 83.625 -0.075
-71.175 83.625 1.875
-71.175 83.475 1.275
-70.575 85.125 0.975
-70.575 85.125 0.525
-70.575 85.125 1.125
-70.725 84.975 -0.825
-71.175 83.925 2.775
-71.175 83.325 3.525
-68.475 85.725 2.025
-67.125 84.675 1.575
-67.125 82.575 0.375
-66.975 84.375 -0.975
-66.975 84.375 1.725
-70.275 81.825 1.875
-70.275 81.825 1.575
-70.275 81.825 0.975
-70.275 81.825 1.125
-71.175 84.075 3.225
-68.025 85.575 1.125
-71.175 83.175 1.725
-68.025 81.675 -0.375
-70.875 84.825 3.525
-67.575 81.975 0.825
-66.825 83.625 1.875
-66.825 83.625 2.025
-66.825 83.625 2.775
-66.825 83.625 2.175
-66.825 83.925 1.725
-67.725 81.825 0.825
-67.725 81.825 2.925
-67.725 81.825 1.125
-71.175 84.225 2.775
-71.175 84.225 2.625
-71.175 83.025 0.225
-71.175 83.025 1.425
-70.125 85.575 3.075
-66.975 84.525 0.975
-66.975 84.525 2.625
-66.975 82.725 4.275
-66.975 82.725 2.925
-66.975 82.725 2.325
-69.825 81.525 2.925
-69.825 81.525 1.425
-69.825 81.525 2.025
-69.825 81.525 1.875
-69.825 81.525 0.375
-69.825 81.525 1.575
-69.075 85.875 2.025
-66.825 84.075 2.025
-66.825 84.075 -0.825
-68.925 85.875 2.175
-68.925 85.875 1.725
-67.125 84.825 0.975
-67.125 84.825 1.425
-66.825 83.175 3.075
-69.075 81.375 2.625
-69.075 81.375 1.425
-71.025 84.675 1.875
-70.575 85.275 -0.675
-69.225 81.375 1.575
-70.725 85.125 0.525
-70.725 85.125 -1.275
-70.725 85.125 -0.075
-68.775 85.875 0.825
-68.775 85.875 1.875
-70.575 81.975 1.125
-70.725 82.125 1.725
-68.775 81.375 4.275
-68.775 81.375 3.075
-67.875 81.675 -0.075
-71.175 84.375 3.075
-70.425 85.425 -0.375
-69.375 81.375 1.875
-66.825 84.225 1.875
-70.875 82.275 1.875
-71.325 83.775 2.475
-69.975 85.725 0.075
-69.525 85.875 1.725
-69.525 85.875 2.025
-69.525 85.875 2.325
-67.425 81.975 -0.225
-67.425 81.975 0.825
-69.525 81.375 2.175
-66.975 84.675 2.775
-66.975 82.575 2.475
-66.975 82.575 2.175
-70.275 85.575 2.475
-71.325 83.925 2.775
-68.475 85.875 0.825
-68.475 85.875 -0.375
-68.475 85.875 1.725
-71.325 83.325 0.675
-71.325 83.325 2.625
-67.575 81.825 0.375
-67.575 81.825 0.825
-71.175 84.525 0.075
-71.025 84.825 1.875
-71.025 84.825 1.725
-66.825 84.375 2.325
-66.825 82.875 1.875
-66.825 82.875 2.475
-69.675 85.875 2.175
-71.325 83.175 1.275
-67.725 85.575 0.525
-67.725 81.675 -0.675
-67.725 81.675 0.825
-66.675 83.625 2.025
-66.675 83.625 2.175
-66.675 83.775 2.325
-66.675 83.775 1.875
-66.675 83.475 1.725
-66.675 83.475 1.875
-70.725 85.275 2.475
-70.575 85.425 -0.825
-71.325 84.225 1.875
-66.675 83.925 2.025
-66.675 83.325 1.725
-70.875 82.125 2.325
-66.975 82.425 1.725
-66.975 82.425 2.175
-66.825 82.725 2.175
-66.825 82.725 2.625
-66.825 82.725 2.325
-69.825 85.875 -0.225
-69.825 81.375 1.125
-71.175 82.575 0.825
-71.175 82.575 4.275
-70.425 85.575 2.325
-70.425 85.575 2.925
-70.425 85.575 2.475
-66.675 84.075 1.425
-69.075 86.025 1.875
-69.075 86.025 1.725
-69.075 86.025 1.425
-66.675 83.175 2.175
-66.675 83.175 2.025
-67.875 81.525 -0.525
-68.925 86.025 2.025
-68.925 86.025 1.875
-68.925 86.025 1.125
-69.075 81.225 2.325
-69.075 81.225 1.425
-69.225 86.025 3.225
-71.025 84.975 2.175
-71.025 84.975 0.075
-71.025 84.975 2.775
-71.025 82.275 1.275
-71.025 82.275 1.575
-69.225 81.225 1.575
-69.225 81.225 1.725
-67.275 81.975 0.525
-68.775 86.025 2.025
-68.775 86.025 1.875
-67.425 81.825 -0.375
-67.425 81.825 -0.525
-71.325 84.375 2.475
-71.325 82.875 2.325
-71.325 82.875 2.025
-68.775 81.225 3.375
-69.375 86.025 2.025
-69.375 81.225 2.475
-66.675 83.025 1.725
-66.675 83.025 1.125
-66.675 83.025 2.175
-68.625 86.025 1.275
-67.575 81.675 -0.225
-70.275 85.725 1.275
-70.275 85.725 -0.075
-70.275 85.725 0.525
-66.825 84.675 1.425
-66.825 82.575 2.025
-66.825 82.575 2.325
-66.825 82.575 2.175
-71.475 83.625 3.375
-71.475 83.625 2.175
-71.475 83.625 2.775
-71.475 83.775 2.025
-71.475 83.775 2.325
-71.475 83.475 1.425
-71.475 83.475 2.625
-71.175 84.825 1.725
-71.175 84.825 -1.125
-66.975 84.975 0.825
-66.975 84.975 1.275
-66.975 82.275 2.025
-66.975 82.275 2.175
-71.475 83.925 1.575
-71.475 83.325 1.125
-66.675 84.375 1.425
-66.675 84.375 0.975
-66.675 84.375 2.025
-66.675 82.875 2.175
-70.875 85.275 0.525
-70.875 85.275 1.875
-71.475 84.075 1.875
-71.475 83.175 0.675
-71.475 83.175 3.825
-71.475 83.175 1.425
-71.025 85.125 2.175
-68.325 86.025 0.975
-68.325 86.025 1.125
-70.125 81.375 1.875
-66.525 83.625 1.725
-66.525 83.625 2.175
-66.525 83.625 1.275
-66.525 83.775 1.875
-66.525 83.775 1.725
-66.525 83.775 2.325
-66.525 83.775 1.125
-66.525 83.475 1.425
-66.525 83.475 2.475
-66.525 83.475 0.825
-66.525 83.475 1.725
-66.525 83.475 1.875
-66.525 83.475 2.025
-66.525 83.475 2.175
-66.825 82.425 2.025
-66.825 82.425 1.575
-66.825 82.425 2.325
-66.825 82.425 1.875
-67.275 85.425 3.525
-70.425 85.725 0.525
-67.125 81.975 3.525
-67.125 81.975 -0.375
-66.525 83.925 1.725
-69.825 81.225 0.225
-67.875 81.375 -0.375
-71.175 84.975 2.025
-71.175 82.275 1.125
-66.525 84.075 1.425
-66.525 83.175 2.025
-66.525 83.175 2.325
-69.075 86.175 2.175
-69.075 86.175 1.725
-69.075 86.175 1.875
-69.075 86.175 1.425
-69.225 86.175 2.025
-69.225 86.175 1.725
-67.575 81.525 -0.675
-71.475 82.875 3.675
-71.475 82.875 1.725
-69.225 81.075 1.725
-69.375 86.175 0.975
-66.675 84.675 1.725
-66.675 84.675 1.575
-66.675 82.575 2.325
-69.975 81.225 3.825
-68.625 81.075 2.625
-66.825 82.275 1.725
-71.325 84.825 3.525
-69.525 86.175 0.975
-71.625 83.625 1.575
-71.625 83.625 1.875
-71.625 83.775 1.725
-71.625 83.775 1.575
-71.625 83.475 3.225
-69.525 81.075 0.825
-70.575 85.725 0.525
-70.575 85.725 -0.075
-70.575 85.725 1.875
-70.575 85.725 -0.225
-70.575 85.725 -0.375
-70.575 85.725 0.075
-70.575 85.725 0.975
-71.625 83.925 2.475
-71.625 83.925 1.725
-71.625 83.925 2.325
-71.625 83.325 0.675
-67.275 85.575 1.125
-67.125 81.825 0.525
-67.125 81.825 2.475
-67.275 81.675 -0.225
-69.675 81.075 2.025
-70.125 86.025 0.075
-70.125 86.025 -0.975
-66.975 81.975 3.375
-66.975 81.975 -0.825
-70.125 81.225 0.675
-66.675 84.825 1.725
-66.675 82.425 2.025
-66.675 82.425 2.175
-66.675 82.425 2.325
-66.675 82.425 3.075
-67.425 81.525 2.775
-70.425 85.875 -0.525
-68.325 81.075 2.925
-66.375 83.625 1.575
-66.375 83.775 -0.525
-66.375 83.775 1.425
-66.375 83.475 2.175
-66.375 83.475 0.675
-66.375 83.475 2.325
-66.375 83.475 1.425
-66.525 84.525 1.725
-71.325 82.275 4.875
-69.825 86.175 2.025
-69.825 86.175 2.175
-69.825 86.175 1.875
-66.375 83.925 2.025
-66.375 83.325 0.675
-66.375 83.325 2.025
-67.575 81.375 0.825
-67.575 81.375 3.825
-71.025 85.425 2.175
-71.025 85.425 2.025
-66.375 84.075 -0.525
-66.375 84.075 1.575
-70.725 85.725 -0.075
-70.725 85.725 2.025
-70.725 85.725 0.225
-70.725 85.725 0.525
-70.725 85.725 0.975
-69.075 86.325 1.575
-71.625 84.375 1.275
-70.275 86.025 1.575
-70.275 86.025 -0.675
-71.625 82.875 1.575
-69.075 80.925 2.175
-69.225 86.325 1.275
-69.225 86.325 0.525
-69.225 86.325 0.975
-69.225 86.325 2.025
-69.225 86.325 1.875
-68.925 80.925 0.675
-69.225 80.925 0.975
-69.225 80.925 1.425
-69.225 80.925 2.325
-69.225 80.925 2.925
-68.775 80.925 2.325
-66.675 82.275 2.925
-66.675 82.275 1.875
-69.975 86.175 -0.525
-69.375 86.325 2.025
-69.375 86.325 1.875
-66.375 83.025 2.175
-66.375 83.025 2.625
-68.625 86.325 1.125
-67.125 81.675 2.925
-66.975 81.825 2.325
-67.275 85.725 3.825
-67.275 81.525 2.925
-69.525 86.325 0.675
-69.525 86.325 1.875
-69.525 80.925 0.975
-71.625 82.725 0.075
-71.775 83.775 2.025
-66.825 81.975 2.025
-71.775 83.925 1.425
-71.775 83.925 2.175
-71.775 83.925 2.325
-67.425 85.875 1.875
-71.775 83.325 1.575
-67.425 81.375 0.825
-67.425 81.375 -1.575
-69.675 86.325 2.175
-69.675 86.325 1.725
-69.675 86.325 2.325
-70.425 86.025 3.075
-66.525 84.825 0.375
-69.675 80.925 1.575
-69.675 80.925 0.825
-66.675 82.125 2.775
-70.875 85.725 0.525
-70.875 85.725 0.675
-71.625 84.675 1.575
-67.875 81.075 3.075
-66.375 82.725 2.325
-66.225 83.625 1.575
-66.225 83.475 1.275
-71.775 84.225 1.425
-69.825 86.325 1.875
-69.825 86.325 2.025
-70.725 85.875 -0.075
-70.725 85.875 0.525
-69.825 80.925 0.375
-69.825 80.925 2.775
-66.225 83.325 0.975
-71.325 85.275 1.125
-71.325 85.275 2.775
-68.175 80.925 0.525
-68.175 80.925 1.875
-68.175 80.925 2.925
-66.975 81.675 -0.225
-66.975 81.675 0.675
-67.125 81.525 3.675
-67.125 81.525 2.475
-67.125 81.525 1.725
-66.225 83.175 1.725
-66.225 83.175 2.175
-71.775 84.375 0.975
-69.075 86.475 0.675
-66.825 81.825 -0.525
-70.575 86.025 -0.225
-69.075 80.775 1.125
-69.075 80.775 1.875
-69.075 80.775 2.175
-68.925 80.775 1.575
-68.925 80.775 2.025
-67.275 81.375 1.275
-67.275 81.375 1.125
-67.275 81.375 0.825
-67.275 81.375 0.075
-66.375 82.575 2.475
-69.975 86.325 2.025
-68.775 86.475 2.325
-69.225 80.775 1.275
-69.225 80.775 2.325
-68.775 80.775 -2.475
-71.475 85.125 3.075
-69.375 86.475 1.875
-66.225 83.025 2.625
-66.225 83.025 2.025
-69.375 80.775 1.125
-69.375 80.775 -3.825
-69.375 80.775 0.825
-68.625 86.475 0.975
-66.675 81.975 3.375
-66.675 81.975 2.025
-66.675 81.975 3.225
-68.025 80.925 0.675
-71.775 84.525 2.325
-69.525 86.475 1.275
-71.025 85.725 0.675
-71.925 83.625 0.975
-69.525 80.775 1.125
-69.525 80.775 3.075
-71.925 83.775 0.525
-66.225 84.375 1.875
-66.225 82.875 1.575
-66.225 82.875 3.075
-66.225 82.875 2.775
-70.425 86.175 -0.525
-68.475 80.775 3.675
-71.925 83.925 1.125
-70.125 86.325 -0.375
-70.125 86.325 1.875
-70.125 86.325 -0.075
-66.375 82.425 2.625
-66.375 82.425 2.775
-71.325 85.425 1.275
-71.325 85.425 -0.675
-69.675 86.475 2.025
-69.675 86.475 2.325
-66.525 82.125 0.525
-71.625 84.975 1.725
-71.925 84.075 1.725
-68.325 86.475 3.525
-71.775 84.675 2.025
-68.325 80.775 0.525
-66.975 81.525 1.725
-70.725 81.225 2.775
-66.225 82.725 2.775
-71.475 85.275 1.875
-71.475 85.275 3.225
-67.125 81.375 0.825
-67.125 81.375 0.375
-67.125 81.375 2.475
-66.075 83.625 1.725
-71.925 84.225 0.675
-69.825 86.475 2.325
-69.825 86.475 1.875
-69.825 86.475 2.925
-66.075 83.475 1.575
-70.275 86.325 2.625
-67.275 81.225 -0.075
-67.275 81.225 0.525
-68.175 80.775 1.875
-71.925 84.375 1.875
-71.925 84.375 2.325
-66.225 82.575 2.625
-71.625 85.125 1.575
-69.975 86.475 3.375
-66.525 81.975 2.025
-66.525 81.975 2.175
-67.725 80.925 -0.225
-69.075 80.625 1.275
-69.075 80.625 0.825
-69.075 80.625 3.225
-69.225 86.625 1.875
-69.225 86.625 1.425
-69.225 86.625 1.575
-68.925 80.625 2.475
-71.025 85.875 0.675
-71.025 85.875 0.975
-71.025 85.875 -0.525
-71.025 85.875 1.125
-71.025 85.875 0.225
-68.775 86.625 3.825
-69.225 80.625 2.475
-69.225 80.625 0.225
-69.225 80.625 1.425
-69.225 80.625 -0.075
-71.325 85.575 2.175
-66.075 84.225 4.125
-69.375 86.625 2.175
-69.375 86.625 1.425
-69.375 86.625 2.025
-69.375 86.625 1.125
-69.375 86.625 0.375
-69.375 80.625 3.375
-69.375 80.625 2.625
-71.925 84.525 1.575
-72.075 83.625 1.875
-66.975 81.375 0.375
-66.075 82.875 2.625
-66.075 82.875 2.025
-66.075 82.875 2.175
-66.375 82.125 3.375
-66.375 82.125 1.875
-66.375 82.125 2.475
-66.375 82.125 1.725
-70.125 86.475 2.025
-70.125 86.475 2.175
-66.225 82.425 0.675
-71.775 84.975 1.575
-71.775 84.975 3.825
-71.775 84.975 2.625
-71.775 84.975 1.875
-66.675 81.675 3.075
-67.125 81.225 0.825
-67.125 81.225 -0.075
-69.675 86.625 3.675
-69.675 86.625 2.325
-69.675 86.625 1.575
-67.575 80.925 -0.375
-67.575 80.925 1.575
-71.625 85.275 2.625
-72.075 84.075 2.025
-72.075 84.075 0.975
-71.925 84.675 2.325
-71.925 84.675 1.425
-68.325 86.625 3.675
-66.525 81.825 2.325
-66.525 81.825 2.475
-67.275 81.075 0.075
-67.275 81.075 0.825
-67.275 81.075 -0.225
-67.275 81.075 0.375
-69.825 86.625 2.175
-69.825 86.625 -1.725
-72.075 84.225 1.575
-72.075 84.225 2.925
-71.175 85.875 0.675
-71.175 85.875 3.525
-65.925 83.475 1.125
-65.925 83.475 1.425
-70.575 86.325 -0.525
-70.575 80.925 3.075
-71.025 86.025 -0.825
-66.375 81.975 1.725
-66.375 81.975 3.675
-71.925 84.825 2.025
-71.925 84.825 2.475
-71.925 84.825 2.175
-72.075 84.375 1.425
-66.075 82.575 2.475
-66.075 82.575 0.225
-67.725 80.775 0.075
-65.925 83.175 1.875
-65.925 83.175 2.025
-69.975 86.625 1.875
-69.975 86.625 -0.525
-67.425 80.925 0.225
-67.425 80.925 0.075
-70.875 86.175 -0.675
-69.075 86.775 2.025
-70.875 81.075 0.675
-66.825 81.375 2.025
-69.075 80.475 1.275
-69.075 80.475 0.375
-69.225 86.775 1.575
-66.675 81.525 0.225
-66.675 81.525 2.175
-69.225 80.475 2.625
-66.975 81.225 0.525
-65.925 84.225 2.175
-68.775 80.475 2.925
-69.375 86.775 1.125
-69.375 86.775 1.425
-69.375 86.775 1.275
-69.375 86.775 1.725
-70.425 86.475 -3.225
-70.425 86.475 2.625
-69.375 80.475 1.425
-66.525 81.675 2.325
-67.125 81.075 0.825
-66.075 82.425 3.075
-70.125 86.625 1.875
-71.925 84.975 1.875
-65.925 82.875 2.025
-72.225 83.475 2.175
-67.575 80.775 3.225
-67.575 80.775 3.975
-66.375 81.825 2.175
-66.375 81.825 3.375
-66.375 81.825 2.325
-71.325 85.875 0.675
-69.675 86.775 2.475
-69.675 86.775 1.575
-67.875 80.625 2.775
-72.075 84.675 2.325
-67.275 80.925 0.375
-67.275 80.925 -0.375
-65.925 84.525 0.075
-65.925 82.725 2.325
-71.025 86.175 2.625
-71.025 86.175 4.425
-70.275 86.625 2.025
-70.275 86.625 1.875
-69.825 86.775 2.625
-66.075 82.275 2.475
-66.675 85.875 4.575
-66.225 81.975 2.775
-65.775 83.775 0.675
-65.775 83.475 1.725
-66.675 81.375 -0.225
-66.675 81.375 0.225
-71.925 85.125 2.025
-66.825 81.225 2.025
-66.825 81.225 0.075
-66.825 81.225 0.225
-66.825 81.225 4.275
-65.775 83.325 1.275
-72.075 84.825 3.525
-66.975 81.075 0.825
-66.975 81.075 0.375
-66.975 81.075 2.325
-66.975 81.075 1.125
-66.975 81.075 1.275
-65.925 82.575 1.725
-65.925 82.575 2.775
-71.775 85.425 3.975
-69.975 86.775 2.025
-69.975 86.775 1.725
-66.375 81.675 1.575
-66.375 81.675 1.875
-66.375 81.675 2.175
-69.075 80.325 3.225
-69.075 80.325 3.075
-68.925 80.325 0.975
-68.925 80.325 1.575
-67.125 80.925 0.225
-69.225 80.325 1.425
-69.225 80.325 2.775
-69.225 80.325 2.475
-69.375 86.925 1.275
-72.225 84.525 1.575
-71.325 86.025 3.675
-71.325 86.025 -0.075
-71.325 86.025 0.075
-69.375 80.325 3.375
-71.475 85.875 2.775
-65.925 82.425 1.725
-72.075 84.975 2.175
-71.175 86.175 -0.825
-71.925 85.275 1.575
-70.125 86.775 1.725
-70.125 86.775 1.875
-66.225 81.825 2.025
-66.225 81.825 2.475
-69.525 86.925 1.425
-69.525 86.925 1.275
-69.525 86.925 1.575
-71.625 85.725 3.825
-71.625 85.725 2.325
-65.775 82.875 1.875
-68.475 80.325 2.625
-67.275 80.775 -0.375
-66.675 81.225 -0.075
-71.775 85.575 2.775
-66.825 81.075 0.825
-66.825 81.075 0.075
-68.325 80.325 5.475
-65.775 82.725 2.025
-65.775 82.725 1.875
-65.775 82.725 2.625
-70.275 86.775 1.575
-70.275 86.775 2.175
-66.075 81.975 2.475
-66.375 81.525 -5.025
-66.375 81.525 3.375
-66.375 81.525 2.025
-65.925 82.275 -0.225
-69.825 86.925 2.625
-72.075 85.125 1.575
-72.075 85.125 2.175
-66.975 80.925 0.825
-66.975 80.925 2.775
-72.375 84.225 3.225
-67.425 80.625 3.675
-67.425 80.625 3.075
-67.425 80.625 2.325
-71.925 85.425 2.175
-67.725 80.475 3.825
-65.775 84.675 -0.375
-65.775 82.575 1.725
-65.775 82.575 2.775
-71.475 86.025 2.775
-67.125 86.475 2.775
-72.375 84.375 1.575
-72.375 84.375 1.125
-71.325 86.175 -0.075
-67.125 80.775 0.225
-67.125 80.775 0.825
-71.625 85.875 2.175
-71.625 85.875 -0.825
-70.425 86.775 2.475
-70.425 86.775 4.275
-70.725 86.625 0.375
-70.725 86.625 -1.125
-70.725 86.625 0.675
-71.175 86.325 2.475
-71.175 86.325 -1.125
-71.175 86.325 3.225
-65.925 82.125 1.875
-69.075 80.175 1.425
-68.925 80.175 1.275
-69.225 80.175 2.775
-68.775 80.175 2.325
-68.775 80.175 2.475
-72.075 85.275 2.175
-72.375 84.525 0.675
-69.375 87.075 1.725
-69.375 87.075 1.425
-69.375 80.175 3.075
-69.375 80.175 3.375
-65.775 82.425 1.875
-65.775 82.425 2.475
-66.675 81.075 0.525
-66.675 81.075 0.675
-66.675 81.075 0.225
-66.675 81.075 -0.225
-70.125 86.925 2.175
-71.025 86.475 1.125
-67.275 80.625 2.025
-69.525 87.075 1.125
-69.525 87.075 1.425
-65.625 82.875 1.125
-65.625 82.875 3.225
-66.225 81.525 2.025
-66.225 81.525 2.475
-66.225 81.525 1.725
-72.375 82.575 2.625
-69.675 87.075 0.825
-66.975 80.775 2.925
-66.975 80.775 0.675
-70.875 86.625 -0.975
-70.875 86.625 4.125
-70.875 86.625 0.675
-72.525 84.075 2.025
-65.775 82.275 2.475
-65.775 82.275 1.875
-65.775 82.275 1.425
-70.275 86.925 2.325
-71.625 86.025 2.325
-71.625 86.025 1.575
-69.825 87.075 0.975
-66.075 81.675 1.875
-66.075 81.675 2.025
-66.075 81.675 2.325
-71.325 86.325 2.625
-72.525 84.225 -0.975
-71.775 85.875 2.925
-67.725 80.325 2.175
-72.375 84.825 0.975
-67.125 80.625 2.025
-65.625 82.575 1.575
-71.175 86.475 3.225
-71.175 86.475 2.925
-71.175 86.475 2.625
-69.975 87.075 1.875
-71.925 85.725 2.475
-71.925 85.725 2.175
-70.425 86.925 2.475
-66.675 80.925 2.925
-66.675 80.925 0.225
-65.775 82.125 1.725
-65.775 82.125 1.875
-65.775 82.125 2.775
-66.225 81.375 3.075
-71.025 86.625 0.975
-71.025 86.625 3.225
-71.025 86.625 0.675
-66.825 80.775 1.275
-66.825 80.775 0.675
-72.525 84.525 -0.525
-72.525 84.525 1.725
-67.575 80.325 2.025
-67.575 80.325 1.875
-65.625 82.425 2.325
-65.625 82.425 1.725
-68.775 80.025 2.775
-68.775 80.025 2.475
-69.375 87.225 1.575
-70.125 87.075 1.875
-66.075 81.525 2.025
-66.075 81.525 2.775
-66.075 81.525 2.325
-66.075 81.525 1.875
-69.525 87.225 0.975
-69.525 87.225 2.325
-65.475 82.875 1.875
-66.975 86.625 2.925
-71.625 86.175 2.925
-67.875 80.175 4.575
-71.475 86.325 2.475
-71.475 86.325 1.725
-71.775 86.025 2.625
-68.475 80.025 2.625
-68.475 80.025 2.775
-68.475 80.025 5.325
-70.875 86.775 3.225
-70.875 86.775 0.375
-72.525 84.675 1.575
-69.675 87.225 2.025
-69.675 87.225 1.725
-69.675 87.225 2.175
-69.675 87.225 1.275
-70.275 87.075 1.725
-70.275 87.075 2.025
-72.225 85.425 2.025
-65.475 82.725 1.125
-67.425 80.325 3.675
-66.375 81.075 3.375
-67.125 80.475 -0.525
-67.125 80.475 -1.125
-69.825 87.225 1.575
-69.825 87.225 2.025
-69.825 87.225 1.725
-71.175 86.625 0.375
-71.175 86.625 0.675
-66.225 86.025 3.675
-72.525 84.825 2.025
-72.525 84.825 1.425
-66.675 80.775 0.825
-66.675 80.775 1.125
-66.675 80.775 3.375
-66.675 80.775 0.375
-68.175 80.025 4.125
-65.475 82.575 1.725
-66.075 81.375 1.875
-66.075 81.375 2.175
-66.075 81.375 2.025
-70.425 87.075 2.475
-70.425 87.075 2.625
-70.425 87.075 1.575
-69.975 87.225 1.725
-65.625 82.125 2.025
-71.025 86.775 0.675
-71.025 86.775 0.075
-72.375 85.275 2.025
-72.375 85.275 1.875
-67.275 80.325 -0.075
-67.575 87.075 2.025
-71.625 86.325 -0.675
-71.625 86.325 -0.825
-71.775 86.175 2.775
-71.775 86.175 -0.825
-67.575 80.175 0.825
-67.575 80.175 3.375
-67.575 80.175 2.175
-69.075 87.375 1.725
-65.925 81.525 2.175
-65.475 82.425 2.025
-71.475 86.475 -0.525
-71.475 86.475 0.525
-71.475 86.475 -0.825
-71.475 86.475 3.075
-71.475 86.475 -0.375
-72.675 84.525 2.025
-71.925 86.025 2.925
-68.775 79.875 2.325
-69.375 79.875 3.075
-68.625 79.875 2.475
-68.625 79.875 2.325
-70.575 87.075 1.875
-69.525 87.375 1.275
-69.525 87.375 0.675
-69.525 87.375 1.725
-65.325 82.875 2.625
-65.325 82.875 2.475
-72.075 85.875 2.025
-65.625 81.975 2.025
-65.625 81.975 2.775
-65.625 81.975 1.575
-66.375 86.325 -0.225
-66.375 80.925 -0.675
-66.225 81.075 3.675
-66.225 81.075 -0.825
-72.675 84.675 0.825
-72.675 84.675 1.575
-68.475 79.875 2.625
-65.775 81.675 2.025
-66.525 80.775 0.675
-69.675 87.375 1.125
-69.675 87.375 1.575
-69.675 87.375 1.425
-65.475 82.275 2.025
-65.475 82.275 1.425
-70.275 87.225 1.875
-67.125 80.325 3.675
-67.125 80.325 0.525
-66.675 80.625 0.075
-66.675 80.625 0.825
-68.325 79.875 2.925
-69.825 87.375 2.025
-69.825 87.375 0.975
-65.925 81.375 2.475
-65.925 81.375 2.325
-65.925 81.375 2.025
-72.675 84.825 0.825
-72.675 84.825 0.525
-72.675 84.825 1.875
-72.675 84.825 2.025
-70.725 87.075 5.025
-70.725 87.075 1.575
-71.775 86.325 2.325
-71.775 86.325 2.625
-71.775 86.325 -0.525
-65.325 82.575 2.775
-65.625 81.825 2.025
-65.625 81.825 3.225
-71.625 86.475 2.625
-71.625 86.475 0.675
-71.025 86.925 -0.675
-71.925 86.175 2.625
-70.425 87.225 2.175
-70.425 87.225 1.575
-70.425 87.225 1.725
-65.475 82.125 2.325
-65.475 82.125 1.425
-69.975 87.375 2.025
-69.975 87.375 1.575
-71.475 86.625 0.975
-71.475 86.625 0.525
-71.475 86.625 0.225
-67.275 80.175 2.925
-65.775 81.525 2.325
-72.075 81.225 2.175
-68.025 79.875 2.025
-67.575 80.025 2.475
-65.325 82.425 1.575
-65.325 82.425 1.725
-71.325 86.775 3.675
-72.825 84.525 0.825
-72.825 84.525 2.625
-66.075 81.075 4.275
-70.875 87.075 2.925
-66.525 80.625 0.375
-68.775 79.725 0.975
-68.775 79.725 2.775
-68.775 79.725 1.875
-69.375 87.525 1.275
-69.375 87.525 0.975
-69.375 87.525 1.725
-70.575 87.225 1.725
-70.575 87.225 1.875
-70.575 87.225 1.575
-70.575 80.025 1.725
-65.475 81.975 2.025
-68.625 79.725 1.425
-65.925 81.225 2.025
-69.525 87.525 0.825
-69.525 87.525 1.725
-72.525 85.425 1.725
-72.525 85.425 -4.575
-72.525 85.425 2.925
-72.825 84.675 0.675
-72.675 85.125 1.275
-68.475 79.725 2.775
-67.425 80.025 2.025
-65.325 82.275 1.575
-65.325 82.275 3.075
-65.325 82.275 1.875
-70.275 87.375 1.725
-70.275 87.375 1.575
-69.675 87.525 1.125
-69.675 87.525 1.725
-69.675 87.525 2.025
-69.675 87.525 1.425
-65.775 81.375 2.325
-71.625 86.625 0.525
-71.625 86.625 5.925
-71.625 86.625 1.275
-71.625 86.625 2.325
-71.625 86.625 1.125
-72.075 86.175 1.875
-67.725 79.875 2.475
-67.725 79.875 2.775
-70.725 87.225 1.425
-69.825 87.525 1.875
-69.825 87.525 1.725
-69.825 87.525 2.025
-72.825 84.825 1.725
-71.475 86.775 -0.225
-71.475 86.775 -0.525
-71.475 86.775 -2.325
-65.475 81.825 1.725
-65.475 81.825 1.875
-65.475 81.825 2.025
-72.225 86.025 2.775
-72.225 81.225 2.175
-65.325 82.125 2.475
-65.325 82.125 3.525
-65.325 82.125 2.325
-65.325 82.125 2.625
-65.325 82.125 1.575
-65.325 82.125 1.875
-66.225 80.775 2.175
-65.625 81.525 3.225
-67.275 80.025 4.575
-69.975 87.525 1.875
-66.975 80.175 -0.225
-66.525 80.475 -0.225
-66.525 80.475 3.675
-68.025 79.725 2.025
-68.025 79.725 2.475
-65.775 81.225 2.175
-65.475 81.675 2.325
-65.475 81.675 2.025
-65.475 81.675 1.725
-66.675 80.325 0.225
-66.675 80.325 -0.075
-71.175 87.075 -0.525
-71.175 87.075 2.475
-69.375 87.675 1.125
-72.675 85.425 1.575
-72.675 85.425 2.025
-72.675 85.425 4.575
-71.775 86.625 -0.225
-71.775 86.625 0.525
-71.775 86.625 -0.825
-67.425 79.875 3.375
-72.975 84.675 2.325
-72.225 86.175 2.925
-68.475 79.575 1.575
-69.675 87.675 1.125
-69.675 87.675 1.425
-71.475 86.925 1.425
-66.075 80.775 -1.575
-68.325 79.575 2.325
-67.725 79.725 2.775
-66.375 80.475 0.975
-72.975 84.825 0.675
-69.825 87.675 1.725
-69.825 87.675 1.275
-69.825 87.675 1.125
-69.825 87.675 1.875
-65.775 81.075 2.025
-70.425 87.525 1.575
-71.325 87.075 2.625
-68.175 79.575 2.025
-67.275 79.875 2.175
-72.525 85.875 2.025
-69.975 87.675 1.875
-69.975 87.675 1.425
-67.575 79.725 2.925
-71.925 86.625 0.075
-68.025 79.575 1.725
-71.775 86.775 -0.675
-70.875 87.375 2.475
-66.675 80.175 0.825
-72.225 86.325 2.775
-72.225 86.325 2.625
-71.175 87.225 2.775
-71.175 87.225 -0.375
-70.575 87.525 2.025
-70.575 87.525 1.575
-70.575 87.525 1.425
-70.125 87.675 1.275
-70.125 87.675 2.175
-65.175 81.975 1.275
-72.825 85.425 1.875
-68.925 79.425 2.925
-68.925 79.425 2.175
-68.925 79.425 2.475
-72.675 85.725 1.575
-67.125 79.875 2.925
-68.775 79.425 2.025
-67.875 79.575 2.025
-67.425 79.725 3.075
-66.225 80.475 0.225
-72.975 85.125 2.025
-68.625 79.425 1.425
-68.625 79.425 1.575
-70.275 87.675 2.325
-70.275 87.675 2.025
-66.375 80.325 1.275
-66.375 80.325 0.525
-66.375 80.325 0.825
-72.525 86.025 2.775
-68.475 79.425 4.575
-68.475 79.425 1.725
-73.275 83.625 3.225
-71.025 87.375 2.325
-69.675 87.825 1.425
-69.675 87.825 0.975
-70.725 87.525 1.725
-70.725 87.525 1.875
-65.625 81.075 2.175
-65.175 81.825 2.475
-65.175 81.825 1.425
-65.325 81.525 2.775
-65.325 81.525 2.475
-68.325 79.425 1.875
-68.325 79.425 2.775
-68.325 79.425 2.475
-68.325 79.425 1.725
-66.525 80.175 0.675
-71.325 87.225 2.775
-71.325 87.225 0.525
-69.825 87.825 1.275
-72.075 86.625 0.675
-72.975 85.275 1.875
-72.975 85.275 1.275
-71.925 86.775 1.125
-71.925 86.775 0.525
-65.025 82.125 0.975
-67.275 79.725 2.475
-72.225 86.475 2.775
-72.225 86.475 3.075
-72.675 81.375 3.375
-65.475 81.225 3.225
-69.975 87.825 1.275
-67.575 79.575 3.075
-67.575 79.575 1.125
-73.125 84.975 0.675
-73.125 84.975 0.825
-70.875 87.525 1.575
-71.175 87.375 1.275
-71.175 87.375 -0.225
-68.025 79.425 2.325
-68.025 79.425 2.925
-65.175 81.675 1.425
-70.575 87.675 0.075
-70.575 87.675 2.925
-65.025 81.975 1.425
-66.225 80.325 -0.375
-66.225 80.325 1.425
-66.225 80.325 0.975
-65.325 81.375 2.475
-70.125 87.825 1.875
-73.275 84.525 0.975
-66.375 80.175 1.275
-66.375 80.175 0.675
-66.375 80.175 1.125
-68.775 79.275 0.825
-68.625 79.275 1.275
-73.275 84.675 2.025
-69.525 87.975 0.675
-71.025 87.525 2.025
-71.025 87.525 1.125
-72.075 86.775 0.225
-72.075 86.775 -0.075
-72.225 86.625 2.475
-72.225 86.625 -0.525
-70.725 87.675 2.175
-72.375 86.475 -4.425
-69.675 87.975 0.975
-72.975 85.575 1.725
-67.725 79.425 1.425
-68.325 79.275 1.725
-66.975 79.725 2.925
-72.825 85.875 1.875
-72.525 86.325 2.325
-72.525 86.325 2.475
-65.325 81.225 2.325
-65.325 81.225 2.475
-73.125 81.975 1.275
-67.275 79.575 -2.925
-69.825 87.975 0.525
-70.425 87.825 2.475
-65.925 80.475 -0.675
-66.075 80.325 0.975
-68.175 79.275 1.725
-65.625 80.775 2.175
-70.875 87.675 1.725
-66.225 80.175 0.675
-66.225 80.175 0.825
-66.225 80.175 0.375
-71.175 87.525 1.425
-71.175 87.525 0.225
-71.175 87.525 -0.075
-69.975 87.975 2.475
-73.275 84.975 0.975
-65.025 81.675 1.875
-73.425 84.375 1.425
-65.475 80.925 2.325
-72.975 85.725 2.025
-73.125 85.425 1.275
-66.375 80.025 0.375
-70.125 87.975 1.575
-70.125 87.975 2.025
-72.225 86.775 2.175
-73.425 84.525 0.825
-73.425 84.525 2.175
-72.075 86.925 1.275
-72.075 86.925 -0.675
-65.325 81.075 2.025
-73.275 85.125 0.675
-71.925 87.075 3.075
-68.775 79.125 1.275
-66.525 79.875 -0.525
-71.025 87.675 -0.675
-69.375 79.125 1.575
-70.275 87.975 2.025
-71.325 87.525 2.175
-65.025 81.525 1.725
-65.025 81.525 1.275
-69.525 88.125 0.675
-71.775 87.225 2.625
-70.725 87.825 1.575
-64.875 81.825 1.575
-64.875 81.825 2.925
-64.875 81.825 2.325
-65.925 80.325 -0.675
-65.925 80.325 0.975
-65.925 80.325 2.175
-68.475 79.125 1.875
-65.625 80.625 2.475
-65.625 80.625 2.775
-65.175 81.225 2.775
-65.175 81.225 1.575
-65.175 81.225 2.475
-67.725 79.275 2.025
-67.725 79.275 1.575
-66.075 80.175 0.225
-73.425 84.825 1.575
-68.325 79.125 1.125
-65.475 80.775 2.175
-66.225 80.025 0.825
-66.225 80.025 0.375
-69.825 88.125 1.575
-72.825 86.175 2.625
-70.875 87.825 1.725
-70.875 87.825 1.875
-67.575 79.275 2.475
-64.875 81.675 1.425
-72.225 86.925 2.775
-65.025 81.375 2.175
-69.975 88.125 0.975
-69.975 88.125 1.575
-69.975 88.125 2.325
-69.975 88.125 2.625
-72.075 87.075 1.575
-71.475 87.525 -0.075
-71.475 87.525 2.775
-72.525 86.625 2.175
-73.575 84.375 1.125
-73.275 85.425 2.025
-64.725 81.975 2.025
-68.025 79.125 0.825
-66.825 79.575 4.125
-67.125 79.425 2.775
-71.925 87.225 0.675
-71.925 87.225 -2.325
-65.175 81.075 2.325
-70.125 88.125 1.125
-70.125 88.125 2.325
-66.525 79.725 0.375
-66.525 79.725 -0.525
-65.625 80.475 2.025
-71.775 87.375 0.525
-71.025 87.825 2.025
-69.075 88.275 1.275
-67.875 79.125 1.275
-69.225 88.275 0.675
-71.325 87.675 -0.375
-65.475 80.625 2.175
-66.075 87.225 0.525
-72.825 86.325 2.475
-64.875 81.525 1.575
-64.875 81.525 2.175
-64.875 81.525 1.425
-66.075 80.025 -0.225
-68.775 78.975 0.975
-69.375 88.275 1.575
-70.725 87.975 0.075
-70.725 87.975 1.575
-70.275 88.125 2.025
-68.625 78.975 0.525
-65.025 81.225 2.475
-73.275 85.575 1.125
-73.275 85.575 1.875
-73.275 85.575 2.025
-73.125 85.875 2.175
-65.325 80.775 1.725
-66.975 79.425 2.175
-71.625 87.525 -0.525
-67.725 79.125 1.725
-72.975 86.175 2.325
-72.975 86.175 2.175
-72.375 86.925 1.725
-72.375 86.925 -1.125
-72.375 86.925 1.575
-72.225 87.075 2.925
-72.525 86.775 2.325
-68.325 78.975 1.125
