# .PCD v0.7 - Point Cloud Data file format
VERSION 0.7
FIELDS x y z
SIZE 4 4 4
TYPE F F F
COUNT 1 1 1
WIDTH 2048
HEIGHT 1
VIEWPOINT 0 0 0 1 0 0 0
POINTS 2048
DATA ascii
10.125 66.825 -0.975
10.125 66.825 -0.675
10.125 67.125 -1.875
10.425 66.975 -2.325
9.975 66.825 -0.225
9.975 66.825 -0.675
10.275 66.675 -0.975
10.125 66.675 0.525
10.125 66.675 -0.525
10.125 66.675 -0.075
10.425 67.125 0.975
10.275 67.275 0.975
9.975 66.675 -0.675
9.975 66.675 -1.725
10.575 66.975 -0.825
9.825 66.975 -6.375
9.825 66.975 -0.975
9.825 66.975 0.525
9.825 66.975 3.075
9.825 66.825 -0.075
9.825 66.825 -0.225
9.975 67.275 -1.875
9.825 67.125 -1.725
10.275 66.525 3.675
10.275 66.525 -0.675
10.275 66.525 -0.225
10.275 66.525 -1.275
10.275 66.525 -1.125
10.125 66.525 -1.425
10.125 66.525 -0.675
9.825 66.675 1.425
9.825 66.675 -1.575
9.825 66.675 -0.675
10.425 66.525 -0.675
9.975 66.525 -0.675
10.125 67.425 -0.075
9.675 66.975 -0.675
9.675 66.975 -1.575
9.675 66.825 -1.725
10.575 66.525 1.275
9.675 67.125 -0.975
9.675 67.125 -0.675
9.825 66.525 -0.675
10.275 66.375 2.175
10.275 66.375 -1.725
10.275 66.375 -6.675
10.275 66.375 -0.525
10.725 66.675 -1.275
9.675 66.675 0.675
9.675 66.675 -0.675
10.425 66.375 -2.175
10.425 66.375 -0.975
10.425 66.375 -1.725
10.725 67.275 0.375
9.675 67.275 1.125
9.675 67.275 0.525
9.675 67.275 0.825
9.675 67.275 -1.875
10.125 67.575 0.375
10.875 66.975 0.525
10.575 66.375 -1.575
10.575 66.375 -4.725
10.875 66.825 -1.725
9.525 66.975 -0.075
9.525 66.975 -0.675
9.525 66.975 0.225
9.525 66.825 -1.725
9.525 66.825 -0.075
10.875 67.125 -5.175
10.875 67.125 -5.025
9.525 67.125 -0.675
9.525 67.125 -0.225
9.675 67.425 -1.725
10.875 66.675 -0.975
10.275 66.225 0.075
10.125 66.225 -0.375
9.525 66.675 -0.825
9.825 67.575 -1.725
10.425 66.225 -1.725
10.425 66.225 -1.575
10.425 66.225 -1.875
10.425 66.225 -0.075
9.525 67.275 -0.225
9.525 67.275 1.125
9.525 67.275 0.225
9.525 67.275 0.075
9.525 67.275 0.825
9.675 66.375 -1.125
10.125 67.725 -4.275
10.875 66.525 0.225
10.875 66.525 -1.425
10.575 66.225 -1.725
10.425 67.725 -5.025
10.725 67.575 -0.825
11.025 66.975 -1.725
9.675 67.575 -1.275
11.025 66.825 -5.025
9.375 66.975 -0.525
9.375 66.975 -0.825
9.375 66.975 -0.075
11.025 67.125 -4.725
11.025 67.125 -0.675
9.375 67.125 -0.675
11.025 66.675 -2.025
11.025 66.675 -1.725
11.025 66.675 -1.275
10.575 67.725 1.125
10.275 66.075 -0.675
10.275 66.075 -0.075
9.375 66.675 -0.825
10.125 66.075 -1.875
9.525 66.375 -1.125
10.725 66.225 -2.475
9.375 67.275 -0.675
9.375 67.275 -0.225
9.375 67.275 -0.975
10.425 66.075 -2.775
10.425 66.075 -0.825
9.975 66.075 -0.825
10.875 67.575 -5.025
11.025 66.525 -0.675
9.525 67.575 0.225
9.525 67.575 0.825
9.525 67.575 -1.125
9.375 66.525 0.825
10.125 67.875 -5.025
9.675 67.725 -0.225
9.675 67.725 -2.025
9.675 67.725 0.225
9.675 67.725 0.675
9.675 67.725 -0.375
10.575 66.075 -0.225
10.575 66.075 0.075
10.575 66.075 -0.675
9.375 67.425 -5.775
11.175 66.975 -1.875
11.175 66.825 0.675
9.225 66.975 -0.825
9.225 66.975 -2.025
10.875 66.225 0.225
10.875 66.225 -1.575
11.175 67.125 -5.175
9.525 66.225 -0.825
9.525 66.225 -0.525
9.525 66.225 1.575
9.525 66.225 -0.675
9.225 67.125 -0.825
11.025 66.375 0.525
11.025 66.375 0.675
11.025 66.375 -1.575
10.575 67.875 0.525
9.825 67.875 -0.075
9.825 67.875 -0.225
10.725 66.075 1.575
10.725 66.075 -0.225
10.725 66.075 -4.875
10.275 65.925 -1.275
10.275 65.925 -0.975
10.125 65.925 -0.825
10.875 67.725 -5.025
9.225 67.275 -0.375
9.525 67.725 -1.875
9.525 67.725 -0.075
10.425 65.925 -0.825
9.675 67.875 0.225
9.675 67.875 0.075
9.675 67.875 -0.075
9.675 67.875 -0.225
11.025 66.225 0.975
11.025 66.225 -2.025
11.025 66.225 -1.275
10.875 66.075 -1.725
10.875 66.075 1.875
10.875 66.075 -0.675
10.875 66.075 -0.975
10.875 66.075 0.225
10.875 66.075 -2.025
10.875 66.075 1.575
9.375 66.225 -0.375
9.375 66.225 -1.875
9.375 66.225 -0.975
9.375 66.225 -0.825
9.375 66.225 -0.675
10.425 68.025 0.375
11.175 66.375 -0.975
11.325 66.825 -2.025
11.325 66.825 -1.275
11.325 66.825 0.375
9.075 66.975 -1.125
11.325 67.125 -5.925
9.075 66.825 -0.975
9.375 67.725 -0.225
10.725 65.925 -0.675
9.075 67.125 -0.825
9.825 68.025 -0.225
9.675 65.925 -0.525
9.525 67.875 -0.225
9.525 67.875 -0.075
9.525 67.875 0.225
9.525 67.875 -0.825
9.225 67.575 -6.075
9.075 67.275 -0.225
10.425 65.775 -0.825
11.025 66.075 -1.725
11.025 66.075 0.975
11.325 66.525 0.825
10.725 68.025 1.125
10.725 68.025 0.375
9.675 68.025 -0.525
9.675 68.025 -0.075
9.675 68.025 2.925
9.675 68.025 -0.225
9.675 68.025 -0.675
9.075 66.525 -0.825
11.175 66.225 1.575
9.225 66.225 -0.525
9.225 66.225 -0.975
10.875 65.925 -0.075
10.875 65.925 0.225
10.875 65.925 -1.725
10.875 65.925 -0.525
10.875 65.925 -1.275
9.525 65.925 -0.375
9.525 65.925 -0.225
10.575 65.775 -0.825
9.075 67.425 -0.525
9.825 65.775 -0.375
10.125 68.175 -1.425
10.125 68.175 1.425
9.375 67.875 -0.675
9.375 67.875 -6.825
9.975 68.175 0.525
9.975 68.175 0.975
9.075 66.375 -1.275
9.075 66.375 -0.975
9.525 68.025 0.375
9.525 68.025 -0.375
9.525 68.025 -0.075
9.525 68.025 -0.225
10.725 65.775 -0.675
10.725 65.775 -2.175
9.675 65.775 0.225
9.825 68.175 -0.525
9.825 68.175 -0.675
8.925 67.125 -0.825
9.075 67.575 -0.975
9.075 67.575 -0.675
11.475 66.675 -1.575
11.175 66.075 -1.575
11.175 66.075 0.825
11.025 65.925 1.425
11.025 65.925 -1.875
11.025 65.925 -1.725
9.225 66.075 -0.975
9.225 66.075 -0.375
9.375 65.925 -0.375
10.275 65.625 4.125
11.325 66.225 -1.875
10.725 68.175 -4.725
11.475 66.525 -0.375
9.975 65.625 -1.725
9.675 68.175 -0.075
9.675 68.175 -1.875
9.675 68.175 0.075
9.675 68.175 -0.675
9.675 68.175 0.225
9.675 68.175 -0.525
9.075 66.225 -1.125
11.175 67.875 -0.675
10.875 65.775 -0.675
10.875 65.775 0.825
9.525 65.775 -0.675
9.525 65.775 -0.225
9.375 68.025 -0.225
9.375 68.025 -0.075
9.375 68.025 0.075
8.925 67.425 -0.675
10.575 65.625 0.975
9.825 65.625 -0.075
9.075 67.725 -5.625
10.125 68.325 -0.975
10.125 68.325 -3.075
9.525 68.175 -5.475
9.525 68.175 -0.375
9.525 68.175 -0.675
9.525 68.175 -0.075
11.175 65.925 -1.575
11.175 65.925 -1.725
11.175 65.925 -1.275
11.325 66.075 -1.575
11.325 66.075 1.725
11.325 66.075 1.275
11.625 66.975 -1.125
9.075 66.075 -0.525
9.075 66.075 -0.375
8.925 67.575 -0.675
11.025 65.775 -0.675
11.025 65.775 -0.075
11.025 65.775 -1.425
9.825 68.325 1.575
9.375 65.775 -0.225
11.475 66.225 -2.025
10.725 68.325 0.675
9.675 68.325 -0.225
9.675 68.325 -0.075
10.875 65.625 -1.275
10.875 65.625 -1.575
10.875 65.625 1.125
11.625 66.525 -0.825
11.625 66.525 -1.875
9.375 68.175 -0.225
9.375 68.175 -0.075
9.375 68.175 -0.375
9.525 65.625 0.075
9.525 65.625 -0.225
9.525 65.625 0.225
9.975 65.475 -1.425
8.775 66.525 -0.075
8.775 66.525 0.525
8.775 67.425 -0.675
8.775 67.425 -1.725
11.325 65.925 1.275
11.325 65.925 -2.175
10.575 65.475 0.375
10.575 65.475 0.075
11.175 65.775 -0.225
11.175 65.775 -0.675
11.175 65.775 -1.575
9.075 65.925 0.375
9.225 65.775 -0.225
9.225 65.775 -0.375
11.625 66.375 -0.225
11.625 66.375 -1.725
11.625 66.375 -0.375
10.275 68.475 1.875
10.125 68.475 1.575
11.475 66.075 -1.875
9.525 68.325 -1.875
9.525 68.325 -0.975
8.925 66.075 -0.975
9.975 68.475 1.875
9.975 68.475 0.825
11.025 65.625 -0.675
11.025 65.625 -1.425
9.375 65.625 -0.075
9.375 65.625 -0.225
9.375 65.625 -0.525
9.675 65.475 0.075
8.775 67.575 -0.225
9.225 68.175 -0.225
8.625 66.975 -1.875
11.625 66.225 -1.275
11.625 66.225 -2.175
11.025 68.325 -5.175
11.025 68.325 -5.025
9.375 68.325 -0.075
9.375 68.325 -0.675
9.375 68.325 -0.525
9.375 68.325 -0.225
9.375 68.325 -0.375
8.625 67.275 -0.825
11.325 65.775 -0.975
11.325 65.775 -0.675
11.325 65.775 -1.725
11.325 65.775 -0.225
11.325 65.775 -1.575
9.675 68.475 -0.075
11.775 66.525 -6.375
9.075 65.775 -0.075
11.475 65.925 -1.575
10.425 65.325 -1.875
10.425 65.325 1.425
8.925 65.925 -0.525
11.175 65.625 -2.025
11.175 65.625 0.975
11.175 65.625 -0.525
11.775 67.425 2.175
9.225 65.625 -0.075
10.575 65.325 0.225
11.475 68.025 -2.025
9.075 68.175 -0.225
9.075 68.175 0.375
8.925 68.025 -2.175
10.125 68.625 0.825
9.375 65.475 -0.225
9.375 65.475 0.225
9.225 68.325 -0.225
9.225 68.325 -0.375
8.625 67.575 -4.575
11.475 65.775 -1.725
11.475 65.775 -1.575
11.925 67.125 -1.275
11.325 65.625 -1.875
9.375 68.475 -0.525
9.375 68.475 -0.675
11.625 65.925 -1.275
8.475 66.675 -2.325
11.775 67.725 -5.925
10.725 68.625 -4.875
11.175 65.475 -0.675
11.175 65.475 -2.175
9.675 68.625 -4.725
8.625 67.725 -0.975
8.625 67.725 -0.525
8.625 67.725 -0.675
8.625 67.725 -6.225
9.225 65.475 -0.225
9.225 65.475 0.225
8.925 68.175 -0.225
9.075 68.325 -1.575
8.775 68.025 0.525
11.775 66.075 -0.075
11.775 66.075 -1.275
10.575 65.175 -1.425
9.525 68.625 1.725
9.225 68.475 -0.075
9.225 68.475 -0.375
9.225 68.475 0.075
9.225 68.475 -1.275
9.225 68.475 -0.225
10.125 68.775 -4.425
8.625 67.875 -0.675
8.925 65.625 -0.225
8.925 65.625 -0.525
11.625 65.775 0.225
11.625 65.775 -1.575
8.475 67.575 -2.175
10.425 68.775 -4.875
10.425 68.775 -4.725
10.425 68.775 -0.375
10.725 65.175 0.075
11.325 65.475 -0.675
9.075 65.475 -0.975
9.075 65.475 -0.825
11.925 66.225 0.975
9.825 68.775 -0.375
9.825 68.775 1.125
9.825 68.775 -0.525
12.075 66.975 -1.275
11.775 65.925 -1.425
9.375 68.625 -0.525
11.625 68.175 -2.025
8.925 68.325 -1.425
11.175 65.325 -0.225
9.225 65.325 -0.375
9.225 65.325 0.975
8.475 67.725 -0.675
8.475 67.725 -1.725
9.075 68.475 -0.225
10.725 68.775 0.975
11.925 66.075 1.275
11.925 66.075 1.125
11.625 65.625 1.275
11.475 65.475 -1.875
11.475 65.475 -0.225
11.475 65.475 -0.075
9.225 68.625 -0.525
9.225 68.625 -1.575
8.925 65.475 -0.825
8.925 65.475 -0.975
10.875 68.775 0.525
9.375 65.175 0.525
9.375 65.175 -0.675
9.375 65.175 0.225
9.375 65.175 2.325
8.475 67.875 -0.225
11.325 65.325 -0.675
9.075 65.325 -0.375
11.625 68.325 -2.025
10.275 68.925 0.675
10.125 68.925 0.225
10.125 68.925 0.375
8.325 67.575 -0.675
9.675 65.025 -0.075
10.425 68.925 -0.525
10.425 68.925 0.375
9.975 68.925 -0.375
9.975 68.925 0.825
8.625 68.175 0.675
8.625 68.175 5.325
10.575 68.925 0.375
9.825 68.925 0.675
9.825 68.925 0.375
9.825 68.925 -0.675
9.825 68.925 0.075
11.175 65.175 -1.575
11.175 65.175 -1.275
9.075 68.625 -0.375
9.075 68.625 0.075
9.075 68.625 -0.225
10.875 65.025 0.225
8.175 66.825 -1.425
9.525 65.025 -0.825
12.225 66.675 -1.725
11.625 65.475 0.525
10.725 68.925 0.675
9.675 68.925 0.375
11.775 65.625 -1.425
8.775 65.475 -0.225
8.775 65.475 -0.525
11.475 65.325 -0.675
11.475 65.325 -0.825
12.075 66.075 -2.625
12.075 66.075 -1.575
12.225 66.525 -2.325
8.925 65.325 -2.025
8.925 65.325 -0.375
9.225 68.775 -0.525
11.025 65.025 -1.575
9.375 65.025 0.825
9.525 68.925 0.675
11.325 65.175 -1.425
8.325 67.875 -0.075
8.625 68.325 -1.275
9.075 65.175 0.525
9.075 65.175 -0.975
8.925 68.625 -0.225
11.925 68.175 -2.475
8.175 67.575 -0.675
12.075 65.925 1.275
10.275 69.075 -0.225
10.275 69.075 0.525
10.125 69.075 0.225
10.125 69.075 -0.825
10.425 69.075 0.525
9.975 69.075 0.375
9.975 69.075 -0.225
9.975 69.075 -0.675
11.025 68.925 0.825
12.225 66.225 -1.725
12.225 66.225 0.525
9.075 68.775 -0.825
11.625 65.325 -1.275
11.625 65.325 1.425
11.625 65.325 -0.675
9.225 65.025 0.975
12.075 68.025 -2.025
12.075 68.025 -1.875
8.775 65.325 -5.775
10.575 69.075 0.375
10.575 69.075 -0.525
9.825 69.075 0.075
11.925 65.625 -1.725
11.925 65.625 -2.325
8.325 68.025 0.225
10.875 64.875 -1.575
11.475 65.175 -1.275
11.475 65.175 0.525
8.925 65.175 0.375
12.375 66.675 -1.425
11.775 68.475 -2.325
10.725 69.075 0.375
9.675 69.075 -0.825
12.225 66.075 -6.525
11.625 68.625 0.675
8.775 68.625 -0.225
8.775 68.625 1.875
12.375 66.525 -1.425
12.375 66.525 -2.475
8.475 68.325 -1.125
8.325 65.775 -1.725
8.325 65.775 -1.125
11.325 65.025 -2.475
9.075 65.025 -1.275
9.375 64.875 0.525
9.975 64.725 -1.425
10.875 69.075 0.525
8.925 68.775 -0.225
8.925 68.775 0.075
8.925 68.775 -0.525
8.925 68.775 -0.375
10.575 64.725 1.275
11.775 65.325 -2.775
11.775 65.325 -0.525
11.775 65.325 -0.825
11.925 65.475 -1.125
8.625 65.325 -0.375
11.625 65.175 2.175
11.625 65.175 -0.675
11.625 65.175 -0.525
11.325 68.925 0.525
9.075 68.925 0.675
9.075 68.925 -2.325
10.125 69.225 -0.075
10.125 69.225 0.075
10.125 69.225 -0.825
11.025 69.075 -0.375
11.025 69.075 0.825
11.175 64.875 -1.725
9.375 69.075 2.175
12.075 65.625 -1.575
9.225 64.875 0.525
9.225 64.875 -1.275
10.425 69.225 -0.225
9.975 69.225 0.225
9.975 69.225 0.075
9.975 69.225 -0.225
9.975 69.225 -1.725
8.175 68.025 -5.625
10.575 69.225 -0.375
10.575 69.225 -0.675
9.825 69.225 -0.225
9.825 69.225 0.075
8.025 67.725 -1.725
8.775 68.775 -0.225
12.075 68.325 -5.925
7.875 66.975 3.375
12.225 65.775 -1.875
12.525 66.675 -1.875
12.375 66.075 -6.225
12.375 66.075 -1.575
12.375 66.075 -6.075
10.725 69.225 0.525
9.675 69.225 0.375
9.675 69.225 0.225
9.225 69.075 -1.575
8.025 66.075 0.375
9.075 64.875 0.525
9.075 64.875 -0.525
8.925 68.925 -1.275
8.925 68.925 -0.525
8.925 68.925 -0.375
11.925 65.325 -1.575
11.775 65.175 0.975
11.775 65.175 -0.675
11.775 65.175 -1.275
12.075 65.475 -2.025
9.525 69.225 0.525
9.975 64.575 -0.075
9.975 64.575 0.075
9.975 64.575 -1.425
11.625 65.025 -1.575
10.575 64.575 -1.125
9.825 64.575 -0.225
11.925 68.625 0.675
8.025 65.925 -0.075
8.025 65.925 -0.525
11.775 68.775 1.425
7.875 67.575 -1.125
8.175 65.625 -0.225
11.175 64.725 -1.425
11.025 69.225 -0.675
12.375 68.025 1.125
9.225 64.725 -0.375
9.375 69.225 0.825
11.475 64.875 -0.375
8.925 64.875 -1.275
8.925 64.875 0.675
11.625 68.925 -0.825
10.425 69.375 -0.375
9.975 69.375 0.075
9.975 69.375 -0.975
9.975 69.375 -0.075
8.775 68.925 -0.075
8.775 68.925 -0.225
10.575 69.375 -0.675
10.575 69.375 -0.975
10.575 69.375 -0.375
10.575 69.375 0.075
9.825 69.375 -0.225
9.825 69.375 -0.525
12.375 65.775 -1.275
9.525 64.575 -0.375
11.925 65.175 -0.675
11.925 65.175 -0.225
11.925 65.175 -1.725
11.925 65.175 -0.075
12.675 66.825 -1.725
12.075 65.325 1.725
12.075 65.325 -1.425
8.025 65.775 -0.525
11.475 69.075 0.975
11.475 69.075 -0.825
12.675 66.675 -1.725
8.925 69.075 0.525
8.925 69.075 -0.675
9.675 69.375 -1.125
9.675 69.375 -0.075
12.225 65.475 -1.575
12.225 65.475 1.275
8.025 68.175 -0.525
12.675 66.525 1.275
11.625 64.875 0.375
11.625 64.875 -0.525
9.375 64.575 -0.675
9.375 64.575 -0.525
12.075 68.625 1.425
8.775 64.875 -1.875
12.675 67.425 2.175
10.275 64.425 -0.075
10.125 64.425 -0.975
9.525 69.375 -0.825
11.775 68.925 0.375
9.975 64.425 -0.825
8.625 68.925 -0.975
12.525 65.925 -1.575
7.875 65.925 0.375
12.525 68.025 -0.075
11.625 69.075 -1.125
9.225 64.575 -0.525
8.775 69.075 -0.375
8.775 69.075 -0.525
8.775 69.075 -0.075
8.775 69.075 -0.225
9.375 69.375 -0.225
7.875 68.025 0.075
12.075 65.175 -0.825
12.075 65.175 -0.525
9.675 64.425 -0.375
9.675 64.425 -0.675
11.925 65.025 -1.425
11.925 65.025 1.725
8.025 68.325 -0.975
8.025 68.325 -0.675
10.125 69.525 -0.975
10.125 69.525 -1.425
12.675 67.725 1.725
9.975 69.525 0.075
9.975 69.525 -1.275
11.775 64.875 -1.425
11.775 64.875 -2.625
10.875 64.425 -0.825
7.875 65.775 -0.375
9.825 69.525 -0.825
9.825 69.525 0.075
9.825 69.525 -0.075
9.525 64.425 -0.675
12.075 68.775 0.975
11.175 69.375 0.375
9.225 69.375 -0.375
9.225 69.375 0.075
9.225 69.375 -1.125
12.225 68.625 0.975
7.725 66.075 -0.375
7.725 66.075 -0.075
10.725 69.525 0.075
7.875 68.175 0.225
7.875 68.175 -0.675
8.175 68.625 -5.775
7.725 67.875 -3.825
7.575 67.275 -3.375
8.625 69.075 -0.225
12.525 65.625 0.825
12.525 65.625 0.525
12.525 65.625 -1.875
12.525 65.625 0.075
10.275 64.275 -0.825
10.125 64.275 -0.675
10.125 64.275 -0.375
11.325 69.375 1.125
11.325 69.375 0.675
10.425 64.275 -0.225
10.425 64.275 -0.375
9.975 64.275 -0.375
9.975 64.275 -0.525
12.075 65.025 -0.525
12.825 66.375 -2.175
7.725 65.925 -0.225
7.725 65.925 0.525
12.225 65.175 -0.525
11.475 64.575 -1.575
11.925 64.875 -1.425
8.775 69.225 0.825
8.775 69.225 -0.375
12.825 67.575 1.875
12.825 67.575 1.575
10.575 64.275 -1.125
10.575 64.275 -0.375
9.825 64.275 -0.525
12.525 68.325 -3.675
7.725 68.025 -1.725
11.025 69.525 0.375
12.375 65.325 0.825
7.875 68.325 -0.225
7.875 68.325 -0.075
9.375 69.525 -0.375
9.375 69.525 -0.225
10.725 64.275 -0.675
7.575 66.225 -0.075
10.275 69.675 -2.175
10.125 69.675 -0.375
11.925 69.075 -1.125
11.925 69.075 0.375
11.925 69.075 -0.075
11.475 69.375 0.525
11.475 69.375 0.375
7.725 65.775 0.375
12.375 68.625 -3.375
12.525 65.475 -1.575
12.525 65.475 -1.425
12.525 65.475 1.275
8.925 69.375 0.375
10.875 64.275 -1.125
11.175 69.525 0.225
9.825 69.675 -0.525
9.075 64.425 0.525
11.775 69.225 0.825
11.775 69.225 -0.375
7.725 68.175 -0.675
7.575 66.075 -0.375
8.625 69.225 -0.225
7.425 67.125 -0.675
7.875 68.475 -0.675
12.075 64.875 -1.425
12.975 67.275 2.175
7.575 67.875 -2.625
7.575 67.875 -1.875
11.025 64.275 -0.825
11.025 64.275 1.575
12.675 65.625 -2.175
11.925 64.725 0.975
11.325 69.525 0.675
8.775 69.375 0.375
10.275 64.125 0.675
10.125 64.125 -0.075
10.125 64.125 0.225
10.125 64.125 -0.675
11.475 64.425 -1.875
10.425 64.125 0.075
12.225 68.925 0.225
12.225 68.925 0.525
12.525 65.325 -2.025
12.075 69.075 -0.675
7.425 66.375 0.075
7.725 68.325 0.375
7.725 68.325 -0.525
7.725 68.325 -2.025
11.175 64.275 -0.975
8.325 69.075 0.375
8.325 69.075 -0.225
8.325 69.075 -0.075
7.575 68.025 -1.425
7.575 68.025 -0.675
10.575 64.125 -0.075
9.225 64.275 -0.675
9.375 69.675 -0.225
11.925 69.225 -0.975
11.925 69.225 0.075
8.475 69.225 -0.375
8.475 69.225 -0.525
8.475 69.225 -0.225
8.475 69.225 -0.075
12.525 68.625 0.975
12.825 65.775 -1.725
12.825 65.775 0.975
9.675 64.125 -1.275
11.475 69.525 0.525
7.575 65.775 -0.225
7.425 67.725 0.975
11.775 69.375 0.975
11.775 69.375 0.075
11.325 64.275 -0.675
11.325 64.275 2.175
12.375 65.025 2.925
8.625 69.375 -0.375
7.575 68.175 -0.225
7.575 68.175 0.075
7.425 66.075 -0.375
7.725 68.475 -0.975
7.725 68.475 -0.675
12.525 65.175 -1.275
10.725 69.825 0.675
11.925 64.575 1.125
7.275 66.975 -0.375
7.425 67.875 -0.675
12.825 65.625 -2.025
12.225 69.075 0.225
11.025 64.125 -0.975
11.025 64.125 2.025
8.175 69.075 -0.225
8.025 68.925 -0.825
12.075 69.225 1.125
11.325 69.675 0.075
12.675 65.325 -2.175
12.525 68.775 -0.675
8.325 69.225 0.375
8.325 69.225 -0.075
8.325 69.225 -0.975
8.925 64.275 1.275
12.825 68.325 0.975
11.775 64.425 0.975
11.775 64.425 1.275
11.775 64.425 -2.175
7.575 68.325 -0.675
7.575 68.325 0.375
7.575 68.325 -0.225
10.125 63.975 0.675
11.925 69.375 -0.975
11.925 69.375 0.675
11.925 69.375 0.375
10.425 63.975 -0.225
8.475 69.375 -0.225
8.475 69.375 1.125
8.475 69.375 -0.375
8.475 69.375 -0.525
8.475 69.375 0.075
8.475 69.375 -1.125
8.475 69.375 -0.075
9.225 64.125 0.825
7.275 66.375 0.825
7.275 66.375 -0.225
13.125 67.575 -4.575
10.575 63.975 0.225
12.825 65.475 -1.575
12.825 65.475 1.125
10.725 63.975 -0.675
7.425 65.775 -0.675
12.075 64.575 -1.875
11.625 64.275 -1.575
8.625 69.525 -0.375
12.975 68.175 0.975
12.975 68.175 1.275
12.975 68.175 1.575
7.275 67.725 -3.375
11.325 64.125 -0.975
12.825 68.475 3.675
9.075 64.125 0.375
9.075 64.125 0.975
12.675 65.175 -1.275
7.425 68.175 -0.075
7.575 68.475 -0.975
7.575 68.475 -0.225
10.875 63.975 -0.525
12.225 69.225 0.225
9.525 63.975 0.225
11.925 64.425 -0.075
8.175 69.225 -0.225
8.175 69.225 1.275
7.275 66.075 -0.825
13.275 66.975 1.875
8.325 69.375 0.375
8.325 69.375 -0.225
7.425 65.625 4.725
12.825 65.325 -2.175
8.775 69.675 -0.225
8.775 69.675 -0.375
9.375 63.975 -0.075
13.275 67.275 1.875
11.475 64.125 -0.975
12.975 68.325 -4.425
8.925 64.125 0.675
11.775 64.275 0.975
11.925 69.525 0.825
11.925 69.525 0.675
7.275 65.925 -0.525
7.275 65.925 -0.825
7.275 65.925 -1.275
7.425 68.325 -1.275
7.425 68.325 -0.675
8.475 69.525 -0.375
8.475 69.525 -6.075
8.475 69.525 -0.525
12.825 68.625 0.525
13.125 68.025 5.175
12.225 64.575 -2.325
11.175 63.975 -0.525
11.175 63.975 2.025
9.975 63.825 0.675
9.975 63.825 0.375
7.125 66.375 -0.075
7.125 66.375 -0.375
7.125 66.375 -1.125
12.075 64.425 1.125
10.575 63.825 -1.125
11.775 69.675 0.975
8.625 69.675 0.075
8.025 69.225 0.675
7.275 65.775 -0.075
11.625 64.125 -0.675
12.225 69.375 0.375
12.225 69.375 0.525
12.225 69.375 0.825
12.825 65.175 -1.875
10.725 63.825 1.275
7.125 66.225 -0.675
7.125 66.225 -0.225
8.175 69.375 -1.125
7.425 68.475 -0.075
7.425 68.475 -0.975
11.925 64.275 0.825
11.925 64.275 1.125
9.075 63.975 0.075
7.125 67.725 -0.675
7.275 68.175 -0.075
12.075 69.525 -0.675
10.875 63.825 -0.225
8.325 69.525 -0.225
8.325 69.525 -0.375
8.325 69.525 -0.525
12.825 68.775 0.825
7.575 68.775 -0.075
12.525 64.725 -0.675
12.525 64.725 1.275
11.625 69.825 0.075
12.375 64.575 -6.375
7.275 65.625 -0.825
8.775 69.825 -0.375
7.125 67.875 -0.525
11.475 63.975 -0.525
13.425 66.675 -0.975
8.475 69.675 0.675
13.425 67.275 1.125
12.975 68.625 1.125
7.125 65.925 -0.375
13.425 66.525 -0.075
13.425 66.525 -0.675
12.825 65.025 -2.175
7.425 68.625 -0.975
12.525 69.225 0.675
6.975 66.525 -0.975
6.975 66.525 -1.125
12.075 64.275 1.275
7.875 69.225 0.825
8.025 69.375 -0.225
8.025 69.375 -0.375
11.175 63.825 0.525
10.275 63.675 -0.375
10.125 63.675 0.525
12.225 69.525 -0.225
9.975 63.675 0.675
6.975 66.375 -0.225
13.425 67.575 1.425
8.175 69.525 -0.825
8.175 69.525 -1.725
8.175 69.525 -1.275
8.175 69.525 -0.525
12.825 68.925 -0.825
12.975 65.175 -1.875
10.575 63.675 1.125
10.575 63.675 1.275
11.625 63.975 -0.975
7.575 68.925 -0.075
13.125 68.475 0.675
13.425 66.225 0.675
13.275 68.175 1.275
13.275 68.175 1.425
6.975 66.225 0.525
6.975 66.225 -0.225
6.975 66.225 0.375
10.725 63.675 1.425
10.725 63.675 0.525
10.725 63.675 0.225
13.425 67.725 1.125
11.325 63.825 0.975
8.325 69.675 -0.375
12.975 68.775 0.675
12.975 68.775 0.825
12.675 64.725 -0.675
7.425 68.775 -1.725
10.875 63.675 -0.375
12.825 64.875 -0.075
13.125 65.325 -2.475
13.125 65.325 -2.625
6.975 66.075 -0.375
6.975 66.075 -0.225
11.775 63.975 -0.225
11.775 63.975 -0.375
12.525 69.375 -0.675
12.675 69.225 0.375
12.675 69.225 0.225
11.475 63.825 -1.425
7.725 69.225 -1.725
11.025 63.675 -0.375
13.575 67.125 1.125
6.825 66.675 0.375
6.825 66.675 -0.525
6.825 66.675 0.075
6.825 66.675 0.225
13.425 68.025 1.425
13.425 68.025 -4.725
8.175 69.675 -0.375
6.825 66.525 0.075
6.825 66.525 0.225
11.175 63.675 -0.225
13.125 65.175 1.725
13.125 65.175 1.875
13.125 65.175 -1.875
10.125 63.525 0.525
9.975 63.525 0.675
6.825 66.375 0.225
13.275 68.475 0.525
12.825 64.725 0.975
12.825 64.725 -0.075
12.825 64.725 -0.525
6.825 67.575 -1.725
10.575 63.525 -2.025
8.325 69.825 -1.875
13.125 68.775 -4.575
6.825 66.225 0.675
10.725 63.525 0.675
13.575 67.725 0.675
13.575 67.725 1.575
12.675 69.375 -0.975
12.225 64.125 1.275
12.825 69.225 0.525
7.875 69.525 0.675
13.425 65.625 1.725
6.825 66.075 0.225
8.025 69.675 -1.125
12.975 69.075 0.525
12.975 69.075 0.675
11.025 63.525 -0.375
13.575 65.925 0.825
8.175 69.825 1.875
8.175 69.825 0.075
8.175 69.825 -0.075
13.725 67.125 1.575
13.125 68.925 0.525
13.125 68.925 0.975
6.675 66.825 0.075
7.275 68.925 -1.575
7.275 68.925 -0.525
6.675 66.675 -0.975
12.975 64.725 -0.525
6.675 66.525 -0.975
6.675 66.525 -0.075
11.925 63.825 -0.375
13.425 68.475 -0.975
13.725 66.375 0.675
12.825 69.375 0.375
12.825 69.375 0.075
13.275 68.775 0.975
6.975 68.475 0.075
13.725 67.575 1.275
13.125 64.875 -1.725
13.125 64.875 -6.825
7.575 69.375 -0.975
13.575 68.175 -4.725
12.975 69.225 0.675
12.975 69.225 -0.825
11.325 63.525 0.975
13.425 65.325 1.425
13.575 65.625 2.325
7.275 69.075 -0.675
7.275 69.075 -0.975
13.725 66.075 0.825
13.725 66.075 0.975
11.775 63.675 0.075
11.775 63.675 -1.125
13.425 68.625 1.125
6.675 66.075 -0.375
12.675 64.275 -0.975
12.675 64.275 -1.275
12.075 63.825 -0.525
12.075 63.825 -1.425
13.725 67.875 0.825
6.975 68.625 -1.575
6.975 68.625 -1.425
13.575 68.325 -4.275
12.975 64.575 0.975
12.975 64.575 -0.525
12.975 64.575 -0.075
8.175 69.975 0.225
8.175 69.975 0.675
6.675 67.875 0.675
13.275 68.925 -0.375
7.125 68.925 -0.675
13.125 64.725 -0.525
13.125 64.725 -0.825
6.675 65.925 -0.825
12.825 69.525 -4.125
6.525 66.975 -0.075
6.525 66.825 -1.875
6.525 66.825 -0.225
6.525 67.125 -0.225
12.975 69.375 0.075
7.725 69.675 -0.825
6.525 66.675 -0.375
6.525 66.675 0.225
6.675 68.025 -0.075
7.425 69.375 -0.975
11.925 63.675 0.075
11.925 63.675 -0.825
13.575 68.475 1.125
13.575 68.475 1.275
13.575 68.475 -0.375
11.625 63.525 1.275
13.425 68.775 0.975
6.525 66.525 -1.125
6.525 66.525 -0.375
13.125 69.225 0.375
7.875 69.825 0.675
7.875 69.825 -0.375
13.725 65.775 0.975
6.825 68.475 0.375
6.525 67.425 0.075
12.225 63.825 -0.825
6.525 66.375 -0.075
6.525 67.575 0.075
13.275 69.075 -4.275
13.275 69.075 0.675
13.275 69.075 -4.425
13.875 66.225 0.825
13.875 66.225 1.725
12.825 64.275 2.025
12.825 64.275 -0.975
12.975 64.425 -0.675
7.125 69.075 -6.375
7.125 69.075 -0.225
7.125 69.075 -0.675
6.525 66.225 -0.225
11.775 63.525 -1.275
13.575 68.625 1.275
12.075 63.675 -0.375
12.075 63.675 -1.425
12.075 63.675 -0.825
13.875 66.075 0.975
13.875 66.075 1.425
13.875 66.075 1.125
8.175 70.125 0.225
13.425 68.925 0.825
13.725 68.325 0.675
13.275 64.725 -2.175
6.975 68.925 -0.675
6.675 68.325 0.225
7.575 69.675 0.525
7.575 69.675 -0.075
13.125 69.375 -0.075
7.725 69.825 0.375
7.725 69.825 0.825
13.575 65.175 -1.575
13.875 65.925 0.675
13.875 65.925 1.425
13.875 65.925 1.275
6.525 65.925 0.525
14.025 66.975 1.125
14.025 67.125 1.425
6.375 66.975 -0.225
6.375 66.825 -0.375
6.375 66.825 -0.975
6.375 66.825 -1.275
6.375 66.825 -0.075
6.375 66.825 -0.675
13.725 68.475 1.425
6.375 66.675 0.075
14.025 66.525 0.525
12.225 63.675 -0.525
12.975 64.275 -0.825
6.675 68.475 -1.425
12.825 64.125 -1.275
14.025 67.425 0.225
13.875 65.775 2.475
6.375 66.525 -0.375
8.025 70.125 0.225
8.025 70.125 0.075
13.125 64.425 -0.525
6.375 67.425 -0.075
6.375 67.425 0.525
6.375 67.425 0.225
13.425 69.075 -0.075
6.525 65.775 0.225
6.975 69.075 -0.225
6.375 66.375 -0.825
13.725 65.325 -1.875
13.725 65.325 1.575
13.725 65.325 -1.725
6.525 68.175 -0.825
6.525 68.175 -0.525
14.025 66.225 0.525
14.025 66.225 1.275
6.375 66.225 -0.075
12.075 63.525 -0.375
12.075 63.525 -0.825
12.075 63.525 -0.075
14.025 67.725 1.275
11.775 63.375 1.125
11.775 63.375 -0.825
11.775 63.375 1.275
13.875 65.625 1.275
13.875 65.625 -0.825
13.725 68.625 0.525
13.725 68.625 0.975
13.725 68.625 -0.075
13.725 68.625 -0.675
8.175 70.275 0.675
13.425 64.725 -2.475
13.275 69.375 0.225
7.725 69.975 0.225
14.025 66.075 0.975
6.825 68.925 -0.675
7.125 69.375 -1.575
12.375 63.675 -0.525
12.375 63.675 -0.675
6.525 68.325 -1.275
14.025 67.875 0.975
14.025 67.875 0.825
6.375 67.875 -1.125
11.325 70.725 -1.275
13.425 69.225 0.525
13.875 65.475 1.575
14.025 65.925 0.675
14.025 65.925 -0.225
14.025 65.925 1.425
8.625 70.575 0.375
11.925 63.375 -6.525
11.925 63.375 0.225
14.025 68.025 -4.875
14.025 68.025 0.675
14.025 68.025 0.975
14.175 66.975 1.125
13.275 64.425 0.075
13.275 64.425 -0.075
12.225 63.525 -0.525
14.175 66.825 1.125
14.175 66.825 0.675
14.175 66.825 0.825
14.175 67.125 1.125
6.675 68.775 -2.025
6.375 68.025 -1.425
8.025 70.275 0.375
6.225 66.825 -0.525
6.225 66.825 -0.075
6.225 66.825 -0.975
6.225 66.825 -0.825
6.225 66.825 -0.675
6.225 67.125 -0.075
6.525 68.475 -1.425
13.575 69.075 0.375
6.225 66.675 -0.075
14.175 66.525 -0.375
14.175 66.525 0.825
14.175 67.425 1.425
14.175 67.425 2.175
14.175 67.425 0.675
6.225 67.425 -0.075
14.175 66.375 0.525
14.175 66.375 0.675
13.875 65.325 -0.675
13.875 65.325 -2.025
13.875 65.325 -0.375
7.575 69.975 0.675
6.225 66.375 -0.825
6.225 66.375 0.075
6.375 68.175 -0.675
6.375 68.175 -0.825
12.075 63.375 -0.975
12.075 63.375 -0.525
6.225 67.575 -0.375
7.725 70.125 -0.375
13.425 69.375 -0.375
13.425 69.375 -3.825
14.175 66.225 0.375
13.725 68.925 -0.225
14.025 65.625 1.125
6.975 69.375 -1.425
14.175 67.725 0.975
6.675 68.925 -0.825
12.375 63.525 0.375
6.225 67.725 -0.075
14.025 68.325 -0.375
14.175 66.075 1.275
7.875 70.275 -0.225
13.275 64.275 -0.525
6.825 69.225 -1.575
6.825 69.225 -1.875
13.425 64.425 -0.825
13.425 64.425 -0.525
14.025 65.475 -0.975
11.925 63.225 1.875
11.925 63.225 0.075
11.925 63.225 -0.075
14.175 65.925 1.125
14.175 65.925 1.575
13.875 68.775 0.675
13.875 68.775 0.225
13.875 68.775 0.825
12.225 63.375 0.825
12.225 63.375 -0.825
12.225 63.375 -0.525
6.375 65.475 -0.375
7.425 69.975 0.375
14.175 68.025 -0.075
14.325 66.825 0.525
6.675 69.075 -1.725
6.375 68.475 -1.425
7.575 70.125 0.375
7.575 70.125 1.275
14.325 66.675 0.525
6.075 66.975 -0.525
6.075 66.975 -0.975
6.075 66.825 -0.525
6.075 66.825 -0.975
14.325 67.275 1.125
6.075 66.675 -1.275
6.075 66.675 -0.225
14.325 66.525 1.425
6.075 67.275 -0.075
14.025 65.325 -0.825
6.075 66.525 -0.075
8.475 70.725 0.675
8.475 70.725 -1.425
6.075 67.425 -0.075
6.075 67.425 -0.375
14.325 66.375 -0.525
14.325 66.375 1.725
12.075 63.225 -0.075
6.825 69.375 -0.675
14.325 67.575 1.275
14.325 67.575 0.825
14.325 67.575 0.975
13.275 64.125 -2.325
6.075 66.375 -0.975
12.375 63.375 -0.675
6.075 67.575 -0.075
6.525 68.925 -1.125
6.525 68.925 -0.975
13.425 64.275 -0.375
7.875 70.425 0.375
14.325 67.725 1.125
14.175 68.325 0.075
14.175 68.325 0.225
14.175 68.325 -0.075
13.575 64.425 -0.525
14.025 65.175 -0.225
6.225 68.325 -0.525
12.675 63.525 -0.975
12.225 63.225 0.075
12.225 63.225 -0.525
12.225 63.225 -0.975
6.075 67.875 0.075
8.025 70.575 0.375
8.625 70.875 0.075
13.875 69.075 -0.075
7.575 70.275 0.075
14.325 65.925 2.475
6.825 69.525 -0.675
6.075 65.925 -3.675
14.175 68.475 0.075
14.175 68.475 -5.025
14.175 68.475 0.525
12.525 63.375 -0.825
12.525 63.375 0.975
12.525 63.375 2.175
12.525 63.375 2.625
14.475 66.975 0.975
13.275 63.975 -0.525
14.475 66.825 0.975
14.475 66.825 1.575
14.475 66.825 1.875
14.025 65.025 1.575
14.025 65.025 2.775
13.425 64.125 -0.075
14.475 67.275 0.825
5.925 67.125 -0.675
5.925 67.125 -0.525
8.175 70.725 -5.025
5.925 67.275 -0.075
5.925 67.275 0.075
14.475 67.425 2.025
12.075 63.075 0.975
12.075 63.075 0.375
14.025 68.925 -4.875
14.025 68.925 0.525
12.375 63.225 -1.125
12.375 63.225 -0.525
5.925 67.425 -0.675
5.925 67.425 -0.075
14.175 68.625 0.225
6.375 68.925 -0.975
5.925 66.375 -0.075
7.275 70.125 0.975
6.975 69.825 0.525
7.425 70.275 0.375
7.425 70.275 -0.075
7.425 70.275 0.225
12.675 63.375 -0.675
12.675 63.375 -1.125
14.325 68.325 -0.375
14.175 65.175 -0.975
5.925 67.725 0.225
14.475 66.075 0.975
12.225 63.075 0.525
12.225 63.075 0.225
14.175 68.775 -5.025
6.675 69.525 1.125
6.675 69.525 -0.675
6.675 69.525 -0.375
6.675 69.525 -0.975
13.425 63.975 -0.525
5.925 67.875 0.675
5.925 67.875 0.075
12.525 63.225 -0.225
12.525 63.225 -0.975
12.525 63.225 -0.375
14.475 65.925 0.975
14.325 68.475 -0.525
13.875 69.375 -4.725
14.475 68.025 0.375
14.175 65.025 2.625
14.175 65.025 -0.675
6.525 69.375 -0.675
6.525 69.375 -1.725
6.525 69.375 -1.125
6.525 69.375 -0.825
5.925 68.025 0.225
14.025 64.725 -1.875
8.925 71.175 -0.675
14.625 66.825 0.675
14.625 67.125 0.975
14.625 67.125 1.275
14.625 66.675 0.825
6.975 69.975 0.525
5.775 66.975 -0.375
12.075 62.925 0.225
12.075 62.925 0.375
5.775 67.125 -0.375
5.775 67.125 -0.975
7.275 70.275 0.075
12.375 63.075 0.375
12.375 63.075 2.175
12.375 63.075 -0.075
7.875 70.725 -0.525
5.775 67.275 0.075
5.925 68.175 0.075
7.425 70.425 -0.075
11.775 62.775 2.625
6.375 69.225 -1.425
14.625 67.575 1.275
14.625 67.575 0.675
14.625 66.225 1.275
14.625 66.225 0.375
5.925 65.625 -1.125
5.925 65.625 0.075
7.575 70.575 0.075
7.575 70.575 -0.075
7.575 70.575 -0.225
14.325 65.175 -0.525
6.225 64.875 2.625
14.475 68.325 0.075
13.575 63.975 -0.525
6.525 69.525 -0.225
5.925 68.325 0.825
5.775 67.725 0.225
5.775 67.725 0.075
5.775 67.725 -1.575
5.775 67.725 -0.375
6.375 64.575 0.375
13.725 64.125 -0.075
12.525 63.075 -0.525
9.075 71.325 -5.475
6.975 70.125 -1.725
14.475 68.475 0.225
14.625 65.925 1.425
6.375 69.375 -0.825
7.125 70.275 0.525
14.325 65.025 2.475
5.925 68.475 -0.075
13.725 69.825 -4.425
12.825 63.225 -0.675
7.275 70.425 -0.075
6.675 69.825 -2.025
8.175 71.025 -0.375
5.775 68.025 -0.075
5.775 68.025 -0.375
14.475 65.325 -1.575
12.075 62.775 0.075
14.775 66.825 1.425
14.625 65.775 1.125
7.425 70.575 -0.075
7.425 70.575 0.225
14.775 67.125 0.075
6.075 68.925 -2.625
5.625 67.125 -0.675
5.625 67.125 -0.375
6.225 69.225 -0.675
14.775 66.525 2.025
12.675 63.075 -0.675
5.625 67.275 -0.825
14.775 67.425 0.675
14.775 67.425 0.825
5.775 68.175 -0.075
5.775 68.175 0.225
5.625 66.525 -0.525
13.725 63.975 -0.525
13.725 63.975 0.075
7.575 70.725 1.125
7.575 70.725 1.875
11.325 62.475 -2.625
13.125 63.375 -0.975
6.375 69.525 -0.225
14.475 65.175 -0.825
14.475 65.175 -0.975
5.625 67.575 -1.125
5.625 67.575 -0.675
8.025 71.025 -0.825
13.875 64.125 -0.825
12.225 62.775 -0.075
5.625 66.225 -0.075
12.975 63.225 -0.675
6.975 70.275 -0.525
5.775 68.325 -0.375
5.775 68.325 0.075
12.525 62.925 2.925
12.525 62.925 0.075
5.625 67.725 0.525
5.625 67.725 -0.825
5.625 67.725 -0.525
7.125 70.425 0.075
6.225 69.375 0.675
7.275 70.575 0.675
7.275 70.575 0.225
12.825 63.075 -0.975
5.625 67.875 -0.075
5.625 67.875 -1.275
14.475 65.025 -0.525
14.475 65.025 -0.975
7.425 70.725 -0.075
14.775 68.025 -0.225
13.425 63.525 -0.375
13.425 63.525 -0.675
13.725 63.825 -0.075
13.725 63.825 0.225
5.625 68.025 -1.125
5.625 68.025 -0.525
8.925 71.475 -5.625
13.275 63.375 -0.825
12.675 62.925 -0.375
13.875 63.975 -0.525
14.925 66.825 2.175
14.925 66.675 1.125
13.125 63.225 -0.975
14.775 68.175 0.525
5.475 67.275 -0.375
5.625 68.175 -0.075
5.625 68.175 0.225
14.475 64.875 -0.375
6.825 70.275 0.225
6.975 70.425 -0.375
14.325 64.575 -2.625
5.475 67.425 -1.125
5.475 67.425 -0.375
14.775 65.625 2.475
12.975 63.075 -0.675
12.975 63.075 -0.975
12.975 63.075 -0.375
14.625 65.175 -0.825
14.625 65.175 -1.575
7.125 70.575 -0.375
12.525 62.775 0.525
14.775 68.325 0.075
7.725 71.025 1.575
7.275 70.725 -0.075
5.625 68.325 0.075
14.925 67.725 0.975
14.175 64.275 -1.875
5.475 67.725 -1.725
14.775 65.475 0.225
13.575 63.525 -0.675
13.725 63.675 -0.525
7.425 70.875 0.975
13.875 63.825 0.225
13.875 63.825 -0.375
14.625 65.025 -1.125
5.475 67.875 -1.275
5.475 67.875 -0.675
5.475 67.875 -0.375
7.875 71.175 0.375
14.475 69.225 -4.875
12.675 62.775 -0.075
13.125 63.075 -0.525
13.125 63.075 -0.675
13.125 63.075 -1.275
5.475 68.025 -0.825
5.475 68.025 -0.975
6.975 70.575 0.375
6.975 70.575 0.075
6.525 70.125 0.525
14.175 64.125 -0.825
6.075 69.525 -0.225
15.075 66.825 1.425
15.075 67.125 0.975
5.625 68.625 0.075
5.625 68.625 -3.525
14.625 64.875 -0.975
12.975 62.925 -0.075
12.975 62.925 1.575
12.975 62.925 -0.375
12.975 62.925 -0.225
6.375 69.975 0.975
5.475 68.175 0.225
5.475 68.175 0.075
5.475 68.175 -0.075
5.475 68.175 -0.825
5.475 68.175 -0.375
15.075 67.425 0.525
14.775 65.175 -2.025
14.775 65.175 -0.225
7.275 70.875 -0.225
15.075 66.375 1.125
7.725 71.175 0.825
12.225 62.475 -0.525
14.625 69.075 -5.325
6.225 69.825 -0.825
6.225 69.825 -0.675
13.875 63.675 -0.525
5.775 69.075 -0.375
13.425 63.225 1.575
5.925 69.375 -0.225
12.825 62.775 0.375
12.825 62.775 -0.075
7.425 71.025 -1.125
13.275 63.075 -0.225
13.275 63.075 -0.675
13.275 63.075 -0.375
13.275 63.075 -0.525
14.625 64.725 -0.225
14.775 65.025 -0.675
14.775 65.025 -1.275
13.125 62.925 -0.525
13.125 62.925 -0.675
5.325 67.875 0.075
5.325 67.875 -1.425
5.325 67.875 -0.825
14.025 70.125 1.575
5.475 68.475 -0.075
15.075 65.925 0.675
11.625 62.175 1.725
7.575 71.175 0.075
15.075 68.025 -0.075
14.925 65.325 -0.525
8.475 71.625 -0.675
6.225 69.975 -1.125
6.225 69.975 0.525
6.225 69.975 -0.825
12.975 62.775 -0.075
14.625 64.575 -0.075
14.775 64.875 -0.075
14.775 64.875 0.525
15.225 66.825 0.975
11.775 62.175 1.425
5.625 64.875 -0.375
14.025 63.675 -0.525
14.025 63.675 -0.075
14.025 63.675 0.075
14.025 63.675 -1.425
15.225 67.275 0.975
15.225 67.275 -0.375
15.225 67.275 0.825
5.325 68.175 -0.825
5.325 68.175 -0.375
13.425 63.075 -0.675
13.425 63.075 -0.975
13.425 63.075 -0.825
6.075 69.825 -0.825
6.075 69.825 -2.475
12.525 62.475 0.225
15.225 67.425 0.075
5.925 64.275 0.825
15.075 65.625 -0.225
14.175 63.825 -0.825
12.825 62.625 0.225
15.225 66.375 1.425
13.275 62.925 -0.825
6.525 70.425 -2.175
5.325 68.325 0.075
6.375 70.275 -2.025
5.925 69.675 0.975
14.775 64.725 -0.525
13.125 62.775 -0.675
15.225 66.075 0.825
14.925 65.025 0.375
12.375 62.325 0.075
7.125 71.025 0.075
5.325 68.475 -0.075
6.075 69.975 -0.375
5.775 69.525 0.975
13.575 63.075 -0.975
12.975 62.625 -0.225
15.075 65.325 -0.975
14.175 63.675 -0.525
14.175 63.675 -3.525
14.175 63.675 -1.275
5.175 68.025 -1.125
13.425 62.925 -0.825
14.925 64.875 -0.975
5.925 69.825 -0.825
5.325 68.625 -0.075
14.025 70.425 1.275
6.525 70.575 -2.175
15.375 66.975 0.825
15.375 66.825 2.025
15.375 66.825 0.225
6.675 70.725 -0.825
15.375 67.125 0.675
6.375 70.425 -2.025
15.375 66.675 1.125
13.275 62.775 -0.675
13.275 62.775 -0.975
5.175 68.175 -1.275
15.375 67.275 0.225
15.075 65.175 -1.275
6.825 70.875 0.375
6.825 70.875 -0.375
5.625 69.375 0.675
15.225 65.625 -0.075
6.975 71.025 -0.525
6.975 71.025 -0.375
13.125 62.625 -0.675
13.125 62.625 0.075
5.175 68.325 -0.375
14.775 64.425 -0.075
15.375 66.225 1.425
15.225 65.475 -0.525
13.725 63.075 -0.825
15.075 65.025 -1.125
15.075 65.025 -1.725
15.075 65.025 -0.375
15.075 65.025 -0.825
14.175 63.525 -0.375
5.925 69.975 -0.375
13.575 62.925 -0.975
13.575 62.925 -0.675
5.475 69.225 -1.725
5.175 68.475 -1.275
5.175 68.475 -0.825
12.975 62.475 -0.075
14.325 63.675 -0.525
13.425 62.775 -0.525
13.425 62.775 -0.675
5.775 69.825 -0.825
5.775 69.825 -0.675
6.225 70.425 -1.875
6.225 70.425 -2.175
15.075 64.875 -0.525
6.825 71.025 0.375
6.975 71.175 0.525
5.025 68.175 -0.375
5.325 69.075 0.375
5.625 69.675 -0.825
5.175 65.175 -0.375
5.925 70.125 -1.725
13.875 63.075 -0.975
13.875 63.075 -1.125
15.525 66.525 0.975
13.125 62.475 -0.675
6.525 63.075 1.275
13.725 62.925 -0.675
15.075 64.725 -1.125
5.175 68.775 -0.075
13.575 62.775 -0.525
13.575 62.775 -0.675
5.025 68.325 -1.125
5.775 69.975 -0.225
15.225 65.025 -0.675
15.225 65.025 -0.525
15.225 65.025 -1.275
6.375 70.725 -0.525
12.975 62.325 -0.075
12.975 62.325 0.075
12.975 62.325 0.375
13.425 62.625 0.075
15.525 66.075 1.425
14.325 70.425 2.775
5.025 68.475 -0.675
5.025 68.475 -0.825
5.025 68.475 -0.375
15.375 65.325 -0.375
13.275 62.475 0.225
13.275 62.475 -0.225
5.925 70.275 -0.825
15.225 64.875 -0.075
15.225 64.875 -0.375
15.225 64.875 -0.675
15.225 64.875 -6.225
15.225 64.875 -1.125
14.025 63.075 -0.675
14.175 63.225 -0.975
14.325 63.375 0.075
5.325 69.375 -1.725
5.775 70.125 -1.425
5.775 70.125 -0.675
5.775 70.125 -1.725
13.725 62.775 -0.375
13.725 62.775 -0.975
13.725 62.775 -0.825
13.725 62.775 -0.675
15.375 65.175 -3.375
15.375 65.175 -0.525
13.125 62.325 0.375
15.675 66.825 1.125
15.675 67.125 0.375
13.575 62.625 -0.225
13.575 62.625 -0.375
15.675 67.275 -0.375
15.075 64.425 0.075
15.225 64.725 -0.825
15.225 64.725 -0.225
15.225 64.725 1.125
15.675 67.425 -0.225
14.325 70.575 2.475
5.625 69.975 -1.125
5.625 69.975 0.225
5.025 68.775 -0.075
5.025 68.775 -0.825
14.625 63.675 1.275
6.075 70.575 -0.975
6.075 70.575 0.675
15.675 66.375 1.425
4.875 68.325 -0.525
13.425 62.475 -0.375
13.425 62.475 -0.675
13.425 62.475 -0.525
6.675 71.175 0.975
15.375 65.025 1.275
15.375 65.025 -0.525
15.375 65.025 -0.825
12.975 62.175 -1.125
5.925 70.425 0.975
7.425 62.175 0.225
5.175 69.225 -0.975
14.775 63.825 0.825
6.825 71.325 0.225
6.825 71.325 -0.225
5.775 70.275 -0.825
5.775 70.275 -1.125
14.025 62.925 -0.675
14.025 62.925 0.075
4.875 68.475 -0.975
4.875 68.475 -0.525
13.275 62.325 0.375
13.275 62.325 0.525
4.725 66.075 1.725
14.325 63.225 -0.825
14.325 63.225 -0.975
15.225 64.575 -0.375
15.225 64.575 -0.075
15.225 64.575 0.225
15.075 64.275 -0.375
13.875 62.775 -0.975
13.875 62.775 -0.825
15.525 65.325 1.575
15.675 65.925 1.125
15.375 64.875 -0.225
15.375 64.875 1.425
15.375 64.875 -0.075
5.625 70.125 -0.825
5.625 70.125 0.675
5.625 70.125 -2.175
4.875 68.625 -0.675
4.875 68.625 -1.575
4.875 68.625 -0.975
5.325 69.675 0.075
13.125 62.175 -0.675
13.575 62.475 0.075
13.575 62.475 -0.375
15.825 66.975 0.375
15.675 65.625 -0.225
15.675 65.625 1.575
13.425 62.325 -0.075
13.425 62.325 0.225
13.425 62.325 0.525
5.775 70.425 -2.325
5.775 70.425 1.125
4.875 68.775 -0.375
14.175 62.925 -0.675
14.325 63.075 -0.525
5.175 69.525 -1.725
15.525 65.025 1.575
14.475 63.225 0.075
5.625 70.275 -0.225
5.625 70.275 -0.375
15.675 65.475 -0.375
15.675 65.475 -0.525
13.875 62.625 -0.675
13.275 62.175 -0.075
15.225 64.275 -0.525
15.375 64.575 -0.375
15.375 64.575 -0.075
13.725 62.475 -0.525
4.725 68.475 -0.225
4.725 68.475 -0.375
4.725 68.475 -0.675
4.725 68.475 -0.975
14.175 71.025 2.025
5.475 70.125 -0.825
5.475 70.125 -1.725
6.225 71.025 0.825
15.075 63.975 0.375
6.375 71.175 0.975
13.575 62.325 -0.075
13.575 62.325 -0.375
13.575 62.325 0.075
6.525 71.325 -1.125
5.175 69.675 1.425
4.725 68.625 -0.525
6.675 71.475 -0.675
8.325 72.375 1.275
13.425 62.175 0.675
14.325 62.925 -0.525
14.325 62.925 -1.125
14.475 63.075 -0.525
14.025 62.625 -1.125
14.025 62.625 -0.825
15.825 65.625 1.125
6.825 71.625 -0.225
14.625 63.225 -0.525
14.625 63.225 -0.075
14.625 63.225 4.275
4.725 68.775 -0.525
15.975 67.275 -0.375
13.875 62.475 -0.225
13.875 62.475 -0.375
5.475 70.275 0.525
15.675 65.025 0.075
8.175 72.375 1.125
14.775 63.375 0.975
13.725 62.325 -0.075
6.375 71.325 0.375
6.375 71.325 0.525
5.775 70.725 -2.625
5.325 70.125 -0.825
4.725 68.925 -0.375
4.725 68.925 -0.075
14.925 63.525 -1.275
4.575 68.475 -0.825
15.975 66.075 1.725
5.625 70.575 0.075
15.675 64.875 -0.525
15.675 64.875 0.375
8.025 72.375 -0.675
5.025 69.675 -1.425
6.675 71.625 -0.825
15.075 63.675 0.375
15.075 63.675 0.075
5.175 69.975 -2.025
5.475 70.425 -2.175
5.475 70.425 1.125
14.625 63.075 0.375
14.625 63.075 -0.525
4.575 68.625 -0.375
4.575 68.625 -0.975
14.025 62.475 -0.375
14.025 62.475 -0.525
4.425 68.025 0.675
15.525 64.425 0.825
15.525 64.425 -0.975
15.525 64.425 0.375
15.525 64.425 -0.225
15.825 65.175 0.375
14.775 63.225 -0.525
14.775 63.225 -0.975
14.775 63.225 -0.825
14.775 63.225 -1.275
6.825 71.775 0.375
13.875 62.325 0.225
15.675 64.725 0.075
15.675 64.725 -0.225
15.675 64.725 0.525
