# .PCD v0.7 - Point Cloud Data file format
VERSION 0.7
FIELDS x y z
SIZE 4 4 4
TYPE F F F
COUNT 1 1 1
WIDTH 2048
HEIGHT 1
VIEWPOINT 0 0 0 1 0 0 0
POINTS 2048
DATA ascii
-3.225 18.675 1.125
-3.075 18.825 0.525
-3.075 18.675 2.775
-3.675 19.125 0.675
-3.375 18.225 -0.075
-3.075 18.225 1.275
-3.825 18.975 2.025
-3.525 18.225 0.375
-3.825 18.525 -0.225
-3.675 18.225 1.125
-3.975 18.975 2.025
-3.225 17.925 1.575
-3.375 17.925 2.625
-3.375 17.925 0.825
-3.075 19.725 2.025
-3.525 17.925 1.725
-3.525 19.725 2.325
-3.975 19.425 2.325
-3.375 19.875 1.125
-3.375 17.775 1.575
-3.525 17.775 1.725
-4.275 19.275 2.775
-3.675 19.875 2.325
-3.225 20.025 1.725
-3.825 19.875 0.675
-4.275 19.425 2.025
-3.675 20.025 2.175
-3.825 20.025 2.775
-4.575 18.825 1.575
-3.225 20.175 1.575
-4.575 18.975 2.625
-4.575 19.425 2.475
-3.825 20.175 2.175
-3.825 20.175 3.225
-4.275 17.775 2.025
-4.425 17.925 0.975
-3.375 20.325 1.275
-2.925 17.325 -1.275
-4.725 18.375 0.975
-4.425 17.775 -1.125
-4.425 17.775 1.875
-4.425 19.875 3.225
-4.725 18.225 0.675
-4.725 18.225 1.275
-3.825 20.325 2.025
-4.575 17.925 0.975
-4.725 18.075 1.575
-4.725 18.075 0.975
-4.875 19.125 2.475
-4.875 18.525 0.975
-3.525 20.475 1.725
-3.525 20.475 -1.875
-4.875 18.375 1.125
-4.575 17.775 -1.575
-4.725 17.925 2.025
-4.125 20.325 2.325
-4.725 19.725 1.875
-4.575 17.625 2.175
-5.025 18.975 -3.825
-3.375 20.625 1.125
-3.075 17.025 1.725
-4.425 20.175 3.375
-4.425 20.175 2.325
-4.875 19.575 2.775
-5.025 18.525 1.125
-5.025 19.125 2.625
-5.025 18.525 0.975
-5.025 18.525 1.875
-3.525 17.025 -1.725
-4.275 20.325 2.025
-4.275 20.325 2.325
-5.025 18.375 1.275
-2.775 17.025 0.825
-4.875 19.725 1.875
-4.125 20.475 2.775
-5.025 18.225 1.875
-5.025 18.225 0.825
-5.025 18.225 2.925
-3.825 20.625 2.325
-4.575 20.175 2.475
-4.725 17.625 -0.075
-5.175 18.825 -1.725
-5.025 18.075 0.075
-5.175 18.675 2.025
-5.175 18.975 -0.225
-4.275 20.475 1.125
-3.525 20.775 2.775
-5.175 18.525 1.725
-5.175 18.525 0.525
-3.675 20.775 2.475
-5.175 19.275 1.125
-4.125 20.625 2.025
-4.725 17.475 0.075
-4.725 20.175 2.475
-4.725 20.175 3.525
-4.425 17.175 -2.175
-5.175 18.225 0.675
-3.825 16.875 -1.725
-4.875 17.625 -2.475
-5.175 19.425 1.575
-4.425 20.475 2.475
-4.275 20.625 3.225
-5.025 17.775 1.875
-5.025 17.775 0.225
-5.025 19.875 2.175
-3.975 20.775 1.875
-5.175 18.075 0.675
-5.325 18.675 1.275
-5.325 18.675 2.025
-4.725 20.325 3.225
-5.325 18.525 0.675
-4.875 17.475 2.475
-4.875 20.175 3.375
-4.575 20.475 4.125
-5.175 17.925 0.825
-4.125 20.775 2.775
-4.125 20.775 1.725
-5.325 18.375 2.025
-5.325 18.375 1.275
-5.325 18.375 1.875
-3.675 20.925 2.625
-4.425 17.025 3.675
-4.425 20.625 3.525
-4.425 17.025 3.825
-2.625 16.725 -2.475
-4.275 16.875 1.725
-4.275 20.775 1.425
-4.275 16.875 3.375
-5.175 17.775 -0.075
-4.725 17.175 3.825
-4.875 17.325 2.775
-4.875 17.325 2.475
-4.875 20.325 2.475
-5.325 18.075 1.125
-4.875 20.325 0.975
-4.875 17.325 3.525
-3.975 20.925 2.025
-5.475 18.825 3.075
-4.575 20.625 3.225
-4.575 17.025 3.525
-5.475 18.675 0.675
-5.325 17.925 0.525
-5.325 17.925 0.675
-5.325 17.925 1.425
-4.125 20.925 2.925
-4.425 16.875 -3.225
-4.425 16.875 4.125
-5.175 17.625 -3.375
-5.475 18.375 1.425
-5.475 18.225 0.975
-5.475 18.225 1.575
-5.475 18.225 0.675
-5.475 19.425 1.125
-4.725 20.625 0.975
-5.025 20.325 2.325
-4.275 16.725 1.725
-5.325 19.875 2.775
-4.275 20.925 2.775
-4.275 20.925 2.325
-4.275 20.925 2.475
-4.575 16.875 4.125
-5.475 18.075 -0.825
-5.475 18.075 1.425
-5.475 18.075 0.975
-3.975 16.575 0.375
-3.225 16.425 3.675
-5.625 18.825 1.425
-5.625 18.825 1.275
-5.625 18.825 1.875
-5.625 18.675 2.625
-5.625 18.675 0.975
-5.325 20.025 -0.975
-5.325 20.025 2.925
-5.625 19.125 3.525
-5.625 18.525 1.275
-4.425 20.925 2.175
-3.525 21.225 2.325
-5.475 17.925 0.225
-5.475 17.925 0.675
-4.125 21.075 2.925
-4.125 21.075 3.075
-5.625 18.375 0.525
-5.625 19.275 2.625
-5.625 19.275 2.925
-5.025 20.475 3.225
-3.675 21.225 2.475
-4.725 20.775 2.625
-4.725 16.875 3.825
-3.825 21.225 2.775
-5.475 17.775 2.925
-5.475 17.775 0.825
-4.575 16.725 -2.625
-4.575 16.725 4.275
-5.325 17.475 1.875
-4.575 20.925 2.475
-4.575 20.925 2.625
-4.575 20.925 3.075
-5.625 18.075 0.975
-5.625 18.075 0.825
-3.975 21.225 3.075
-5.025 20.625 3.075
-5.475 17.625 1.875
-4.425 21.075 2.775
-5.775 18.825 1.275
-4.875 20.775 2.625
-5.775 18.675 -0.225
-5.625 19.725 2.775
-5.775 19.125 2.625
-5.775 18.525 0.375
-2.925 16.275 -2.775
-5.325 20.325 2.175
-5.325 17.325 3.675
-4.725 20.925 1.125
-5.775 19.275 2.775
-5.775 18.225 1.275
-5.625 19.875 2.625
-5.625 17.775 1.275
-4.275 21.225 2.325
-4.575 21.075 1.575
-5.025 20.775 3.675
-5.025 16.875 -3.525
-5.025 20.775 3.525
-5.175 17.025 3.825
-5.775 19.575 2.625
-5.775 18.075 1.125
-5.775 19.575 1.425
-5.775 19.575 3.075
-5.775 18.075 0.525
-4.875 16.725 4.575
-5.325 17.175 2.625
-5.325 17.175 3.675
-4.875 20.925 2.025
-4.875 20.925 2.625
-5.325 20.475 2.925
-5.625 17.625 2.025
-5.625 17.625 3.375
-4.425 21.225 3.075
-4.425 21.225 2.925
-3.375 21.525 2.175
-5.775 17.925 0.975
-5.475 17.325 2.325
-5.475 20.325 2.025
-5.925 18.975 1.575
-5.925 18.975 2.475
-5.775 19.725 2.625
-5.925 18.525 1.125
-5.925 19.125 3.975
-5.925 18.375 1.125
-5.925 18.375 1.275
-5.925 18.375 0.675
-4.575 16.425 -0.975
-4.575 16.425 -3.525
-5.625 20.175 2.325
-5.175 20.775 2.475
-5.775 17.775 1.275
-5.925 18.225 1.275
-3.825 16.125 -2.625
-5.325 20.625 2.475
-5.475 20.475 2.475
-5.475 20.475 2.625
-3.975 21.525 3.075
-5.925 18.075 1.275
-5.775 17.625 1.125
-4.425 21.375 1.125
-4.725 21.225 2.625
-5.925 17.925 0.525
-5.925 19.725 3.075
-3.225 15.975 -2.025
-6.075 18.825 4.125
-6.075 18.825 3.075
-3.375 15.975 -2.025
-6.075 18.975 1.425
-5.325 16.875 2.775
-5.325 16.875 4.275
-6.075 19.125 1.275
-6.075 18.525 1.125
-6.075 18.525 0.675
-5.175 20.925 2.175
-5.475 20.625 2.775
-5.475 20.625 2.475
-5.025 21.075 1.725
-6.075 18.375 -1.725
-6.075 19.275 3.075
-6.075 18.375 1.575
-5.925 17.775 0.825
-5.625 17.175 4.125
-6.075 18.225 1.125
-6.075 18.225 0.225
-6.075 19.425 1.125
-6.075 19.425 1.425
-6.075 19.425 2.775
-5.625 20.475 2.475
-6.075 18.075 0.975
-6.075 19.575 -0.225
-6.075 18.075 4.575
-6.075 18.075 0.525
-5.925 17.625 1.425
-5.775 20.325 3.075
-5.775 17.325 3.825
-5.775 17.325 2.925
-4.725 21.375 2.175
-1.125 16.725 -1.125
-5.325 20.925 2.175
-5.175 21.075 2.175
-6.075 17.925 1.275
-6.075 17.925 0.525
-6.075 17.925 3.825
-6.075 17.925 0.975
-6.075 17.925 3.525
-6.225 18.825 3.075
-6.225 18.825 1.125
-5.625 20.625 4.125
-5.025 21.225 0.825
-6.225 18.675 2.325
-6.225 18.525 0.825
-6.225 18.525 -0.225
-6.225 19.125 1.125
-6.225 18.525 1.275
-5.925 20.175 3.075
-6.225 18.375 4.725
-2.775 15.825 1.275
-3.675 15.825 -3.675
-6.075 17.775 0.975
-6.075 17.775 1.575
-6.075 17.775 1.875
-4.875 21.375 1.425
-4.875 16.275 1.125
-6.225 18.225 0.375
-3.825 15.825 -3.975
-5.325 21.075 2.625
-5.325 21.075 1.875
-5.475 20.925 2.775
-5.475 20.925 1.725
-5.925 20.325 4.575
-5.925 17.325 2.025
-5.925 17.325 3.075
-6.225 18.075 0.825
-6.075 17.625 0.975
-6.225 18.075 0.675
-6.225 18.075 1.125
-5.175 21.225 1.275
-5.175 21.225 2.625
-5.775 17.025 1.125
-6.225 17.925 0.825
-6.375 18.825 0.375
-6.375 18.825 2.175
-6.075 17.475 0.675
-6.075 17.475 0.525
-6.075 20.175 2.775
-6.075 20.175 2.925
-6.075 20.175 2.625
-4.575 21.675 1.875
-5.925 17.175 2.025
-5.925 17.175 0.825
-4.875 16.125 1.125
-6.375 18.525 1.275
-5.925 20.475 2.625
-4.275 15.825 0.975
-4.275 15.825 -1.425
-6.375 18.375 1.575
-5.475 16.575 4.275
-6.375 18.375 0.525
-6.375 18.375 0.825
-5.475 21.075 2.625
-6.375 19.275 1.725
-5.625 20.925 2.925
-5.325 21.225 2.025
-6.375 18.225 0.375
-6.375 18.225 1.725
-6.375 18.225 0.825
-6.375 19.425 1.425
-5.775 16.875 1.125
-5.775 20.775 2.925
-5.775 20.775 1.725
-5.775 20.775 2.775
-5.175 21.375 1.275
-4.725 15.975 4.725
-6.075 17.325 0.975
-6.075 17.325 -4.425
-6.075 20.325 2.925
-6.075 20.325 2.625
-6.075 20.325 2.775
-6.375 18.075 1.125
-5.025 21.525 2.475
-5.025 21.525 -3.375
-5.925 20.625 3.075
-5.925 20.625 2.625
-5.925 17.025 0.225
-5.925 20.625 2.325
-6.375 17.925 0.975
-6.375 17.925 0.825
-6.375 17.925 1.125
-6.375 17.925 1.425
-6.375 19.725 3.075
-5.475 16.425 0.825
-5.625 21.075 2.475
-5.625 21.075 2.175
-5.475 21.225 1.875
-5.475 21.225 2.775
-5.475 21.225 2.625
-5.475 21.225 2.925
-6.075 17.175 0.825
-6.075 20.475 1.425
-6.525 18.825 2.025
-6.525 18.825 1.725
-5.775 16.725 1.725
-6.525 18.675 1.425
-6.525 18.675 2.475
-6.525 18.675 1.875
-6.525 18.975 3.525
-5.325 21.375 2.175
-5.325 16.275 0.975
-5.325 21.375 2.325
-5.325 16.275 1.125
-6.525 18.525 1.575
-6.525 18.525 1.425
-4.275 21.975 3.075
-5.175 21.525 3.075
-5.925 20.775 2.325
-5.925 20.775 2.625
-6.525 19.275 1.725
-6.525 19.275 1.575
-6.225 20.325 2.925
-6.225 17.325 2.925
-6.225 20.325 2.625
-6.225 20.325 2.775
-4.725 21.825 1.125
-6.525 18.225 2.775
-6.525 18.225 1.275
-6.375 20.025 3.075
-6.375 20.025 2.475
-5.025 15.975 1.125
-6.075 17.025 0.825
-6.075 20.625 2.925
-6.075 20.625 3.075
-5.025 21.675 1.125
-2.475 15.525 1.125
-5.625 21.225 2.475
-5.625 21.225 2.625
-5.625 21.225 1.275
-5.775 21.075 1.275
-5.775 21.075 2.025
-5.775 21.075 1.575
-5.775 16.575 4.875
-5.775 16.575 2.775
-4.125 15.525 -1.425
-6.525 17.925 0.525
-5.925 20.925 2.625
-6.675 18.825 2.625
-6.675 18.825 1.575
-6.675 18.825 1.425
-6.675 18.675 1.725
-6.075 20.775 2.925
-6.675 18.675 1.425
-6.675 18.675 1.875
-6.675 18.675 1.575
-6.675 18.975 1.725
-5.175 21.675 2.175
-6.675 18.525 3.675
-6.675 19.125 1.575
-6.675 18.525 1.575
-6.525 19.875 2.925
-2.775 15.375 -2.925
-6.675 18.375 1.425
-6.675 18.375 -1.575
-6.675 18.375 2.025
-6.375 20.325 2.925
-6.375 20.325 4.875
-6.225 20.625 2.775
-6.675 19.425 3.225
-5.775 21.225 2.775
-5.775 21.225 2.175
-5.775 21.225 2.475
-5.775 21.225 2.025
-6.525 20.025 2.925
-6.525 20.025 3.225
-6.525 17.625 3.675
-4.425 22.125 1.875
-5.475 21.525 2.325
-5.475 16.125 1.125
-0.975 16.125 -0.525
-5.925 21.075 2.925
-6.675 18.075 1.125
-6.075 16.725 -2.625
-5.325 15.975 0.225
-6.075 20.925 3.075
-6.075 20.925 2.475
-5.325 21.675 2.475
-5.325 21.675 0.975
-6.675 17.925 0.675
-6.675 17.925 1.125
-6.675 17.925 0.825
-6.525 17.475 0.225
-6.675 19.725 0.975
-6.525 20.175 3.075
-6.225 20.775 2.625
-6.825 18.825 2.025
-6.825 18.825 1.875
-6.825 18.825 1.725
-6.825 18.825 2.175
-6.825 18.825 1.575
-6.825 18.675 1.725
-6.825 18.975 2.325
-2.175 15.375 0.675
-5.775 21.375 2.325
-5.775 21.375 1.725
-5.775 21.375 1.125
-5.625 21.525 2.475
-5.625 21.525 2.025
-6.825 18.525 1.875
-6.825 18.525 1.425
-6.825 18.525 1.575
-5.925 21.225 2.325
-5.925 21.225 2.925
-5.925 21.225 2.775
-4.725 15.525 1.575
-6.525 20.325 2.925
-6.525 17.325 0.975
-6.525 17.325 0.825
-6.825 18.375 1.575
-6.825 18.375 2.025
-6.825 18.375 1.125
-6.825 18.375 1.875
-6.375 20.625 2.925
-5.025 21.975 2.775
-5.475 15.975 1.575
-6.075 16.575 2.775
-6.075 21.075 2.475
-6.075 21.075 1.125
-6.075 21.075 2.325
-6.075 21.075 3.075
-6.075 21.075 2.775
-6.075 21.075 1.575
-5.475 21.675 1.875
-5.475 21.675 2.325
-5.475 21.675 1.425
-6.825 18.225 1.275
-6.825 19.425 2.625
-6.825 19.425 2.925
-6.675 17.625 -0.975
-6.675 17.625 0.825
-6.225 16.725 3.825
-6.225 20.925 2.925
-6.225 20.925 2.775
-3.975 15.225 -3.525
-6.825 18.075 1.425
-6.825 19.575 2.925
-6.675 17.475 -0.975
-6.675 17.475 0.525
-6.675 17.475 -2.175
-6.375 20.775 2.625
-6.675 20.175 3.075
-5.175 21.975 2.925
-6.825 17.925 1.275
-6.825 17.925 0.825
-5.775 21.525 1.875
-5.775 21.525 2.625
-5.925 21.375 2.475
-5.925 21.375 2.325
-5.925 21.375 1.425
-5.925 16.275 1.425
-5.625 21.675 2.025
-6.075 21.225 2.625
-6.975 18.825 -0.375
-6.975 18.825 1.875
-6.975 18.825 2.025
-6.975 18.825 1.725
-6.225 21.075 3.075
-5.475 15.825 1.425
-6.225 21.075 2.925
-6.825 19.875 3.075
-6.825 17.775 1.125
-6.975 18.675 1.575
-6.975 18.675 1.725
-6.975 18.975 -0.225
-6.525 17.025 1.125
-4.725 22.275 1.725
-6.975 18.525 1.575
-6.675 17.325 0.225
-6.675 17.325 -3.225
-6.675 20.325 3.225
-3.525 15.075 -3.075
-6.975 18.375 1.725
-5.325 15.675 -4.575
-6.375 20.925 2.625
-5.325 21.975 -0.075
-6.825 17.625 0.975
-6.825 20.025 0.975
-6.825 17.625 0.075
-6.975 18.225 0.675
-6.975 18.225 -0.075
-6.675 17.175 0.975
-4.875 22.275 1.875
-6.975 19.575 -0.975
-6.975 18.075 0.825
-6.975 19.575 3.075
-6.975 18.075 1.425
-5.775 15.975 -4.875
-6.075 21.375 1.575
-6.075 16.275 -2.775
-5.775 21.675 1.425
-5.775 21.675 2.025
-6.525 20.775 2.625
-6.525 16.875 -1.275
-6.225 16.425 4.275
-6.225 16.425 -2.475
-6.225 16.425 -2.625
-5.625 21.825 2.325
-6.225 21.225 3.375
-6.225 21.225 2.625
-6.225 21.225 1.575
-6.825 17.475 0.225
-6.825 17.475 1.725
-6.825 17.475 3.075
-6.825 17.475 1.275
-6.975 17.925 0.825
-6.975 17.925 1.125
-6.975 19.725 1.125
-6.975 19.725 -0.225
-4.125 15.075 5.175
-6.375 21.075 2.625
-5.475 21.975 1.275
-5.025 15.375 0.975
-6.675 20.625 2.925
-6.975 17.775 1.275
-6.975 19.875 -0.375
-6.975 19.875 3.075
-3.225 14.925 -1.425
-4.725 15.225 -3.675
-6.825 20.325 3.075
-6.825 17.325 0.825
-6.525 16.725 0.525
-5.325 15.525 0.375
-7.125 18.525 1.425
-7.125 18.525 1.575
-6.525 20.925 0.975
-6.075 21.525 2.625
-7.125 18.375 0.225
-6.075 21.525 2.925
-6.075 21.525 2.775
-7.125 18.375 1.725
-7.125 18.375 1.575
-6.075 16.125 -1.275
-6.075 16.125 0.975
-5.925 21.675 1.425
-5.925 21.675 2.475
-6.975 17.625 0.975
-6.975 17.625 0.825
-6.225 21.375 2.475
-6.225 21.375 2.625
-7.125 18.225 0.675
-7.125 19.425 2.925
-5.625 15.675 5.175
-6.375 16.425 1.275
-6.375 16.425 0.525
-6.375 16.425 0.675
-6.825 17.175 0.525
-6.825 20.475 2.625
-6.375 21.225 2.775
-6.375 21.225 3.075
-5.625 21.975 2.475
-5.625 21.975 1.275
-5.175 15.375 -4.275
-6.675 16.875 -1.125
-6.675 16.875 0.525
-3.975 14.925 -1.725
-7.125 19.575 3.075
-6.975 20.175 2.625
-6.525 16.575 1.125
-5.475 22.125 2.325
-7.125 17.925 0.675
-7.125 17.925 -0.375
-7.125 19.725 3.225
-7.125 19.725 3.075
-5.025 15.225 -4.575
-6.825 17.025 0.975
-6.825 17.025 1.875
-6.825 17.025 1.125
-6.825 17.025 0.675
-6.825 20.625 2.625
-6.825 20.625 2.925
-6.075 21.675 2.325
-6.075 21.675 1.875
-6.225 16.125 1.125
-6.225 16.125 0.525
-6.225 21.525 2.325
-5.925 21.825 1.875
-6.675 16.725 1.425
-6.675 16.725 0.675
-6.675 16.725 0.225
-6.675 16.725 0.825
-6.675 16.725 2.025
-5.325 22.275 2.025
-5.325 15.375 -0.075
-5.325 15.375 1.425
-6.975 20.325 2.625
-6.975 17.325 0.825
-7.125 17.775 0.825
-7.125 19.875 -0.375
-7.275 18.825 1.725
-3.375 14.775 0.375
-6.375 16.275 0.975
-6.375 16.275 1.425
-5.775 21.975 2.325
-5.775 21.975 0.825
-5.625 15.525 1.875
-6.525 16.425 3.075
-6.525 16.425 -0.525
-7.125 17.625 0.825
-7.125 17.625 0.375
-7.125 17.625 0.975
-7.125 17.625 1.125
-7.125 17.625 -2.325
-7.125 17.625 0.675
-6.525 21.225 2.325
-6.525 21.225 2.925
-6.525 21.225 2.175
-5.175 15.225 5.175
-6.825 16.875 -0.975
-6.825 16.875 1.575
-6.825 16.875 1.125
-6.825 16.875 1.875
-6.825 16.875 1.275
-6.825 20.775 2.625
-7.275 18.225 -0.375
-6.975 17.175 1.875
-6.975 20.475 2.925
-6.675 16.575 0.525
-6.675 16.575 -0.225
-6.675 21.075 2.625
-7.275 19.575 -0.825
-7.275 18.075 -3.375
-7.275 18.075 -0.225
-7.275 18.075 -0.525
-7.125 17.475 1.575
-7.125 17.475 1.425
-7.125 17.475 2.175
-7.125 17.475 0.975
-7.125 17.475 0.525
-7.125 17.475 -1.725
-7.125 17.475 0.375
-7.125 17.475 0.825
-7.125 20.175 2.925
-6.225 15.975 -2.025
-6.225 15.975 -0.675
-6.225 15.975 0.225
-6.075 15.825 -0.675
-6.225 21.675 3.375
-6.225 21.675 2.025
-6.225 21.675 2.175
-6.225 21.675 2.475
-6.225 21.675 1.575
-5.925 15.675 0.375
-6.375 21.525 2.025
-6.375 21.525 2.175
-6.375 16.125 -0.525
-6.375 16.125 0.675
-6.375 16.125 0.225
-7.275 19.725 -0.675
-6.975 20.625 2.925
-6.975 17.025 2.325
-6.975 17.025 1.725
-6.975 17.025 1.875
-5.025 15.075 2.775
-6.825 16.725 -0.525
-6.825 16.725 0.375
-6.825 16.725 0.075
-5.325 15.225 0.075
-6.825 20.925 2.775
-6.525 16.275 -3.525
-6.525 16.275 -1.725
-5.775 22.125 1.725
-6.525 16.275 0.675
-6.525 16.275 -1.875
-5.775 22.125 0.975
-6.525 21.375 2.475
-7.125 17.325 0.225
-7.125 17.325 0.375
-7.125 17.325 1.275
-7.125 17.325 1.425
-4.275 14.775 5.325
-7.275 19.875 3.375
-7.275 19.875 2.925
-7.275 17.775 1.725
-7.275 17.775 1.875
-7.275 17.775 2.175
-6.675 16.425 -0.975
-6.675 16.425 -0.375
-6.675 16.425 -0.675
-7.425 18.675 1.875
-6.675 21.225 2.775
-6.675 21.225 2.925
-6.675 21.225 2.625
-7.425 18.375 -0.075
-7.275 20.025 3.375
-7.275 20.025 3.075
-7.275 17.625 1.425
-7.275 17.625 2.025
-7.275 17.625 0.675
-7.275 17.625 1.275
-6.975 16.875 0.525
-6.975 16.875 0.975
-5.175 22.575 4.125
-7.125 17.175 1.125
-7.125 17.175 0.825
-7.125 17.175 1.275
-7.125 17.175 -0.675
-7.125 17.175 1.425
-7.425 18.225 -0.375
-7.425 18.225 -1.275
-7.425 19.425 3.075
-6.225 21.825 1.575
-6.225 21.825 0.825
-6.225 15.825 0.675
-6.225 15.825 -1.875
-6.225 15.825 1.125
-6.225 15.825 0.225
-5.475 15.225 0.375
-5.475 15.225 1.125
-6.825 16.575 1.425
-6.825 16.575 2.175
-6.825 16.575 0.525
-6.825 21.075 2.925
-6.375 15.975 0.375
-6.075 21.975 2.325
-6.075 21.975 2.625
-6.075 21.975 2.475
-6.525 16.125 0.525
-6.525 16.125 0.225
-5.925 22.125 2.475
-5.925 22.125 1.125
-7.425 19.575 1.275
-7.425 19.575 2.775
-7.425 18.075 1.875
-7.425 18.075 -1.275
-7.275 17.475 0.975
-7.275 17.475 1.725
-7.275 17.475 0.225
-7.275 17.475 1.575
-5.775 22.275 1.125
-6.675 16.275 1.725
-6.675 16.275 0.525
-7.425 19.725 1.725
-7.425 19.725 3.375
-7.125 17.025 2.325
-7.125 17.025 -0.675
-7.125 17.025 1.425
-7.125 17.025 0.975
-7.125 17.025 0.825
-7.125 17.025 1.125
-7.125 17.025 0.375
-7.125 17.025 1.575
-7.125 17.025 1.275
-7.125 17.025 2.025
-6.975 16.725 -0.225
-6.975 16.725 0.825
-6.975 16.725 1.275
-6.975 16.725 -1.575
-6.975 16.725 2.025
-6.975 16.725 0.375
-6.975 16.725 2.325
-6.975 16.725 -0.075
-6.975 16.725 0.525
-6.975 16.725 -0.525
-5.325 15.075 -0.675
-5.325 15.075 5.175
-7.275 17.325 0.825
-7.275 17.325 1.125
-7.275 17.325 2.325
-6.825 16.425 0.225
-6.825 16.425 0.675
-6.825 16.425 -1.275
-6.825 16.425 0.975
-6.825 16.425 0.825
-6.825 16.425 0.375
-6.825 16.425 -0.225
-6.825 16.425 1.575
-5.625 15.225 0.525
-5.625 22.425 1.875
-6.825 21.225 3.075
-6.825 21.225 2.775
-7.425 17.775 1.275
-6.225 15.675 0.075
-6.225 15.675 0.525
-6.225 15.675 0.225
-7.575 18.825 0.825
-7.575 18.825 2.025
-6.375 15.825 0.675
-6.375 21.825 2.175
-6.225 21.975 2.625
-6.225 21.975 2.325
-7.575 18.675 2.025
-7.575 18.975 2.325
-7.125 16.875 2.025
-7.125 16.875 2.175
-7.125 16.875 0.525
-7.125 16.875 0.975
-7.125 16.875 0.675
-7.575 18.525 2.175
-7.575 18.525 1.875
-7.575 19.125 -0.525
-6.075 15.525 1.875
-6.075 15.525 -0.225
-7.125 16.875 1.125
-6.525 15.975 0.525
-6.525 15.975 0.675
-6.525 15.975 -0.225
-6.525 15.975 0.225
-6.525 15.975 0.375
-6.075 22.125 2.325
-6.075 22.125 0.975
-7.425 17.625 0.975
-7.425 17.625 1.575
-7.425 17.625 0.225
-7.425 17.625 1.425
-4.425 14.625 1.575
-7.425 17.625 2.025
-7.425 20.025 2.175
-7.425 20.025 1.575
-6.975 16.575 1.425
-6.975 16.575 1.125
-6.975 16.575 0.675
-6.975 16.575 2.025
-6.975 21.075 2.325
-6.975 16.575 0.075
-6.975 16.575 0.225
-5.475 22.575 1.875
-7.275 17.175 3.075
-7.275 17.175 1.275
-7.275 17.175 0.825
-7.275 17.175 0.675
-7.275 17.175 0.975
-7.275 17.175 1.125
-7.275 17.175 1.425
-7.275 17.175 2.025
-7.275 17.175 0.525
-7.275 20.475 3.075
-5.925 15.375 -0.525
-6.675 16.125 0.825
-6.675 16.125 1.725
-6.675 16.125 0.675
-7.575 19.425 -0.525
-7.425 17.475 2.025
-7.425 17.475 2.325
-7.425 17.475 1.875
-7.425 17.475 0.525
-7.425 17.475 2.625
-7.425 17.475 1.125
-7.425 17.475 1.725
-7.425 17.475 2.175
-6.825 16.275 0.525
-6.825 16.275 -0.225
-6.825 16.275 0.075
-6.825 16.275 1.725
-6.825 16.275 0.675
-6.825 16.275 1.125
-5.775 22.425 1.725
-7.575 18.075 1.875
-7.125 16.725 1.125
-7.125 16.725 -0.975
-7.125 16.725 0.975
-7.125 16.725 0.225
-7.125 16.725 2.175
-5.025 14.775 0.075
-7.275 17.025 1.275
-7.275 17.025 -0.525
-7.275 17.025 1.125
-7.275 17.025 2.625
-7.275 17.025 0.975
-7.275 17.025 1.725
-7.275 17.025 0.825
-7.275 17.025 1.575
-7.275 20.625 0.225
-7.275 20.625 0.075
-7.275 17.025 -0.225
-6.975 16.425 0.675
-6.975 16.425 0.525
-5.625 15.075 1.875
-6.375 15.675 0.825
-6.375 15.675 0.225
-6.375 15.675 1.575
-6.375 15.675 1.125
-6.375 15.675 1.725
-6.375 15.675 5.025
-6.375 21.975 2.775
-6.375 21.975 2.475
-6.225 15.525 0.525
-6.225 15.525 1.125
-6.225 15.525 0.825
-7.425 20.325 3.075
-7.425 20.325 1.575
-7.425 20.325 2.625
-7.425 17.325 1.725
-7.425 20.325 -0.825
-7.425 17.325 1.575
-7.425 17.325 3.075
-7.425 17.325 1.125
-7.425 17.325 1.425
-7.425 17.325 1.275
-7.425 17.325 0.825
-6.525 15.825 0.975
-6.225 22.125 -3.975
-6.525 15.825 1.425
-6.525 15.825 -2.925
-6.525 15.825 1.275
-6.525 15.825 0.225
-6.525 15.825 0.675
-6.075 15.375 1.575
-6.675 15.975 0.975
-6.675 15.975 0.825
-6.675 15.975 0.675
-6.675 15.975 1.125
-6.675 15.975 0.525
-7.575 19.875 -0.825
-7.575 19.875 -0.975
-7.575 19.875 -1.275
-7.575 17.775 1.575
-7.575 17.775 1.725
-6.675 21.675 2.625
-6.675 21.675 2.925
-6.675 21.675 2.325
-6.675 21.675 2.475
-7.275 20.775 2.325
-7.275 16.875 1.125
-7.275 16.875 0.825
-7.275 16.875 0.975
-7.275 16.875 1.275
-7.275 16.875 -2.625
-7.275 16.875 0.075
-5.925 15.225 0.975
-5.925 15.225 0.375
-6.825 21.525 2.325
-6.825 21.525 2.475
-6.825 16.125 0.375
-6.825 16.125 1.275
-6.825 16.125 1.125
-6.825 16.125 1.425
-6.825 16.125 0.825
-6.825 16.125 0.525
-5.925 22.425 1.575
-7.125 16.575 0.525
-7.125 16.575 1.275
-7.125 21.075 3.225
-7.125 21.075 1.125
-7.725 18.675 1.725
-5.475 22.725 1.575
-7.725 19.125 3.675
-7.425 17.175 1.125
-7.425 17.175 0.675
-7.425 17.175 2.475
-7.425 17.175 0.975
-7.425 17.175 1.575
-4.875 23.025 -0.525
-7.575 17.625 -0.225
-7.575 17.625 1.575
-7.575 17.625 0.975
-7.425 20.475 5.025
-7.425 20.475 2.625
-7.725 19.275 1.425
-7.725 19.275 0.225
-7.725 18.375 2.025
-7.725 18.375 2.325
-5.775 15.075 -0.525
-6.975 16.275 1.275
-5.775 15.075 0.225
-6.975 16.275 0.975
-6.975 16.275 0.675
-7.575 17.475 1.275
-7.575 17.475 0.075
-7.575 17.475 0.975
-7.575 17.475 1.425
-7.575 17.475 2.625
-7.575 17.475 1.575
-4.575 14.475 1.725
-7.575 20.175 -0.975
-6.375 15.525 -0.375
-6.375 15.525 0.825
-6.375 15.525 0.525
-6.375 15.525 1.425
-6.375 15.525 1.575
-6.375 15.525 0.975
-6.375 15.525 0.675
-6.375 15.525 0.375
-6.525 15.675 0.825
-6.525 15.675 1.725
-6.525 15.675 0.675
-3.975 14.325 -1.875
-7.275 16.725 1.275
-7.275 16.725 1.425
-6.375 22.125 1.875
-7.275 20.925 2.475
-6.525 21.975 2.925
-6.525 21.975 2.475
-6.525 21.975 2.025
-7.425 17.025 1.875
-7.425 17.025 1.275
-7.425 17.025 -0.675
-7.425 17.025 1.125
-7.425 17.025 2.025
-6.225 22.275 3.675
-6.225 15.375 2.175
-6.225 15.375 1.125
-6.225 15.375 0.525
-6.225 15.375 -1.425
-6.225 15.375 1.725
-6.675 15.825 0.375
-6.675 15.825 0.675
-6.675 15.825 0.525
-6.675 15.825 0.825
-6.675 21.825 2.175
-6.675 21.825 1.875
-5.625 14.925 -1.125
-7.125 16.425 0.075
-7.125 16.425 0.975
-7.125 16.425 1.125
-7.125 16.425 1.425
-7.125 16.425 1.275
-7.125 16.425 1.575
-7.125 21.225 -4.575
-7.125 21.225 1.725
-7.725 17.925 -0.825
-7.725 19.725 -3.825
-7.725 19.725 -0.525
-6.075 15.225 2.625
-6.075 15.225 1.275
-6.075 15.225 1.125
-6.825 15.975 0.825
-6.825 15.975 1.125
-6.825 15.975 0.975
-6.825 15.975 0.375
-6.825 15.975 0.525
-6.825 15.975 2.325
-6.825 15.975 0.675
-6.075 22.425 2.475
-6.075 22.425 1.725
-6.825 21.675 2.325
-7.575 17.325 0.975
-7.575 17.325 1.575
-7.575 17.325 1.875
-7.575 20.325 -0.675
-6.975 16.125 2.325
-6.975 21.525 2.175
-6.975 16.125 1.125
-6.975 16.125 1.275
-5.925 15.075 -0.075
-7.725 19.875 -0.675
-7.725 17.775 1.875
-7.725 17.775 1.575
-7.725 17.775 2.025
-7.425 20.775 2.475
-7.425 16.875 1.125
-7.425 16.875 3.225
-7.425 16.875 1.425
-5.475 14.775 0.675
-5.475 14.775 1.875
-7.275 21.075 3.075
-7.275 16.575 -4.425
-7.275 16.575 1.575
-7.275 16.575 1.725
-7.275 16.575 2.625
-3.225 14.175 4.875
-7.575 17.175 1.425
-7.575 17.175 1.875
-7.575 17.175 -0.525
-7.575 17.175 3.525
-4.875 14.475 0.675
-7.575 20.475 2.625
-7.575 20.475 1.275
-7.575 20.475 2.475
-7.575 20.475 3.225
-7.875 18.975 -0.525
-7.875 18.675 -0.825
-7.725 17.625 1.725
-7.725 17.625 1.575
-7.725 17.625 1.875
-7.725 17.625 -0.675
-5.775 14.925 -1.125
-7.125 16.275 1.125
-7.125 16.275 1.275
-7.125 16.275 1.425
-7.875 18.525 3.525
-7.875 19.125 5.475
-7.125 21.375 1.125
-7.125 21.375 1.275
-6.525 15.525 0.525
-6.525 15.525 1.425
-6.525 15.525 0.975
-6.525 15.525 0.675
-6.525 15.525 0.225
-6.525 15.525 0.825
-6.675 15.675 0.375
-6.675 15.675 0.975
-6.675 15.675 -0.075
-6.675 15.675 0.525
-6.675 15.675 0.825
-6.675 15.675 -3.825
-6.375 15.375 0.225
-6.375 15.375 0.075
-6.375 15.375 0.525
-6.375 15.375 1.125
-6.375 15.375 0.825
-6.375 15.375 1.875
-6.375 15.375 0.375
-6.375 15.375 0.675
-6.375 22.275 1.425
-6.375 22.275 2.025
-6.375 15.375 -0.825
-7.875 19.275 -0.525
-7.875 18.375 -0.525
-6.675 21.975 2.775
-3.675 23.475 2.475
-6.225 15.225 2.475
-6.225 15.225 0.825
-6.225 15.225 -1.275
-6.225 15.225 0.675
-6.825 21.825 2.475
-6.825 15.825 2.625
-6.825 15.825 -2.775
-6.825 15.825 0.975
-6.825 15.825 1.125
-6.825 15.825 0.825
-6.825 15.825 0.675
-6.825 15.825 1.275
-6.225 22.425 1.725
-6.225 22.425 1.875
-7.875 18.225 -0.525
-7.875 19.425 -1.575
-7.425 16.725 2.475
-7.425 16.725 -0.075
-7.425 20.925 2.625
-7.725 17.475 1.575
-7.725 17.475 1.725
-7.725 17.475 4.275
-7.725 20.175 2.475
-7.725 20.175 -0.675
-7.725 20.175 2.775
-5.625 14.775 3.075
-7.575 17.025 1.875
-7.575 17.025 -0.375
-7.575 17.025 1.425
-7.575 20.625 0.075
-7.575 20.625 2.625
-5.025 14.475 0.225
-7.275 16.425 1.425
-7.275 21.225 1.125
-6.975 15.975 0.975
-6.075 22.575 5.175
-6.975 21.675 2.475
-6.975 21.675 2.625
-6.075 15.075 0.225
-6.075 15.075 2.325
-6.075 15.075 0.375
-6.075 15.075 0.525
-6.075 15.075 2.025
-6.075 15.075 1.275
-7.875 18.075 2.175
-7.875 17.925 1.875
-7.875 17.925 2.025
-7.875 17.925 -0.225
-7.875 17.925 2.775
-7.875 19.725 -0.975
-5.925 14.925 1.425
-5.925 14.925 2.475
-7.125 16.125 -2.025
-7.125 21.525 2.625
-7.125 21.525 1.875
-7.125 21.525 0.975
-7.725 17.325 1.875
-7.725 20.325 2.925
-7.725 20.325 2.625
-7.725 17.325 1.125
-7.725 17.325 2.025
-7.725 17.325 -3.675
-7.725 17.325 -2.925
-4.725 14.325 0.975
-7.425 16.575 -0.525
-7.425 21.075 -1.725
-7.425 16.575 1.425
-7.425 21.075 1.125
-5.175 14.475 -0.075
-7.575 16.875 -1.575
-7.575 20.775 2.625
-5.175 14.475 -0.525
-7.875 19.875 -0.975
-7.875 17.775 1.725
-4.275 23.475 -0.225
-6.675 15.525 1.425
-6.675 15.525 0.975
-6.675 15.525 -3.375
-6.675 15.525 0.825
-6.675 15.525 1.125
-6.675 15.525 0.525
-6.675 15.525 1.875
-6.525 15.375 1.125
-6.525 15.375 -0.975
-6.525 15.375 0.975
-6.525 15.375 1.575
-6.525 15.375 0.525
-6.525 15.375 2.175
-6.525 15.375 0.825
-6.525 15.375 0.675
-6.525 15.375 0.375
-6.675 22.125 1.875
-6.675 22.125 2.475
-6.825 15.675 0.825
-6.825 15.675 0.975
-6.825 15.675 0.675
-6.825 15.675 0.525
-6.375 15.225 0.975
-6.375 15.225 2.325
-6.375 15.225 0.525
-6.375 15.225 1.425
-6.375 15.225 0.825
-6.375 15.225 0.375
-6.375 15.225 0.675
-6.825 21.975 2.325
-6.825 21.975 2.475
-5.775 14.775 0.375
-7.275 21.375 1.125
-7.275 21.375 2.925
-7.275 21.375 0.825
-7.275 21.375 -0.375
-7.275 16.275 -1.575
-7.725 17.175 0.975
-7.725 20.475 2.775
-8.025 18.825 -0.975
-4.425 14.175 0.975
-6.975 15.825 1.125
-6.975 15.825 0.375
-6.975 21.825 2.625
-6.975 21.825 2.325
-6.975 21.825 2.475
-6.975 21.825 2.175
-6.225 15.075 1.275
-6.225 15.075 0.825
-6.225 15.075 0.075
-6.225 15.075 2.175
-6.225 15.075 0.375
-6.225 15.075 0.225
-6.225 15.075 0.975
-7.875 20.025 2.175
-6.225 15.075 0.525
-8.025 18.975 2.175
-8.025 18.675 2.925
-8.025 18.675 2.475
-8.025 18.525 -1.125
-8.025 18.525 -0.375
-8.025 19.125 -0.525
-8.025 19.125 -1.125
-8.025 19.125 1.125
-8.025 19.125 -0.975
-6.075 14.925 -0.225
-6.075 14.925 0.525
-6.075 14.925 0.675
-6.075 14.925 1.275
-6.075 14.925 0.975
-5.325 14.475 -0.375
-5.325 14.475 -4.875
-5.325 14.475 -1.125
-7.125 15.975 1.575
-7.125 15.975 1.875
-7.575 20.925 2.625
-7.575 20.925 2.475
-7.125 21.675 1.575
-7.125 21.675 2.775
-7.125 21.675 1.875
-7.425 16.425 1.725
-7.425 16.425 -0.225
-3.825 14.025 1.125
-7.425 21.225 2.325
-7.425 21.225 -1.125
-7.425 21.225 1.275
-8.025 19.425 1.725
-8.025 19.425 1.275
-8.025 19.425 0.525
-4.575 14.175 0.825
-7.875 17.475 2.025
-7.875 17.475 2.775
-7.875 20.175 1.425
-7.725 20.625 2.625
-7.725 20.625 0.075
-7.725 17.025 2.925
-8.025 18.075 -0.825
-8.025 18.075 -0.975
-8.025 19.575 -1.125
-5.925 14.775 0.975
-5.925 14.775 0.375
-7.275 21.525 0.225
-7.275 21.525 2.325
-7.275 21.525 1.425
-7.275 21.525 0.975
-7.275 21.525 1.575
-7.275 21.525 2.625
-7.275 21.525 2.775
-7.275 16.125 1.725
-6.675 15.375 0.525
-6.675 15.375 0.975
-6.675 15.375 0.825
-6.675 15.375 0.675
-6.675 22.275 2.325
-6.525 15.225 0.375
-6.525 15.225 0.525
-6.525 15.225 -0.675
-6.525 15.225 -1.575
-6.525 15.225 2.475
-6.525 15.225 1.575
-6.525 15.225 0.975
-6.525 15.225 2.175
-8.025 17.925 0.075
-8.025 17.925 1.875
-8.025 17.925 0.525
-8.025 19.725 0.075
-8.025 19.725 -1.125
-8.025 19.725 -0.525
-8.025 19.725 -0.975
-7.875 20.325 -0.675
-7.875 17.325 1.875
-7.875 17.325 2.925
-7.875 17.325 2.175
-6.975 15.675 0.975
-6.975 15.675 1.425
-5.475 14.475 0.975
-7.575 21.075 2.475
-7.575 16.575 1.575
-7.575 21.075 2.325
-6.375 15.075 0.825
-6.375 15.075 1.425
-6.375 15.075 0.375
-6.375 15.075 0.525
-6.375 15.075 0.675
-6.375 15.075 1.875
-6.375 15.075 1.275
-6.375 22.575 1.125
-6.375 22.575 1.425
-6.975 21.975 2.475
-6.975 21.975 2.325
-7.725 20.775 -0.975
-7.725 20.775 1.425
-7.725 16.875 1.275
-7.725 16.875 -2.175
-4.275 14.025 0.525
-7.425 21.375 1.275
-7.425 21.375 0.825
-7.425 21.375 2.625
-7.425 21.375 0.675
-7.425 16.275 1.725
-7.425 16.275 3.525
-8.025 17.775 -0.675
-6.225 14.925 0.225
-6.225 14.925 0.675
-6.225 14.925 0.525
-6.225 14.925 0.975
-6.225 14.925 1.125
-6.225 14.925 0.075
-6.225 14.925 1.275
-6.225 14.925 0.825
-7.125 15.825 1.725
-7.125 21.825 1.125
-7.125 21.825 0.225
-7.875 20.475 1.275
-7.875 20.475 2.325
-7.875 20.475 2.625
-8.025 20.025 -0.825
-8.025 20.025 -0.975
-8.025 20.025 0.225
-8.025 17.625 1.725
-8.175 18.825 -1.125
-8.175 18.825 2.925
-8.175 18.825 -2.625
-8.175 18.825 -0.525
-6.075 14.775 1.125
-6.075 14.775 -5.175
-6.075 14.775 -1.425
-6.075 14.775 0.825
-6.075 14.775 0.525
-6.075 14.775 1.575
-7.275 15.975 3.825
-7.275 15.975 0.375
-8.175 19.125 0.975
-8.175 19.125 -1.425
-8.175 19.125 -1.275
-7.725 20.925 2.325
-7.725 20.925 2.475
-7.575 16.425 -0.975
-7.575 21.225 2.625
-7.575 21.225 1.125
-7.575 21.225 1.275
-7.575 21.225 0.525
-7.575 21.225 -0.975
-3.675 13.875 3.525
-8.175 19.275 1.875
-8.175 19.275 -0.975
-8.175 18.375 -0.225
-4.575 14.025 1.425
-6.825 22.275 2.475
-6.825 22.275 1.725
-6.825 22.275 2.325
-6.825 15.375 0.225
-6.825 15.375 0.975
-6.825 15.375 1.425
-6.675 15.225 1.425
-6.675 15.225 0.975
-6.675 15.225 0.675
-6.675 15.225 0.525
-6.675 15.225 0.375
-8.025 17.475 -0.675
-8.025 17.475 2.325
-7.875 20.625 -0.075
-7.875 20.625 1.275
-7.875 17.025 3.075
-6.675 22.425 2.025
-6.675 22.425 0.825
-8.025 20.175 3.075
-8.025 20.175 0.075
-8.175 19.425 -0.675
-7.425 21.525 0.525
-7.425 21.525 2.775
-7.425 21.525 1.275
-5.925 14.625 1.425
-5.925 14.625 0.375
-5.925 14.625 0.525
-6.975 15.525 1.125
-6.975 15.525 1.425
-6.975 15.525 2.625
-6.975 15.525 2.175
-6.525 15.075 1.425
-6.525 15.075 1.275
-6.525 15.075 0.675
-6.525 15.075 0.375
-6.525 15.075 -1.425
-6.975 22.125 2.175
-6.975 22.125 1.575
-6.975 22.125 2.325
-6.525 22.575 1.725
-6.525 22.575 2.775
-8.175 19.575 -0.975
-6.375 14.925 0.675
-6.375 14.925 0.975
-6.375 14.925 1.125
-6.375 14.925 0.525
-6.375 14.925 2.175
-6.375 14.925 -0.675
-6.375 14.925 1.275
-6.375 14.925 0.825
-6.375 14.925 -0.825
-7.125 15.675 1.725
-7.125 21.975 -0.225
-6.375 22.725 1.425
-8.025 20.325 -1.125
-8.025 20.325 3.375
-8.025 17.325 2.325
-8.025 17.325 1.725
-8.025 17.325 2.175
-5.475 23.325 3.975
-7.725 21.075 2.925
-7.725 21.075 -0.675
-7.725 21.075 2.625
-7.725 16.575 1.725
-8.175 17.925 -0.975
-8.175 19.725 -0.675
-8.175 19.725 -0.075
-6.225 14.775 1.575
-6.225 14.775 0.375
-6.225 14.775 0.825
-6.225 14.775 1.125
-6.225 14.775 1.275
-6.225 14.775 1.875
-6.225 14.775 0.525
-6.225 22.875 3.075
-7.275 21.825 -4.125
-7.275 21.825 0.525
-7.275 15.825 2.625
-7.275 15.825 1.275
-5.175 14.175 -1.425
-5.775 14.475 1.425
-5.775 14.475 1.725
-5.775 14.475 0.825
-5.775 14.475 1.275
-7.575 21.375 2.475
-7.575 21.375 -4.725
-7.575 21.375 0.975
-7.575 21.375 0.675
-7.575 16.275 2.025
-7.875 20.775 0.525
-7.875 20.775 0.825
-7.875 20.775 -1.425
-7.575 16.275 -1.725
-7.575 16.275 1.575
-7.875 16.875 -1.125
-7.875 16.875 1.875
-7.875 16.875 1.125
-8.175 19.875 -0.675
-8.175 19.875 -0.975
-8.175 19.875 -0.825
-8.175 17.775 -1.275
-8.175 17.775 1.575
-8.175 17.775 2.025
-8.175 17.775 2.775
-7.425 15.975 2.775
-7.425 15.975 -0.975
-7.425 15.975 -2.625
-6.075 14.625 0.675
-6.075 14.625 1.125
-6.075 14.625 0.525
-6.075 14.625 -1.125
-6.075 14.625 0.375
-8.025 17.175 2.175
-7.425 21.675 0.975
-7.425 21.675 1.125
-8.025 20.475 0.225
-8.025 20.475 2.625
-8.025 20.475 1.875
-8.025 20.475 2.175
-6.825 15.225 0.675
-6.825 22.425 2.175
-4.425 13.875 0.825
-4.425 13.875 0.975
-8.175 17.625 1.275
-8.175 17.625 2.025
-8.175 20.025 -0.375
-8.175 20.025 -0.525
-8.175 20.025 4.275
-6.975 22.275 2.475
-6.975 22.275 2.175
-6.975 22.275 2.325
-6.975 22.275 1.125
-6.975 22.275 0.825
-6.975 15.375 2.475
-6.975 15.375 1.575
-6.975 15.375 2.325
-6.975 15.375 1.425
-6.675 22.575 1.725
-6.675 15.075 2.325
-6.675 15.075 1.425
-7.725 16.425 -0.225
-7.725 16.425 1.875
-8.325 18.825 -0.375
-8.325 18.825 -0.525
-7.725 21.225 2.325
-7.725 21.225 2.475
-7.875 16.725 1.425
-7.875 16.725 1.575
-8.325 18.975 -0.225
-8.325 18.675 -1.275
-7.875 20.925 0.975
-7.875 20.925 2.325
-7.875 20.925 3.075
-6.525 14.925 0.975
-6.525 14.925 1.125
-6.525 14.925 5.325
-6.525 14.925 1.425
-6.525 14.925 0.525
-7.125 15.525 1.425
-7.125 15.525 2.475
-7.125 15.525 1.725
-8.325 19.125 1.275
-8.325 19.125 -0.825
-8.325 19.125 -1.125
-8.325 18.525 -1.125
-2.925 13.725 -2.025
-7.125 22.125 2.475
-7.125 22.125 1.425
-7.125 22.125 0.375
-7.575 16.125 0.975
-7.575 16.125 1.575
-7.575 16.125 2.175
-7.575 21.525 0.825
-7.575 21.525 0.975
-7.575 21.525 1.275
-7.575 21.525 1.125
-7.575 21.525 2.175
-7.575 21.525 2.475
-7.575 21.525 0.675
-5.925 14.475 1.725
-5.925 14.475 0.975
-5.925 14.475 0.525
-5.925 14.475 0.675
-5.925 14.475 0.375
-5.925 14.475 1.125
-8.325 18.375 2.175
-8.325 18.375 -0.225
-8.325 18.375 -0.825
-8.025 17.025 1.425
-8.025 17.025 1.875
-8.025 17.025 1.725
-8.025 20.625 1.875
-8.025 20.625 -1.275
-8.025 20.625 2.475
-8.025 20.625 2.325
-8.025 17.025 1.275
-6.375 14.775 0.375
-6.375 14.775 -1.875
-6.375 14.775 2.175
-6.375 14.775 1.275
-6.375 14.775 0.525
-6.375 14.775 0.825
-6.375 14.775 0.975
-6.375 14.775 1.125
-6.375 14.775 0.675
-7.275 15.675 -3.225
-7.275 15.675 1.275
-7.275 15.675 1.725
-7.275 15.675 2.025
-7.275 15.675 -1.425
-8.175 20.175 0.525
-8.175 20.175 2.475
-8.175 20.175 -0.375
-8.175 20.175 0.225
-7.275 21.975 0.675
-7.275 21.975 2.475
-7.275 21.975 2.325
-7.275 21.975 1.275
-8.325 18.225 0.375
-8.325 18.225 -0.675
-8.325 19.425 0.675
-8.325 19.425 -1.875
-8.325 19.575 1.575
-8.325 19.575 0.525
-8.325 19.575 -0.675
-8.325 18.075 -0.225
-8.325 18.075 3.675
-7.425 21.825 2.475
-7.425 21.825 0.525
-7.425 21.825 0.975
-7.425 21.825 -0.375
-6.225 14.625 1.575
-7.425 15.825 2.325
-7.425 15.825 2.775
-7.425 15.825 -0.375
-6.225 14.625 1.275
-6.225 14.625 1.125
-6.225 14.625 0.375
-6.225 14.625 0.525
-7.875 21.075 1.575
-7.875 21.075 2.775
-7.875 21.075 2.475
-7.875 16.575 -1.425
-7.875 16.575 1.425
-7.875 16.575 2.775
-5.775 14.325 1.125
-5.775 14.325 1.575
-5.775 14.325 1.275
-5.775 14.325 0.525
-5.775 14.325 0.375
-5.775 14.325 2.775
-7.725 21.375 0.225
-7.725 21.375 2.325
-7.725 21.375 0.375
-7.725 21.375 0.975
-7.725 16.275 1.575
-7.725 16.275 1.275
-7.725 16.275 1.125
-7.725 16.275 1.425
-8.175 20.325 -1.275
-8.175 20.325 2.475
-8.175 20.325 2.175
-8.175 17.325 -0.525
-8.325 17.925 1.875
-8.325 17.925 -0.825
-8.325 17.925 -0.375
-8.325 17.925 3.675
-8.325 19.725 1.275
-8.325 19.725 2.325
-8.325 19.725 -0.675
-8.325 19.725 -0.975
-8.325 19.725 -0.525
-5.175 14.025 1.425
-5.175 14.025 -0.525
-8.025 16.875 1.575
-8.025 16.875 2.325
-8.025 16.875 1.725
-8.025 16.875 0.075
-8.025 16.875 1.275
-8.025 20.775 -1.275
-8.025 20.775 2.775
-8.025 20.775 -0.825
-8.025 20.775 2.925
-6.975 15.225 1.575
-6.975 15.225 2.475
-6.975 15.225 2.625
-6.975 15.225 2.175
-6.825 22.575 -0.675
-6.825 22.575 2.475
-6.825 22.575 2.175
-6.825 22.575 2.025
-6.825 15.075 1.875
-6.825 15.075 0.525
-6.975 22.425 2.175
-6.975 22.425 1.875
-7.575 15.975 -0.225
-7.575 15.975 1.725
-6.075 14.475 1.875
-6.075 14.475 0.375
-6.075 14.475 0.225
-6.075 14.475 0.525
-7.575 21.675 2.175
-7.575 21.675 0.975
-7.575 21.675 0.675
-7.575 21.675 0.375
-7.575 21.675 2.325
-6.675 14.925 1.275
-6.675 14.925 0.675
-6.675 14.925 1.425
-7.125 22.275 2.475
-7.125 22.275 2.325
-7.125 22.275 2.625
-7.125 15.375 0.975
-7.125 15.375 2.025
-7.125 15.375 2.175
-8.325 19.875 -0.675
-8.325 17.775 2.475
-8.325 17.775 -0.525
-8.325 17.775 1.725
-6.675 22.725 1.425
-6.675 22.725 2.325
-4.875 13.875 0.975
-8.175 17.175 2.475
-8.175 17.175 1.725
-8.175 20.475 2.325
-8.175 20.475 2.475
-8.175 20.475 2.175
-8.175 20.475 -0.225
-8.175 20.475 -0.075
-6.525 14.775 1.275
-6.525 14.775 1.575
-7.275 15.525 1.875
-7.275 15.525 1.425
-7.275 15.525 0.375
-7.275 22.125 2.325
-7.275 22.125 0.825
-7.275 22.125 2.475
-7.275 22.125 0.675
-7.275 22.125 1.575
-7.875 16.425 2.475
-7.875 16.425 2.625
-7.875 16.425 2.775
-7.875 16.425 1.575
-7.875 16.425 1.725
-7.875 16.425 2.175
-7.875 21.225 3.375
-8.325 20.025 -0.375
-8.325 20.025 2.325
-8.025 16.725 -0.825
-8.025 16.725 1.275
-8.025 16.725 1.725
-8.025 16.725 1.575
-8.325 17.625 2.025
-8.325 17.625 1.875
-8.325 17.625 2.175
-8.025 20.925 -0.225
-8.025 20.925 2.925
-8.025 20.925 0.825
-7.725 21.525 0.975
-7.725 21.525 2.475
-7.725 21.525 0.675
-7.725 21.525 2.325
-7.725 16.125 1.425
-7.725 16.125 2.925
-5.925 14.325 0.375
-5.925 14.325 2.325
-5.925 14.325 2.175
-7.425 15.675 3.825
-7.425 15.675 1.425
-7.425 15.675 1.275
-7.425 15.675 1.575
-7.425 15.675 3.075
-6.375 14.625 1.725
-6.375 14.625 0.825
-6.375 14.625 -1.275
-6.375 14.625 0.675
-6.375 14.625 0.975
-8.475 18.825 1.425
-7.425 21.975 0.675
-7.425 21.975 -0.375
-7.425 21.975 0.525
-7.425 21.975 2.175
-7.425 21.975 0.225
-8.475 18.675 2.775
-8.475 18.975 -0.075
-8.475 18.975 -0.675
-8.475 19.125 -0.825
-8.475 19.125 -0.975
-8.475 19.125 2.925
-8.475 19.125 -0.375
-5.025 13.875 -4.725
-8.175 20.625 2.475
-8.175 20.625 2.325
-8.175 20.625 1.725
-8.175 20.625 1.875
-8.175 17.025 -0.975
-8.175 17.025 1.575
-8.175 20.625 -0.975
-8.475 18.375 3.825
-8.475 18.375 0.075
-8.475 18.375 -0.975
-8.475 19.275 2.775
-8.475 19.275 -1.275
-8.325 17.475 2.325
-8.325 17.475 1.425
-8.325 20.175 -0.825
-8.325 20.175 -0.975
-8.325 20.175 -0.675
-8.325 20.175 2.175
-8.325 20.175 2.475
-6.225 14.475 0.525
-6.225 14.475 1.725
-6.225 14.475 1.575
-6.225 14.475 -1.725
-6.225 14.475 0.375
-6.225 14.475 0.675
-7.575 21.825 0.825
-8.475 18.225 -0.375
-7.575 21.825 2.325
-7.575 21.825 2.175
-7.575 21.825 0.225
-7.575 15.825 1.425
-7.575 15.825 1.575
-7.575 15.825 2.925
-7.575 15.825 2.775
-7.575 21.825 0.675
-7.575 21.825 1.125
-7.575 21.825 0.525
-8.475 19.425 -0.975
-6.225 23.175 -5.025
-5.475 14.025 0.975
-8.025 21.075 -0.525
-8.025 21.075 0.675
-8.025 21.075 2.775
-8.025 21.075 2.625
-8.025 16.575 -1.425
-8.025 16.575 1.275
-5.775 14.175 -2.475
-5.775 14.175 1.725
-6.975 22.575 1.575
-6.975 22.575 2.325
-6.975 15.075 0.825
-6.975 15.075 1.275
-6.975 15.075 -2.325
-6.975 15.075 0.975
-8.475 18.075 2.325
-7.875 21.375 2.325
-7.875 16.275 1.725
-7.875 16.275 1.425
-7.875 16.275 1.875
-6.825 14.925 1.575
-7.125 15.225 0.525
-7.125 15.225 2.175
-7.125 15.225 1.725
-7.125 15.225 1.125
-7.125 15.225 2.025
-7.125 15.225 1.575
-7.125 15.225 -2.025
-8.325 20.325 -0.825
-8.325 20.325 -0.075
-8.325 20.325 2.625
-8.325 20.325 2.325
-8.325 20.325 2.475
-8.325 17.325 -1.275
-8.325 17.325 1.575
-6.675 14.775 1.875
-6.675 14.775 2.175
-6.675 14.775 -2.025
-7.275 15.375 0.375
-6.675 22.875 0.075
-6.675 22.875 1.875
-6.675 22.875 1.125
-8.175 20.775 -0.975
-8.175 20.775 2.025
-8.175 16.875 1.725
-8.175 20.775 -0.675
-8.475 17.925 1.725
-8.475 17.925 0.375
-7.725 15.975 1.875
-7.725 15.975 2.025
-8.475 17.925 2.175
-6.075 14.325 0.525
-6.075 14.325 1.725
-6.075 14.325 2.625
-6.075 14.325 1.575
-6.075 14.325 0.675
-8.475 19.725 1.425
-8.475 19.725 -1.275
-6.075 14.325 0.075
-7.725 21.675 2.475
-7.725 21.675 -0.225
-7.725 21.675 0.975
-7.725 21.675 0.375
-7.725 21.675 0.675
-7.725 21.675 0.525
-7.425 15.525 1.275
-7.425 15.525 2.175
-7.425 15.525 2.475
-6.525 14.625 1.725
-6.525 14.625 1.425
-6.525 14.625 -1.125
-6.525 23.025 2.475
-7.425 22.125 0.675
-7.425 22.125 0.975
-8.475 17.775 3.375
-8.475 17.775 -0.375
-8.475 19.875 -1.575
-8.475 19.875 -1.725
-8.475 19.875 -0.375
-8.325 17.175 1.425
-8.325 20.475 2.325
-8.325 20.475 -0.675
-8.325 20.475 -0.825
-8.025 16.425 1.275
-8.025 16.425 2.475
-8.025 16.425 1.725
-8.025 21.225 2.325
-8.025 21.225 -1.275
-7.575 15.675 1.575
-7.575 15.675 0.975
-7.575 15.675 2.025
-6.375 14.475 1.875
-6.375 14.475 -2.175
-6.375 14.475 1.275
-7.575 21.975 0.225
-7.575 21.975 0.975
-7.575 21.975 0.075
-7.575 21.975 0.525
-7.575 21.975 1.575
-7.575 21.975 0.675
-5.925 14.175 1.725
-5.925 14.175 0.975
-5.925 14.175 0.525
-7.875 21.525 0.525
-7.875 21.525 2.325
-7.875 21.525 2.475
-7.875 16.125 -0.675
-7.875 16.125 3.225
-7.875 16.125 0.375
-8.175 16.725 1.425
-8.175 16.725 0.375
-8.175 16.725 1.725
-8.175 20.925 2.025
-8.175 20.925 -1.725
-8.475 20.025 2.775
-8.475 20.025 0.075
-8.475 20.025 -0.825
-8.475 17.625 -0.975
-8.625 18.825 2.475
-8.625 18.825 -0.825
-3.375 13.425 -2.475
-8.625 18.675 -2.175
-8.625 18.675 -0.975
-8.625 18.975 2.925
