# .PCD v0.7 - Point Cloud Data file format
VERSION 0.7
FIELDS x y z
SIZE 4 4 4
TYPE F F F
COUNT 1 1 1
WIDTH 2048
HEIGHT 1
VIEWPOINT 0 0 0 1 0 0 0
POINTS 2048
DATA ascii
46.575 14.025 0.075
46.875 14.025 0.675
46.875 14.175 0.675
47.025 14.025 -0.375
47.025 14.025 1.275
47.025 14.175 0.975
46.575 14.325 0.525
46.875 14.325 1.125
46.725 14.475 1.125
46.275 14.025 4.875
47.175 14.175 -1.875
46.275 13.875 4.575
47.175 14.325 1.275
47.175 14.325 0.825
47.175 14.325 1.875
46.125 13.875 4.425
47.325 13.875 1.275
47.325 14.325 1.425
47.325 14.325 1.125
47.475 14.025 5.025
45.975 14.025 1.725
47.475 14.025 0.975
47.325 14.475 1.275
47.325 14.475 4.575
46.275 14.625 -4.725
46.575 13.275 0.825
47.475 13.875 1.875
47.475 14.325 3.375
47.325 13.425 0.825
47.325 13.425 0.975
47.475 14.475 3.825
45.975 13.575 -4.425
47.625 14.025 4.425
47.625 14.175 4.425
47.625 13.875 4.725
47.625 14.175 4.575
45.825 14.175 1.125
46.875 13.125 1.425
45.825 14.325 0.675
45.825 14.325 0.525
47.625 14.325 2.475
47.625 14.325 4.125
45.825 14.325 1.125
45.825 13.725 1.125
47.025 14.925 1.275
47.025 13.125 0.825
47.025 13.125 0.375
45.975 13.425 -0.225
46.125 14.775 0.375
46.125 14.775 -0.225
45.825 13.575 1.125
45.825 13.575 1.275
47.775 14.025 4.575
46.725 15.075 2.625
47.775 14.175 2.025
47.775 14.175 0.525
47.775 13.875 2.775
45.975 13.275 0.075
45.975 13.275 0.375
47.475 14.775 2.775
47.475 14.775 1.275
46.575 12.975 2.775
45.675 13.875 1.575
45.675 13.875 1.725
45.825 13.425 0.825
47.625 13.425 5.025
47.325 14.925 1.125
47.775 14.325 3.675
47.775 14.325 4.425
47.025 12.975 0.675
45.675 14.325 1.125
45.675 13.725 1.125
47.775 14.475 3.525
47.775 14.475 1.725
47.175 15.075 1.425
47.175 12.975 0.975
46.275 15.075 -0.975
45.675 14.475 1.425
45.675 14.475 0.525
47.625 13.275 0.375
45.825 13.275 -2.475
45.975 14.925 0.225
45.525 14.025 1.725
47.925 14.175 1.875
47.775 14.625 3.225
47.775 14.625 3.375
47.775 14.625 2.475
47.775 14.625 0.825
47.325 15.075 1.425
47.325 15.075 1.575
46.875 12.825 0.975
46.875 12.825 0.675
47.325 12.975 0.825
45.525 14.175 0.225
45.525 13.875 0.225
45.525 13.875 0.075
45.525 13.875 5.625
45.675 14.625 0.375
45.675 13.425 1.725
47.925 14.325 0.975
45.525 14.325 0.975
45.525 14.325 -0.825
45.525 13.725 1.125
45.825 14.925 0.075
47.625 14.925 1.275
47.625 14.925 2.175
45.825 13.125 1.275
45.825 13.125 0.825
45.825 14.925 0.375
47.625 14.925 1.575
47.925 14.475 2.025
47.175 15.225 0.825
47.175 12.825 0.675
45.525 14.475 2.025
45.525 14.475 1.575
47.775 14.775 2.775
45.975 15.075 0.825
47.475 15.075 2.325
45.675 14.775 0.525
45.675 13.275 1.575
45.675 14.775 1.125
45.525 13.425 -0.525
45.525 13.425 0.075
46.725 12.675 0.225
46.725 15.375 2.475
45.375 14.025 1.725
45.375 14.025 1.875
46.575 12.675 0.975
45.375 14.175 4.275
45.375 13.875 2.175
45.375 13.875 -0.075
45.375 14.175 1.575
45.375 13.875 4.725
47.775 13.125 3.225
47.775 14.925 0.975
45.825 12.975 1.275
45.375 14.325 0.075
45.375 14.325 0.975
45.375 14.325 1.125
48.075 14.325 1.425
45.375 13.725 -2.175
45.375 13.725 1.125
45.675 13.125 1.275
45.675 14.925 0.975
45.675 14.925 0.525
45.675 14.925 -0.075
45.525 14.775 0.975
45.525 13.275 -1.425
45.525 13.275 4.725
45.525 13.275 -1.275
47.175 12.675 1.125
45.375 14.475 2.475
45.375 13.575 5.025
46.125 15.375 -0.225
47.775 12.975 3.375
47.775 12.975 0.075
45.675 15.075 0.525
45.675 15.075 0.075
45.675 12.975 -1.575
45.675 12.975 -1.275
45.675 12.975 1.575
45.825 15.225 0.975
48.225 14.025 1.575
48.225 14.025 1.725
45.525 14.925 0.375
45.525 14.925 1.575
45.525 13.125 1.275
45.525 14.925 1.425
45.525 14.925 1.875
46.875 15.525 0.525
46.875 12.525 0.375
46.575 12.525 1.125
45.225 14.175 -0.075
45.225 14.325 1.125
48.225 14.325 1.575
45.225 13.725 1.125
45.975 15.375 0.975
45.975 15.375 0.375
45.975 15.375 -0.375
45.375 13.275 -0.525
45.375 14.775 0.975
45.375 13.275 -0.075
47.175 12.525 1.125
45.225 13.575 5.175
45.525 15.075 -0.225
45.525 15.075 0.375
45.525 15.075 -1.125
45.675 15.225 2.475
45.525 12.975 -1.275
45.675 12.825 1.575
45.225 14.625 0.225
45.225 14.625 1.725
46.125 15.525 0.975
47.325 12.525 0.375
45.825 12.675 0.525
45.825 12.675 0.825
47.625 12.675 1.425
45.825 12.675 1.275
45.825 12.675 1.125
45.825 15.375 2.475
45.825 12.675 -0.525
45.375 13.125 1.275
45.375 14.925 2.025
45.075 14.025 1.575
46.725 12.375 0.825
45.075 13.875 4.725
46.875 12.375 0.375
46.875 15.675 0.525
46.875 12.375 0.825
45.075 14.325 4.125
45.075 14.325 0.975
48.375 14.325 4.425
48.375 13.725 3.975
45.075 13.725 5.025
47.025 12.375 0.825
47.025 12.375 0.225
45.225 13.275 0.375
45.225 13.275 0.525
45.225 14.775 0.975
47.475 12.525 0.225
45.975 15.525 0.225
45.525 15.225 0.975
45.525 12.825 -1.275
45.525 12.825 5.175
45.075 14.475 4.275
45.075 13.575 5.325
47.175 12.375 0.975
45.375 15.075 0.225
45.375 15.075 1.575
45.375 15.075 -0.225
45.375 15.075 -0.075
45.675 15.375 0.225
45.675 12.675 1.125
45.675 12.675 1.575
45.675 15.375 0.825
45.825 15.525 4.425
47.625 12.525 1.125
45.825 12.525 1.125
45.825 12.525 -0.975
45.825 12.525 -0.225
45.225 14.925 2.175
45.225 14.925 0.375
47.325 12.375 0.975
47.325 12.375 0.825
47.325 15.675 0.375
45.375 15.225 0.375
46.575 12.225 0.075
45.375 15.225 0.975
45.525 15.375 0.675
45.525 15.375 0.975
45.525 12.675 1.125
45.525 15.375 4.575
45.375 12.825 -0.225
44.925 14.175 1.125
45.075 13.275 -1.575
45.075 14.775 0.225
45.075 13.275 -1.425
45.075 14.775 0.975
45.075 14.775 0.525
45.975 12.375 -0.675
45.975 12.375 -0.225
45.975 12.375 1.575
47.475 12.375 0.975
47.025 12.225 0.825
47.025 12.225 1.275
47.025 12.225 0.675
44.925 14.325 1.125
44.925 14.325 4.575
44.925 13.725 1.125
45.225 15.075 1.875
45.225 15.075 1.575
45.225 15.075 1.725
45.675 12.525 1.125
46.275 12.225 2.025
44.925 13.575 -0.825
45.075 14.925 0.525
45.075 14.925 0.375
45.825 12.375 1.275
45.825 12.375 -0.375
45.825 12.375 0.825
47.325 12.225 0.975
47.325 12.225 0.525
44.925 14.625 -0.375
45.375 15.375 4.875
45.375 12.675 -0.375
45.375 12.675 1.125
45.375 15.375 -0.375
45.375 12.675 -0.225
45.375 15.375 -0.225
45.375 15.375 1.275
45.375 15.375 1.425
45.225 15.225 1.725
45.225 15.225 0.825
45.225 12.825 -0.525
45.525 15.525 0.525
45.525 15.525 0.825
46.725 12.075 1.125
44.925 14.775 0.975
44.925 14.775 5.325
44.925 14.775 0.225
45.075 15.075 0.375
45.075 12.975 4.875
45.075 12.975 4.575
46.575 12.075 0.675
46.875 12.075 0.375
46.875 12.075 1.125
45.675 15.675 -0.375
44.775 13.875 -1.275
44.775 14.175 0.975
44.775 14.325 0.975
47.175 12.075 0.975
44.775 13.575 1.275
44.925 14.925 -0.225
44.925 14.925 3.825
44.925 14.925 0.375
44.925 14.925 0.525
45.225 15.375 2.025
45.225 15.375 -0.075
45.225 12.675 6.075
45.225 12.675 0.375
45.375 15.525 2.175
45.375 15.525 0.825
45.375 12.525 -0.075
45.075 15.225 0.375
45.075 15.225 0.225
45.075 15.225 0.825
45.075 15.225 0.075
45.075 12.825 -0.225
45.075 12.825 5.025
47.325 12.075 0.375
45.525 15.675 0.825
45.525 12.375 1.125
45.525 15.675 0.975
45.525 12.375 1.575
44.775 13.425 1.125
47.775 12.225 0.825
45.675 12.225 0.975
44.925 15.075 0.225
44.925 15.075 0.675
44.925 15.075 0.075
44.925 15.075 0.525
47.475 12.075 0.675
45.975 12.075 -0.375
44.775 14.775 0.975
44.775 13.275 0.225
44.775 13.275 -3.675
46.725 11.925 1.425
46.725 11.925 1.125
46.575 11.925 1.725
46.875 11.925 0.975
46.875 11.925 1.125
44.625 13.875 -0.975
47.025 11.925 0.675
47.025 11.925 1.275
45.225 15.525 -0.075
45.225 12.525 0.225
45.225 15.525 0.825
45.225 15.525 0.225
45.225 15.525 -0.225
45.225 12.525 -0.225
45.225 15.525 1.275
44.625 13.725 -2.325
45.075 15.375 -0.075
45.075 15.375 0.675
45.075 15.375 0.075
45.075 12.675 -0.225
45.075 15.375 0.825
45.075 12.675 5.175
48.375 12.675 5.625
45.375 12.375 1.125
45.375 15.675 1.275
47.175 11.925 1.275
47.175 11.925 -0.075
47.625 12.075 1.725
44.775 14.925 -0.075
45.525 15.825 0.825
45.525 12.225 4.875
45.525 12.225 1.425
45.525 12.225 0.975
44.925 15.225 0.225
44.925 15.225 0.975
44.925 15.225 0.675
44.925 15.225 0.075
46.125 11.925 -0.375
48.825 13.425 4.875
48.825 14.625 3.675
47.775 12.075 1.275
47.775 12.075 1.725
45.675 15.975 0.675
44.775 15.075 0.675
44.775 15.075 0.225
44.775 15.075 0.375
45.675 12.075 1.125
45.075 15.525 1.275
45.975 11.925 -0.675
44.625 14.775 0.525
44.625 14.775 0.975
44.625 14.775 0.225
46.725 11.775 -0.375
46.725 11.775 0.675
44.475 14.025 0.975
44.475 14.025 -0.075
44.925 15.375 -0.075
44.925 15.375 0.825
44.925 15.375 0.375
46.875 11.775 -0.225
46.875 11.775 0.375
46.875 11.775 0.675
44.475 13.875 0.075
47.025 16.275 0.525
47.025 11.775 0.675
47.025 11.775 1.125
47.025 11.775 1.275
47.025 11.775 -0.075
47.025 11.775 0.375
44.475 14.325 -3.375
48.975 13.725 5.025
44.475 13.725 0.375
44.625 14.925 0.825
44.775 15.225 -0.225
44.775 15.225 -0.075
44.775 15.225 0.525
44.775 15.225 0.675
45.525 12.075 -0.075
45.525 12.075 -0.225
47.175 11.775 1.125
47.175 11.775 0.825
44.475 14.475 -0.375
44.475 13.425 -2.325
44.475 14.625 -0.375
46.125 11.775 -0.075
45.075 15.675 1.275
45.075 15.675 0.525
45.225 15.825 -0.225
44.925 15.525 0.375
44.925 15.525 1.875
44.925 15.525 1.575
44.925 15.525 -0.225
44.925 15.525 0.525
47.775 11.925 0.525
44.625 15.075 0.075
44.625 15.075 0.525
44.625 15.075 0.825
45.675 16.125 0.525
45.675 16.125 0.825
45.675 16.125 0.675
44.475 14.775 0.225
47.475 11.775 1.125
45.975 11.775 -0.075
47.475 11.775 1.575
44.475 13.275 -2.475
45.375 15.975 0.825
45.375 15.975 0.375
45.375 12.075 0.975
45.375 12.075 4.425
45.375 12.075 -0.075
44.775 15.375 0.075
44.775 15.375 0.675
44.775 15.375 0.375
44.775 12.675 5.775
44.775 12.675 0.225
44.325 14.025 0.975
46.575 11.625 -0.375
46.875 11.625 0.225
46.875 11.625 -0.225
47.925 11.925 0.375
44.325 13.725 0.375
47.025 11.625 1.575
47.025 11.625 1.275
47.025 11.625 1.425
44.625 15.225 0.675
44.625 15.225 0.375
45.825 11.775 -0.225
45.825 11.775 -0.675
44.475 13.125 -2.025
44.475 14.925 0.375
45.075 15.825 0.075
44.325 14.475 0.075
44.325 13.575 -2.475
47.175 11.625 -0.225
47.175 11.625 1.125
44.925 12.375 0.525
45.225 15.975 0.825
45.225 15.975 -0.225
45.225 12.075 4.725
45.225 12.075 0.975
44.775 15.525 -0.075
44.775 15.525 1.575
44.325 14.625 -0.675
47.325 11.625 0.375
44.475 15.075 0.975
44.475 15.075 0.825
45.675 16.275 0.825
44.475 12.975 4.575
44.475 12.975 5.325
45.675 11.775 0.075
45.375 11.925 1.275
44.625 12.675 0.075
44.325 14.775 -0.225
44.325 13.275 4.275
44.325 13.275 -2.025
47.475 11.625 0.675
44.925 15.825 0.075
44.925 15.825 1.425
44.925 15.825 0.975
44.475 15.225 2.325
44.475 15.225 -2.775
45.525 16.275 -0.375
45.525 16.275 2.325
44.475 12.825 -3.675
45.525 11.775 0.975
45.525 11.775 -0.075
45.525 11.775 0.675
45.525 11.775 -0.225
45.075 15.975 0.525
45.075 15.975 0.675
46.875 11.475 -0.225
44.775 15.675 0.225
44.175 14.175 1.125
44.325 14.925 0.375
44.325 14.925 0.075
44.325 14.925 -0.075
44.325 13.125 -1.725
44.325 13.125 5.475
44.325 14.925 0.825
45.825 16.425 -0.375
47.625 11.625 3.525
45.825 11.625 0.375
45.825 11.625 0.075
44.175 13.725 0.225
45.225 16.125 1.125
45.225 11.925 1.425
44.625 12.525 0.675
44.625 15.525 -0.075
44.175 14.475 -0.075
44.175 13.575 5.775
47.325 11.475 1.575
45.675 16.425 -0.675
45.675 11.625 0.075
44.175 14.625 -0.225
44.175 14.625 2.025
45.375 16.275 0.075
44.475 12.675 -3.975
44.475 12.675 0.075
44.475 15.375 0.525
45.375 11.775 -0.525
45.375 11.775 2.625
45.375 11.775 0.975
44.775 15.825 1.425
44.775 15.825 -0.075
44.775 15.825 0.075
44.775 15.825 -0.225
44.925 15.975 0.675
44.925 15.975 -0.075
47.475 11.475 -0.225
47.475 11.475 0.075
45.975 11.475 -1.125
45.975 11.475 1.575
44.175 13.275 5.625
45.075 16.125 1.275
45.075 11.925 1.425
44.625 12.375 0.825
44.625 15.675 -0.075
44.325 15.225 -2.925
45.525 16.425 -0.525
45.525 16.425 -0.225
45.525 16.425 -0.375
45.525 11.625 -0.375
46.725 11.325 0.375
45.825 16.575 4.425
45.225 11.775 0.975
45.225 11.775 -0.075
44.475 15.525 -0.075
44.475 15.525 0.075
46.575 11.325 1.275
46.875 11.325 0.375
46.575 16.725 -1.425
44.025 13.875 0.825
44.025 13.875 0.075
44.025 14.175 0.225
44.025 13.875 -1.575
47.025 11.325 -0.675
44.025 14.325 -0.075
44.025 13.725 0.225
47.175 11.325 -0.375
44.025 14.475 -0.675
44.025 13.575 0.975
44.325 12.675 0.225
45.375 16.425 4.725
45.375 16.425 0.075
45.375 11.625 0.075
45.375 11.625 0.975
44.775 15.975 0.825
44.775 15.975 0.375
44.775 15.975 0.075
44.775 15.975 0.225
44.775 15.975 0.525
44.775 15.975 -0.375
45.675 11.475 0.525
44.775 12.075 0.075
44.175 15.075 0.675
44.175 15.075 0.525
46.125 16.725 -0.375
44.925 16.125 -0.075
44.025 13.425 1.725
45.075 11.775 1.425
45.075 11.775 0.975
45.075 11.775 -0.075
45.075 11.775 0.825
45.975 11.325 0.225
45.975 11.325 -0.525
44.025 13.275 0.825
44.025 13.275 1.275
44.175 15.225 0.375
44.175 15.225 0.225
44.175 15.225 0.675
45.225 11.625 1.425
45.225 11.625 0.975
45.225 11.625 -0.075
45.225 11.625 5.175
47.625 11.325 1.125
45.825 11.325 -0.525
44.025 13.125 1.425
46.725 11.175 0.375
46.725 11.175 1.425
46.725 16.875 -0.525
46.575 11.175 0.675
43.875 13.875 0.975
47.025 11.175 0.675
47.025 11.175 0.525
47.025 11.175 1.575
46.425 11.175 -0.975
44.625 15.975 -0.075
44.625 15.975 0.675
44.625 15.975 -0.225
44.625 15.975 0.975
43.875 13.725 0.825
44.775 16.125 0.225
44.775 16.125 0.675
44.775 11.925 2.175
44.775 11.925 -0.525
44.475 15.825 0.525
44.475 15.825 -0.075
44.925 16.275 -0.225
44.925 16.275 -0.075
44.925 16.275 1.425
44.925 11.775 0.825
47.175 11.175 -0.075
47.175 11.175 -0.525
43.875 14.475 5.475
45.375 11.475 -0.075
44.175 12.675 1.725
44.025 15.075 0.525
45.675 11.325 0.525
45.675 16.725 0.075
44.025 12.975 1.725
44.325 15.675 -0.075
45.075 11.625 0.975
45.075 11.625 1.425
47.325 11.175 0.075
43.875 13.425 1.575
45.975 11.175 -0.525
43.875 14.775 0.375
43.875 13.275 -1.425
45.525 16.725 -0.075
45.525 11.325 1.425
45.525 11.325 -0.075
45.525 11.325 0.075
45.525 11.325 -0.375
44.025 15.225 0.525
44.025 15.225 0.225
44.025 12.825 1.125
45.225 11.475 -0.375
45.225 11.475 1.125
44.175 12.525 2.025
44.625 16.125 -0.825
44.625 16.125 0.975
44.625 16.125 -0.075
44.625 11.925 1.725
44.625 11.925 0.225
44.475 15.975 -0.375
44.775 16.275 -0.075
44.775 16.275 1.725
44.775 16.275 1.425
44.775 16.275 -0.375
43.875 14.925 0.375
43.875 14.925 5.625
43.875 13.125 1.425
43.875 13.125 1.575
44.325 15.825 0.825
44.325 15.825 0.675
46.725 11.025 0.225
46.725 11.025 -0.225
43.725 14.025 0.975
44.925 16.425 0.825
44.925 11.625 0.975
44.925 11.625 1.875
46.875 11.025 0.675
46.875 11.025 0.225
46.875 11.025 0.525
43.725 14.175 5.475
43.725 13.875 -1.275
47.025 11.025 1.275
47.025 11.025 0.825
47.025 11.025 0.525
43.725 13.725 0.975
45.375 16.725 0.825
45.375 11.325 0.975
45.375 11.325 0.675
44.025 15.375 5.925
44.025 15.375 0.225
44.025 12.675 1.725
44.025 12.675 0.825
43.725 14.475 5.475
43.725 13.575 0.675
45.075 16.575 4.725
45.075 16.575 0.375
45.075 16.575 0.525
47.775 11.175 3.825
45.075 11.475 1.575
43.875 15.075 0.525
45.675 16.875 1.125
43.875 12.975 2.775
45.675 11.175 -0.525
45.675 11.175 0.075
45.675 16.875 0.525
45.675 16.875 0.225
45.675 16.875 -1.125
46.125 17.025 0.825
43.725 13.425 0.375
43.725 13.425 1.275
43.725 13.425 2.025
47.325 11.025 0.375
47.325 11.025 0.975
47.325 11.025 1.725
44.625 16.275 0.225
44.625 16.275 -0.075
44.475 16.125 -0.375
44.475 11.925 1.575
44.625 11.775 3.825
44.625 11.775 0.825
45.225 11.325 1.425
45.225 11.325 0.975
45.225 11.325 -0.075
44.025 15.525 -0.225
44.025 12.525 2.025
44.025 12.525 1.575
47.925 16.875 -1.125
44.325 12.075 0.375
43.725 13.275 1.125
43.725 13.275 1.425
43.725 13.275 2.025
45.975 11.025 -0.525
43.725 14.775 0.225
47.475 11.025 0.225
45.525 11.175 -0.225
45.525 11.175 -0.075
45.525 16.875 0.225
45.525 16.875 4.275
43.875 12.825 4.575
43.875 12.825 1.725
44.775 11.625 0.975
44.925 16.575 3.975
44.925 16.575 -0.375
44.925 16.575 0.675
44.175 15.825 2.625
44.925 11.475 2.025
44.925 11.475 0.975
45.825 11.025 -0.975
45.825 11.025 0.225
45.825 11.025 0.075
47.625 11.025 4.275
43.725 13.125 -1.275
43.725 13.125 1.125
43.725 13.125 1.725
43.725 13.125 0.825
43.575 13.875 1.275
43.575 13.875 4.575
43.575 13.875 0.975
45.375 16.875 5.025
46.575 10.875 0.375
45.375 11.175 0.075
45.375 11.175 -0.075
43.875 12.675 1.425
43.875 15.375 0.375
43.875 15.375 4.575
43.575 13.725 -0.975
47.025 10.875 -0.075
47.025 10.875 0.525
45.075 16.725 4.575
45.075 16.725 -0.525
47.025 10.875 0.225
45.075 11.325 0.975
45.075 11.325 0.375
45.075 11.325 5.625
44.025 15.675 -2.175
44.025 12.375 1.425
43.725 15.075 0.525
45.675 11.025 -0.075
45.675 11.025 0.675
44.475 16.275 0.825
47.175 10.875 0.825
44.475 11.775 1.275
44.475 11.775 0.825
46.275 10.875 0.075
44.325 11.925 0.525
44.325 11.925 1.575
44.325 16.125 -0.825
44.625 16.425 -0.225
44.625 11.625 0.825
44.625 16.425 -0.075
43.575 13.425 0.825
43.575 13.425 1.425
43.575 13.425 1.125
43.575 14.625 5.475
46.125 10.875 0.225
44.775 16.575 1.125
44.775 16.575 0.825
44.775 16.575 0.375
44.175 15.975 0.975
44.175 12.075 0.525
44.175 12.075 -1.725
45.225 11.175 1.125
45.225 16.875 4.575
43.875 12.525 1.725
45.525 17.025 0.675
43.725 15.225 0.075
43.725 15.225 0.525
43.725 12.825 1.725
45.525 11.025 -0.075
45.525 11.025 -0.225
45.525 11.025 0.525
43.575 13.275 1.425
47.475 10.875 0.375
44.025 12.225 1.425
44.925 11.325 1.725
43.575 13.125 1.125
45.825 10.875 0.375
45.825 10.875 -1.725
45.825 10.875 0.075
44.325 16.275 0.075
44.325 16.275 1.275
44.325 11.775 1.425
44.325 11.775 -0.225
44.325 11.775 0.975
44.325 11.775 0.525
44.325 11.775 1.575
44.475 16.425 -2.025
44.475 16.425 0.975
44.475 16.425 0.375
44.475 16.425 0.825
44.475 16.425 1.875
44.475 11.625 0.975
44.475 11.625 1.125
45.375 11.025 -0.075
45.375 11.025 0.375
45.075 16.875 0.375
45.075 11.175 0.675
45.075 11.175 1.725
43.875 15.675 -0.075
43.875 12.375 2.175
43.875 12.375 1.425
43.875 12.375 1.875
46.725 10.725 0.825
43.425 14.025 1.875
43.425 14.025 0.675
44.625 16.575 1.275
44.625 16.575 -0.225
44.625 16.575 1.425
44.625 16.575 2.025
44.625 16.575 0.675
46.875 10.725 -0.675
46.875 10.725 0.825
44.175 11.925 0.825
44.175 16.125 -0.075
44.175 11.925 0.975
43.425 13.875 0.825
47.025 10.725 -0.225
47.025 10.725 1.125
47.025 10.725 0.975
46.425 10.725 -0.225
43.575 15.075 -2.325
43.575 15.075 -2.175
43.575 15.075 0.375
47.775 10.875 4.125
45.675 10.875 0.375
45.675 10.875 0.075
45.675 10.875 -0.225
44.775 16.725 0.225
44.775 11.325 0.825
44.025 12.075 2.325
44.025 12.075 0.975
44.025 12.075 1.125
43.425 13.575 0.525
45.225 11.025 1.575
45.225 11.025 0.525
45.225 11.025 -0.075
45.225 11.025 0.225
43.725 15.525 -0.825
47.325 10.725 2.925
47.325 10.725 0.375
43.425 13.425 1.425
43.425 13.425 1.125
43.425 14.625 -3.075
43.575 15.225 0.375
45.525 17.175 1.275
45.525 17.175 0.825
43.875 12.225 1.425
44.925 11.175 2.025
44.925 11.175 0.975
43.425 13.275 4.575
44.325 11.625 0.975
44.325 11.625 0.375
44.325 16.425 0.825
44.475 16.575 0.075
44.475 16.575 0.975
44.475 11.475 0.825
44.175 16.275 0.075
44.175 16.275 0.675
44.175 16.275 -0.525
44.175 11.775 3.525
44.175 11.775 0.975
44.175 11.775 1.875
44.625 11.325 0.825
44.025 11.925 0.975
44.025 11.925 1.125
43.425 13.125 1.275
43.425 14.925 0.825
45.075 17.025 0.075
45.075 11.025 0.975
43.725 12.375 1.575
43.725 15.675 0.525
43.575 12.675 0.975
43.575 12.675 0.225
43.575 15.375 -0.975
45.375 10.875 0.075
45.375 10.875 0.975
46.725 10.575 0.975
46.725 10.575 -0.225
46.725 10.575 0.825
46.725 10.575 0.675
46.725 10.575 0.225
43.275 14.025 0.825
46.875 10.575 0.825
46.575 10.575 0.825
46.575 10.575 0.225
46.875 10.575 -0.075
46.875 10.575 0.375
44.775 11.175 0.975
44.775 11.175 0.075
43.875 12.075 0.975
43.875 12.075 1.725
43.875 12.075 1.125
43.275 14.175 0.825
43.275 13.875 1.575
43.275 13.875 -0.675
45.675 17.325 0.525
45.675 10.725 0.075
45.675 10.725 -1.125
43.425 15.075 0.525
43.425 12.975 0.375
47.175 10.575 -0.225
47.175 10.575 0.675
47.175 10.575 1.275
43.275 14.475 1.425
43.275 13.575 1.275
45.225 10.875 1.425
45.225 10.875 0.975
45.225 17.175 4.725
45.225 17.175 0.525
43.725 15.825 0.375
43.725 12.225 1.425
43.725 12.225 -1.275
44.925 17.025 -0.225
44.925 17.025 0.825
44.325 16.575 1.575
44.325 16.575 0.225
44.325 16.575 0.825
44.325 16.575 -2.175
46.125 10.575 -0.075
43.275 13.425 1.425
43.275 13.425 1.875
43.275 13.425 1.275
44.175 16.425 0.975
43.425 12.825 0.675
43.425 12.825 1.425
44.475 16.725 -0.075
44.475 16.725 0.975
44.025 16.275 0.675
44.025 16.275 0.825
47.475 17.475 -1.425
45.975 10.575 0.225
47.475 10.575 2.625
43.275 13.275 0.975
43.275 13.275 1.275
43.275 14.775 1.575
43.275 14.775 0.225
43.275 14.775 0.525
43.875 11.925 0.825
43.875 11.925 0.975
43.875 11.925 0.225
43.875 16.125 0.825
44.625 16.875 0.525
43.575 12.375 1.425
43.575 15.675 -0.375
43.575 15.675 2.625
45.075 10.875 -1.425
45.375 10.725 0.975
45.375 10.725 -0.075
43.275 13.125 0.825
43.425 15.375 -0.825
43.425 12.675 0.975
43.425 15.375 2.775
43.725 15.975 -0.225
44.775 17.025 -0.375
44.775 17.025 -0.075
43.725 12.075 0.825
43.725 12.075 1.275
43.725 12.075 1.425
43.725 12.075 0.975
43.725 12.075 1.125
43.725 12.075 0.675
44.775 11.025 0.975
46.725 10.425 1.125
46.725 10.425 0.825
43.125 14.025 0.825
46.575 10.425 0.675
46.575 10.425 1.125
46.575 10.425 0.825
46.575 10.425 0.375
46.875 10.425 0.075
46.875 10.425 1.125
46.875 10.425 0.675
43.125 14.175 0.975
43.125 14.175 3.525
43.125 14.175 0.675
43.125 13.875 0.825
43.275 15.075 -2.925
44.175 16.575 0.825
44.175 16.575 -0.375
44.175 16.575 1.575
44.175 16.575 0.375
44.175 16.575 -0.225
45.675 10.575 0.075
43.275 12.975 0.825
44.175 11.475 -0.075
44.175 11.475 0.225
44.175 11.475 -0.225
44.325 16.725 0.675
43.125 13.725 -0.825
44.025 16.425 -0.075
44.025 11.625 0.675
45.225 17.325 1.425
45.225 17.325 0.525
45.225 10.725 0.975
43.425 12.525 0.675
43.425 12.525 0.975
43.425 12.525 1.725
43.575 12.225 1.275
43.575 12.225 1.425
47.175 10.425 1.275
43.125 14.475 2.475
43.125 13.575 1.125
43.125 13.575 1.575
44.925 17.175 1.125
44.925 10.875 4.725
44.475 11.175 -0.225
44.475 16.875 0.075
44.475 16.875 -2.175
44.475 16.875 0.825
44.475 16.875 -2.025
47.325 10.425 1.275
47.325 10.425 3.075
43.125 13.425 0.375
43.275 12.825 0.825
43.725 11.925 -0.075
43.725 11.925 0.825
43.725 11.925 0.225
43.725 11.925 0.975
43.725 11.925 0.075
44.625 11.025 -0.225
43.125 13.275 0.825
43.125 13.275 0.975
43.125 13.275 1.875
43.125 13.275 0.225
43.125 14.775 4.725
45.075 17.325 0.675
45.075 17.325 0.975
45.075 10.725 0.975
43.425 12.375 0.825
43.425 12.375 1.275
43.425 12.375 1.125
43.425 12.375 1.425
43.575 12.075 0.975
43.575 12.075 -1.275
43.575 12.075 0.675
43.575 12.075 1.125
43.575 12.075 1.425
44.775 17.175 -0.225
44.775 17.175 3.675
44.775 10.875 0.975
43.275 12.675 0.975
43.275 15.375 5.325
45.825 10.425 -1.125
45.825 17.625 5.025
43.125 13.125 1.875
43.125 13.125 1.575
43.125 14.925 4.575
43.125 14.925 1.275
44.025 16.575 -0.225
44.025 16.575 0.375
44.025 16.575 1.125
44.025 11.475 -0.225
44.175 16.725 -0.225
44.175 11.325 -0.075
44.325 16.875 -0.375
44.325 16.875 1.125
44.325 16.875 0.375
44.325 16.875 0.825
43.875 11.625 0.675
44.475 17.025 0.525
44.475 17.025 0.825
46.725 10.275 0.975
46.725 10.275 0.675
43.725 11.775 0.825
45.675 10.425 -1.125
45.675 10.425 -2.325
45.675 10.425 -1.575
46.575 10.275 0.525
42.975 14.175 3.075
44.925 17.325 3.675
47.025 10.275 2.175
47.025 10.275 0.675
47.025 10.275 1.575
45.225 10.575 1.875
45.225 10.575 -2.025
43.275 12.525 1.275
43.275 12.525 1.425
43.275 12.525 0.825
43.275 15.525 2.775
47.175 10.275 0.525
42.975 14.475 1.425
42.975 14.475 1.125
46.275 10.275 -0.525
43.575 11.925 0.375
43.575 16.125 0.225
44.625 17.175 1.875
45.525 10.425 -1.575
43.125 15.225 -2.625
43.125 12.825 0.975
43.125 12.825 1.125
43.125 12.825 0.825
42.975 13.425 1.875
47.325 10.275 0.825
44.025 16.725 1.575
44.025 16.725 0.825
44.025 16.725 -0.075
44.025 16.725 -0.225
42.975 14.775 2.025
45.975 10.275 -0.975
42.975 13.275 1.425
48.375 10.575 -2.025
45.075 10.575 0.975
45.075 10.575 -0.825
45.075 17.475 0.525
45.075 17.475 0.975
43.275 12.375 1.125
43.275 12.375 1.275
44.175 16.875 -0.375
44.175 16.875 0.825
44.175 16.875 0.075
44.175 16.875 1.875
44.175 11.175 6.075
44.775 17.325 0.675
43.425 15.975 -2.025
43.425 12.075 1.125
43.425 12.075 0.975
43.425 12.075 0.825
43.425 12.075 1.275
44.325 17.025 1.125
44.325 17.025 1.275
43.725 11.625 0.525
43.725 11.625 0.375
43.725 11.625 0.975
43.725 11.625 0.675
45.375 17.625 0.525
45.375 10.425 1.875
43.125 15.375 0.375
43.125 12.675 0.975
43.125 12.675 1.125
45.825 10.275 -0.975
42.975 14.925 5.175
42.975 14.925 1.575
42.975 13.125 0.525
43.575 16.275 0.525
43.575 11.775 1.125
44.475 17.175 3.675
43.275 12.225 0.825
43.275 12.225 1.425
43.275 12.225 2.025
44.925 10.575 -2.175
45.225 10.425 -0.075
45.225 10.425 -0.225
46.725 10.125 0.225
46.725 10.125 2.625
46.725 10.125 0.825
46.725 10.125 1.125
46.725 10.125 0.075
43.125 12.525 -1.125
43.125 12.525 1.275
43.125 12.525 0.825
43.125 12.525 1.125
43.125 12.525 1.425
42.825 13.875 0.675
42.825 13.875 4.875
46.575 10.125 0.975
46.575 10.125 0.675
46.575 10.125 0.825
46.875 10.125 0.525
46.875 10.125 -1.275
42.825 14.325 2.625
47.025 10.125 0.075
47.025 10.125 0.675
43.425 11.925 1.125
43.425 11.925 -0.075
42.825 14.475 2.175
43.875 16.725 0.825
43.875 16.725 -0.075
43.875 16.725 -0.225
43.875 16.725 0.075
44.025 16.875 -0.225
44.025 16.875 0.975
44.025 16.875 -0.375
44.025 16.875 -0.825
44.025 11.175 0.525
43.725 16.575 0.525
43.725 16.575 -0.225
43.725 16.575 0.075
42.975 15.225 0.525
42.975 12.825 1.275
43.725 11.475 0.075
43.725 11.475 -0.225
43.725 11.475 0.525
42.825 14.625 1.125
42.825 14.625 1.275
42.825 13.425 0.675
47.325 10.125 0.825
43.575 11.625 0.975
43.575 11.625 2.025
45.075 10.425 0.975
45.075 17.625 2.475
45.075 17.625 4.425
44.325 17.175 1.125
43.125 12.375 1.275
43.125 12.375 0.675
43.125 12.375 1.575
43.275 15.975 0.525
44.775 10.575 0.975
44.775 10.575 1.125
43.275 12.075 2.025
43.275 12.075 0.825
43.275 12.075 0.975
43.275 12.075 1.575
43.275 12.075 0.525
42.825 14.775 1.875
42.825 14.775 2.175
45.375 17.775 0.675
42.975 12.675 1.125
45.375 10.275 -0.225
45.375 10.275 1.425
45.375 10.275 1.725
44.475 17.325 1.125
43.425 11.775 0.975
43.425 11.775 1.275
42.825 14.925 1.875
42.825 14.925 1.425
42.825 14.925 1.725
42.825 13.125 2.325
42.825 13.125 0.525
47.625 10.125 0.825
47.625 10.125 2.925
45.825 10.125 0.675
44.925 10.425 0.975
43.125 12.225 0.375
43.125 12.225 1.425
44.925 10.425 0.375
44.925 10.425 1.125
44.025 17.025 -0.825
44.025 17.025 1.575
44.025 17.025 1.425
43.725 16.725 -0.225
43.725 11.325 0.525
45.225 10.275 0.975
42.975 12.525 1.725
42.975 12.525 1.125
45.675 10.125 0.075
45.675 10.125 -2.325
46.725 9.975 0.675
43.575 16.575 -0.375
43.575 16.575 0.825
43.575 16.575 -0.225
43.575 16.575 4.875
43.575 16.575 -0.075
46.875 9.975 0.825
46.875 9.975 0.525
46.875 9.975 1.125
44.175 17.175 -0.525
44.175 17.175 0.525
44.175 17.175 0.375
44.175 17.175 3.225
47.025 9.975 1.125
47.025 9.975 0.825
46.425 9.975 0.075
42.675 14.325 2.625
42.675 14.325 2.025
47.175 9.975 0.825
46.275 9.975 -0.525
42.675 14.475 0.975
44.325 17.325 -0.225
44.325 17.325 4.575
42.825 12.825 1.275
45.525 10.125 0.075
43.425 11.625 -2.175
43.425 11.625 0.825
43.425 11.625 2.175
46.125 18.075 0.375
43.125 15.975 -1.275
44.775 10.425 0.075
47.325 9.975 0.375
43.125 12.075 0.825
43.125 12.075 1.125
43.125 12.075 0.975
42.675 14.625 1.425
42.675 14.625 1.275
45.075 10.275 0.975
42.975 12.375 0.675
47.475 9.975 0.675
47.475 9.975 1.125
47.475 9.975 3.675
47.475 9.975 3.525
45.975 9.975 0.975
44.475 10.575 0.075
43.275 11.775 2.025
43.275 11.775 0.225
42.675 14.775 1.575
42.675 14.775 1.875
42.675 14.775 2.025
42.675 14.775 1.275
42.675 13.275 2.475
42.825 12.675 2.925
42.825 12.675 1.275
45.375 10.125 0.975
45.375 10.125 1.425
45.375 10.125 0.675
48.075 10.125 -2.775
43.875 17.025 1.425
43.875 17.025 -0.675
43.725 16.875 -0.525
43.725 11.175 -0.225
43.575 16.725 0.075
43.575 16.725 0.675
45.825 9.975 0.675
44.025 17.175 0.825
44.025 17.175 -0.375
44.025 17.175 0.675
42.675 13.125 2.475
42.675 14.925 1.425
42.675 14.925 0.975
42.975 12.225 0.525
42.975 12.225 -0.225
42.975 12.225 1.125
44.925 10.275 0.975
44.625 10.425 -0.075
44.175 17.325 0.075
44.175 17.325 0.375
44.175 17.325 -2.475
44.175 17.325 -0.225
43.425 11.475 0.525
43.425 11.475 0.825
42.825 12.525 2.025
42.825 12.525 1.875
42.825 15.525 0.825
45.225 10.125 0.225
45.225 10.125 -2.175
45.225 10.125 0.075
42.675 12.975 2.175
46.725 9.825 0.975
42.525 14.025 -0.075
44.325 17.475 1.275
46.875 9.825 0.975
46.575 9.825 -1.125
46.575 9.825 0.975
46.875 9.825 1.125
43.275 11.625 0.825
43.275 11.625 -0.525
42.525 13.875 5.175
42.525 14.175 1.575
47.025 9.825 -0.225
47.025 9.825 0.975
47.025 9.825 0.525
47.025 9.825 1.125
46.425 9.825 1.275
42.525 14.325 1.575
42.525 14.325 0.975
42.525 13.725 5.025
47.175 9.825 0.975
47.175 9.825 0.525
42.525 14.475 -0.525
42.525 14.475 1.875
42.525 14.475 2.175
42.525 13.575 0.525
42.675 15.225 -2.175
42.675 15.225 0.525
42.675 12.825 0.525
42.675 12.825 1.275
42.975 15.975 -1.725
42.975 12.075 0.525
42.975 12.075 1.725
42.975 12.075 0.825
42.975 12.075 0.975
44.775 10.275 -2.175
42.825 12.375 2.175
42.825 12.375 2.625
45.075 10.125 1.125
45.075 10.125 -0.075
43.725 17.025 -0.375
43.725 11.025 0.675
47.325 9.825 3.675
47.325 9.825 0.225
42.525 14.625 2.025
42.525 14.625 2.175
42.525 14.625 1.425
42.525 13.425 0.375
43.125 16.275 -2.025
43.125 11.775 -1.275
43.575 16.875 -0.375
43.575 16.875 0.675
43.875 17.175 0.825
44.025 17.325 0.675
44.025 17.325 0.225
44.025 17.325 0.375
43.425 11.325 2.625
43.425 16.725 -0.225
43.425 16.725 -0.375
45.975 18.225 0.675
47.475 9.825 0.825
45.975 9.825 1.275
42.525 14.775 2.625
42.525 14.775 1.125
42.525 14.775 2.175
45.375 9.975 0.975
45.375 9.975 1.575
42.675 12.675 2.175
44.175 17.475 0.375
44.175 17.475 4.275
44.175 17.475 -0.975
42.825 12.225 2.625
42.825 12.225 0.975
42.525 14.925 1.425
42.525 14.925 4.425
42.975 11.925 0.975
42.975 16.125 3.075
42.975 16.125 -1.425
42.975 16.125 -1.575
45.225 9.975 0.975
45.225 9.975 2.025
42.675 12.525 1.875
44.325 17.625 0.825
45.675 9.825 -1.425
42.525 15.075 1.125
42.525 15.075 1.275
42.525 15.075 0.675
42.525 12.975 0.975
43.575 17.025 -0.225
46.725 9.675 1.275
46.725 9.675 1.125
46.725 9.675 2.775
46.725 9.675 -0.225
43.725 17.175 -0.225
43.725 17.175 0.825
46.875 9.675 0.975
46.875 9.675 0.825
46.575 9.675 0.825
46.575 9.675 1.125
42.375 14.175 0.675
42.825 12.075 2.775
47.025 9.675 1.275
47.025 9.675 0.975
43.875 17.325 1.125
43.875 17.325 0.825
43.875 17.325 1.275
43.425 11.175 5.925
47.175 9.675 1.125
47.175 9.675 0.675
47.175 9.675 1.275
47.175 9.675 0.975
42.975 16.275 -1.275
46.275 18.375 0.675
46.275 9.675 -0.375
46.275 9.675 -1.575
42.975 11.775 0.525
45.075 9.975 2.175
45.075 9.975 0.075
45.075 9.975 1.125
45.075 9.975 0.225
42.375 14.475 1.575
42.375 14.475 2.325
42.375 14.475 1.275
44.025 17.475 0.675
44.025 17.475 0.225
43.275 11.325 1.725
43.275 11.325 0.225
43.275 11.325 0.525
43.275 16.725 -0.375
47.325 9.675 1.125
47.325 9.675 0.825
46.125 9.675 1.725
42.375 14.625 2.475
45.375 9.825 1.575
43.125 11.475 4.125
42.525 12.675 3.375
42.525 15.375 0.225
42.525 15.375 0.675
42.525 15.375 0.075
47.475 9.675 1.275
47.475 9.675 0.825
42.375 13.275 -0.225
42.825 11.925 0.825
42.825 11.925 1.125
42.825 16.125 -1.725
42.825 11.925 1.575
42.825 11.925 1.725
42.825 11.925 0.225
42.825 11.925 0.675
44.925 9.975 -2.325
44.925 9.975 -2.175
47.625 9.675 0.675
42.375 14.925 1.125
42.375 14.925 0.375
44.325 17.775 0.375
42.975 11.625 1.275
42.975 11.625 0.825
42.975 11.625 0.675
42.975 11.625 1.425
43.575 17.175 -0.225
43.575 17.175 0.825
43.725 17.325 -0.225
43.725 17.325 1.725
45.225 9.825 0.975
45.225 9.825 0.525
43.425 17.025 0.525
43.425 17.025 -0.225
42.525 12.525 3.375
42.525 12.525 1.575
45.675 9.675 -1.875
45.675 9.675 0.525
45.675 9.675 0.675
45.675 9.675 -1.725
42.375 15.075 0.375
43.875 17.475 0.825
43.875 17.475 0.075
42.375 12.975 1.125
43.275 11.175 5.475
43.275 16.875 -0.075
43.275 16.875 -0.375
42.675 12.075 1.575
42.675 12.075 0.225
46.725 9.525 1.275
46.725 9.525 1.125
46.725 9.525 0.525
44.025 17.625 -0.675
43.125 11.325 0.675
42.825 11.775 0.825
42.825 11.775 1.725
42.825 11.775 0.225
42.825 11.775 1.425
42.825 11.775 -0.675
42.825 11.775 0.975
42.825 11.775 0.075
46.875 9.525 0.975
46.875 9.525 2.625
46.875 9.525 1.275
44.475 17.925 0.225
42.225 14.175 3.225
47.025 9.525 0.975
42.225 14.325 1.725
42.225 14.325 2.925
42.225 14.325 0.825
42.225 14.325 2.175
45.075 18.225 1.125
45.075 9.825 -0.075
45.525 18.375 0.975
45.525 9.675 -1.275
42.375 15.225 0.075
42.375 15.225 -2.175
42.525 12.375 2.625
42.525 12.375 0.525
42.225 14.475 2.025
42.225 14.475 1.725
42.225 14.475 0.675
42.225 14.475 2.475
46.275 9.525 0.225
42.975 11.475 2.175
42.975 11.475 1.575
44.175 17.775 0.675
42.225 14.625 1.875
42.225 13.425 5.025
45.375 9.675 0.675
45.375 9.675 1.425
45.375 9.675 0.975
42.375 15.375 -0.675
42.375 15.375 1.575
42.375 15.375 0.525
42.375 12.675 2.175
42.375 12.675 1.575
42.375 12.675 -1.125
43.575 17.325 1.875
47.475 9.525 3.675
43.425 17.175 0.825
42.675 11.925 0.225
42.675 11.925 2.775
44.925 18.225 3.525
42.525 12.225 2.625
50.175 11.025 4.425
43.725 17.475 1.275
43.275 17.025 0.375
43.275 11.025 0.825
43.275 11.025 0.975
42.825 11.625 0.975
44.325 17.925 0.825
47.625 9.525 0.675
45.825 9.525 -1.725
42.225 14.925 1.125
42.225 13.125 0.375
43.875 17.625 0.525
43.125 16.875 0.975
45.225 9.675 4.575
45.675 18.525 0.825
42.225 15.075 0.375
42.975 16.725 0.225
44.775 9.825 1.125
44.775 9.825 5.325
42.075 14.175 4.425
46.875 9.375 1.125
42.225 15.225 1.425
42.225 15.225 0.375
42.225 15.225 0.525
45.525 9.525 0.375
42.825 11.475 1.725
47.025 9.375 3.075
46.425 9.375 2.475
44.175 17.925 0.675
44.175 17.925 -0.225
43.425 17.325 -0.225
43.575 17.475 1.575
46.275 9.375 -0.225
43.275 17.175 0.675
43.275 17.175 -1.425
43.275 17.175 -0.825
43.125 17.025 0.825
43.125 17.025 -0.675
43.125 17.025 -0.975
43.125 11.025 0.825
42.075 14.625 1.425
42.075 14.625 1.725
44.625 9.825 1.125
44.625 9.825 -0.975
42.525 11.925 0.525
42.225 12.675 3.225
44.325 18.075 -0.225
44.925 9.675 -2.625
44.925 9.675 0.225
42.075 13.275 0.075
45.975 9.375 -0.225
45.825 9.375 -0.075
45.225 9.525 2.025
45.225 9.525 1.125
42.225 15.525 -1.725
44.025 17.925 0.375
42.525 11.775 0.075
42.525 11.775 1.875
42.075 15.075 0.225
44.775 9.675 0.975
43.275 17.325 -1.425
43.275 17.325 0.525
43.575 17.625 -0.075
43.575 17.625 0.825
43.575 17.625 1.275
43.125 17.175 0.675
43.125 17.175 -0.225
43.125 17.175 0.825
45.075 9.525 -0.075
45.075 9.525 6.975
46.725 9.225 1.875
41.925 14.025 3.675
43.725 17.775 -0.375
42.075 15.225 0.675
42.975 17.025 0.825
42.975 11.025 1.125
41.925 14.175 2.175
46.425 18.825 -4.125
47.025 9.225 1.275
41.925 14.325 0.525
41.925 14.325 2.175
41.925 13.725 5.175
46.275 9.225 -0.225
46.275 9.225 0.075
41.925 14.475 -1.875
41.925 14.475 2.325
42.825 16.875 0.825
47.325 9.225 0.225
47.325 9.225 1.125
42.525 11.625 -1.275
42.525 11.625 2.025
41.925 14.625 2.175
41.925 14.625 2.475
42.075 15.375 0.375
44.925 9.525 0.975
44.925 9.525 0.825
45.975 9.225 -0.225
47.475 9.225 1.875
47.475 9.225 1.275
41.925 13.275 4.575
42.675 16.725 4.425
43.275 17.475 -0.075
43.275 17.475 -0.375
43.275 17.475 1.875
43.275 10.575 0.975
43.275 10.575 1.125
43.125 17.325 -0.375
43.125 17.325 -1.575
47.625 9.225 0.225
43.575 17.775 0.375
43.575 17.775 -0.375
43.575 17.775 0.675
44.775 18.525 3.375
42.225 12.075 -0.075
44.175 18.225 3.075
41.925 15.075 1.125
42.825 11.025 1.725
43.725 17.925 2.175
45.075 9.375 0.975
45.075 9.375 -0.075
41.925 15.225 0.675
46.725 9.075 1.725
41.775 14.025 3.075
43.875 18.075 -0.225
43.875 18.075 1.425
43.875 18.075 0.225
43.875 18.075 0.075
41.775 14.175 3.825
41.775 13.725 0.525
44.625 9.525 0.975
44.325 9.675 -0.525
47.175 9.075 1.275
46.275 9.075 -0.375
41.775 14.475 3.375
41.775 14.475 2.625
41.775 14.475 1.725
46.125 9.075 -1.425
46.125 9.075 2.775
43.275 17.625 0.675
43.275 17.625 1.725
43.125 17.475 0.525
43.125 17.475 -0.225
43.125 17.475 -2.025
41.775 14.625 0.525
41.775 14.625 2.775
41.775 13.425 5.025
44.025 18.225 0.225
42.525 16.725 2.475
42.525 16.725 3.675
42.975 17.325 -2.175
42.975 10.725 0.975
43.425 17.775 0.675
43.425 17.775 1.125
43.425 17.775 1.275
47.475 9.075 1.125
47.475 9.075 0.825
45.975 9.075 -0.075
41.775 14.775 1.725
43.575 17.925 -0.975
42.825 10.875 1.575
45.225 9.225 1.575
41.925 15.525 0.675
41.925 12.525 -1.275
44.475 9.525 -2.175
45.825 9.075 -0.375
47.625 9.075 2.625
43.725 18.075 0.075
43.725 18.075 0.975
43.725 18.075 -0.375
42.675 17.025 1.875
42.675 11.025 1.875
44.775 9.375 0.975
45.675 9.075 -0.975
45.675 9.075 -0.225
45.075 9.225 7.125
45.075 9.225 0.975
45.075 9.225 0.075
48.375 9.225 0.225
43.875 18.225 -0.375
45.525 9.075 0.225
45.525 9.075 1.275
45.525 9.075 -0.225
41.775 15.225 1.125
41.775 12.825 2.475
42.975 17.475 -0.225
42.975 17.475 0.225
42.975 17.475 -0.675
43.275 17.775 1.275
44.325 9.525 0.375
46.725 8.925 1.125
42.225 11.625 5.175
41.625 14.025 -0.975
46.875 8.925 1.725
46.875 8.925 1.575
46.575 8.925 -0.525
46.875 8.925 1.425
44.625 9.375 0.525
44.625 9.375 0.975
42.825 10.725 0.975
47.025 8.925 1.125
47.025 8.925 1.725
41.625 13.725 2.775
41.625 14.325 1.575
41.625 14.325 1.125
47.175 8.925 1.425
46.275 8.925 -1.725
44.025 18.375 2.775
41.625 14.475 1.725
41.625 14.475 2.175
44.925 9.225 2.025
44.925 9.225 0.975
44.925 9.225 -0.375
41.925 12.225 2.625
45.375 18.975 1.875
41.775 12.675 4.125
42.675 10.875 1.425
46.125 8.925 -2.325
47.325 8.925 1.575
47.325 8.925 0.225
41.625 14.625 2.775
41.625 14.625 3.075
41.625 14.625 2.625
47.475 8.925 -0.525
47.475 8.925 0.975
47.475 8.925 1.875
41.625 14.775 1.275
44.475 9.375 0.525
44.475 9.375 0.375
42.225 16.575 -0.975
45.225 9.075 1.575
45.225 9.075 1.425
45.225 9.075 0.975
45.225 9.075 2.325
41.775 12.525 -2.325
47.625 8.925 1.575
47.625 8.925 1.125
41.625 14.925 -0.225
44.775 9.225 0.525
41.925 12.075 0.825
42.975 17.625 0.825
42.975 17.625 0.225
42.975 17.625 0.975
43.125 17.775 0.675
43.125 17.775 1.425
42.975 10.425 0.975
42.825 17.475 -0.675
42.825 17.475 0.075
42.825 17.475 -0.225
45.675 8.925 -0.825
45.675 8.925 -0.225
45.675 19.125 0.975
41.625 15.075 0.525
41.625 12.975 2.175
43.275 17.925 1.125
43.275 17.925 -0.525
43.275 10.125 0.825
45.075 9.075 2.025
45.075 9.075 1.875
45.075 9.075 1.725
45.075 9.075 -0.225
45.075 9.075 0.225
42.675 17.325 0.075
42.075 16.425 0.675
45.525 8.925 -0.075
44.625 9.225 0.975
41.625 12.825 3.375
46.725 8.775 1.725
41.475 14.025 3.675
42.525 10.875 -2.025
41.475 14.175 -0.825
41.475 13.725 0.525
47.025 8.775 -0.225
44.925 9.075 0.975
44.925 9.075 -0.075
47.175 8.775 1.425
47.175 8.775 2.775
41.475 14.475 3.375
45.375 8.925 -0.375
45.375 8.925 -0.225
45.375 8.925 0.975
41.625 12.675 1.125
41.475 13.425 2.325
46.125 8.775 -2.175
47.325 8.775 2.025
47.325 8.775 2.325
47.325 8.775 1.125
42.375 11.025 1.725
41.925 11.775 0.825
42.075 16.575 -0.825
47.475 8.775 1.275
41.475 13.275 2.175
42.975 10.275 1.275
42.975 10.275 0.225
47.475 8.775 4.125
47.475 8.775 0.825
44.175 18.675 2.625
42.825 17.625 0.675
43.125 17.925 0.225
43.125 10.125 1.425
45.225 8.925 0.975
45.225 8.925 1.575
44.775 9.075 0.525
43.275 9.975 0.675
42.675 17.475 -0.225
41.475 13.125 1.125
41.475 13.125 5.325
41.475 14.925 -0.525
41.475 12.975 2.175
41.475 12.975 1.875
45.075 8.925 -0.225
45.075 8.925 -0.525
45.075 8.925 0.975
44.025 18.675 -0.225
44.625 9.075 1.125
41.475 12.825 3.225
45.525 8.775 -0.375
45.525 8.775 -1.275
41.325 13.875 3.225
41.325 14.175 0.075
46.875 8.625 3.075
41.325 14.325 -0.075
41.325 14.325 1.275
41.325 13.725 2.925
41.325 13.725 3.225
47.025 8.625 3.525
47.025 8.625 3.225
42.975 17.925 -0.675
42.975 10.125 0.825
42.975 17.925 0.675
47.175 8.625 1.725
47.175 8.625 2.175
47.175 8.625 1.275
42.675 17.625 0.825
42.675 10.425 1.575
45.375 8.775 -0.375
45.375 8.775 0.375
41.325 14.625 0.975
41.325 13.425 0.375
47.325 8.625 1.575
47.325 8.625 1.275
47.325 8.625 1.875
46.125 8.625 -2.175
47.325 8.625 2.325
47.325 8.625 1.425
43.275 18.225 3.675
43.275 9.825 0.675
42.525 10.575 1.275
42.525 10.575 1.125
41.325 13.275 1.275
41.325 13.275 1.575
47.475 8.625 0.675
47.475 8.625 1.875
47.475 8.625 1.425
45.975 8.625 3.525
43.875 9.375 -0.075
45.225 8.775 1.425
45.225 8.775 0.975
41.475 12.525 3.525
42.375 17.325 -0.075
43.425 18.375 -0.675
45.825 19.425 0.375
47.625 8.625 0.825
43.575 18.525 -0.525
45.675 8.625 -0.825
45.075 8.775 -0.225
45.075 8.775 0.975
42.825 17.925 1.575
42.825 17.925 -0.225
44.625 8.925 0.975
44.625 8.925 0.375
42.975 18.075 0.675
42.975 18.075 0.975
42.975 9.975 0.675
42.975 9.975 1.575
42.975 9.975 0.975
42.975 9.975 1.125
41.325 12.825 2.025
41.325 12.825 -0.525
45.525 8.625 -0.375
43.125 9.825 0.825
42.525 17.625 0.675
42.075 17.025 -0.375
43.725 18.675 0.075
43.725 18.675 2.475
44.925 8.775 0.975
44.925 8.775 2.175
43.275 18.375 2.025
43.275 9.675 0.375
43.275 9.675 0.825
41.175 13.875 1.575
47.025 8.475 1.575
47.025 8.475 2.025
41.325 12.675 0.825
47.175 8.475 1.425
47.175 8.475 2.325
47.175 8.475 1.875
47.175 8.475 1.575
47.175 8.475 -2.625
46.275 8.475 -2.025
41.775 16.575 -0.375
44.175 9.075 -1.575
41.175 13.575 0.675
44.475 8.925 -0.525
42.225 10.725 1.575
42.225 10.725 1.125
42.225 10.725 1.275
43.425 18.525 -0.525
43.425 9.525 0.375
46.125 19.575 4.725
47.325 8.475 2.325
47.325 8.475 1.875
47.325 8.475 3.075
47.325 8.475 1.425
47.325 8.475 1.125
41.175 13.425 1.725
44.775 8.775 -0.525
47.475 8.475 1.725
47.475 8.475 1.875
45.225 8.625 -0.075
45.225 8.625 0.975
45.225 8.625 0.675
42.075 17.175 -1.125
43.575 18.675 -0.075
42.825 18.075 1.125
42.825 18.075 0.675
