# .PCD v0.7 - Point Cloud Data file format
VERSION 0.7
FIELDS x y z
SIZE 4 4 4
TYPE F F F
COUNT 1 1 1
WIDTH 2048
HEIGHT 1
VIEWPOINT 0 0 0 1 0 0 0
POINTS 2048
DATA ascii
-10.425 33.075 1.875
-9.075 31.875 1.875
-8.925 31.875 2.025
-11.175 32.625 4.875
-8.925 30.975 1.275
-11.475 32.175 3.975
-11.625 33.075 1.275
-7.425 32.025 2.775
-10.275 30.675 2.925
-11.925 32.775 4.725
-7.125 32.175 2.475
-10.725 30.675 1.425
-10.125 30.375 1.125
-10.575 30.525 2.625
-10.575 30.525 3.225
-10.575 30.525 2.775
-10.575 30.525 2.925
-10.575 30.525 2.475
-7.125 31.875 2.925
-6.975 32.325 1.725
-10.875 30.675 2.175
-10.875 30.675 2.025
-10.725 30.525 2.475
-10.725 30.525 1.125
-11.025 30.675 2.175
-10.425 30.375 2.775
-10.425 30.375 3.225
-10.425 30.375 2.325
-10.875 30.525 2.625
-10.125 30.225 3.825
-12.225 32.325 3.525
-12.225 32.325 1.875
-6.825 32.325 2.325
-12.225 32.175 4.275
-6.825 32.175 2.475
-10.725 30.375 2.925
-10.725 30.375 3.675
-10.725 30.375 3.225
-11.025 30.525 -3.825
-11.775 31.125 -3.075
-12.375 32.475 1.875
-10.575 30.225 1.875
-10.575 30.225 2.325
-10.575 30.225 2.475
-10.575 30.225 2.175
-7.875 30.525 1.425
-10.275 30.075 3.225
-6.675 32.175 2.325
-10.725 30.225 2.775
-11.025 30.375 2.775
-11.025 30.375 3.075
-6.975 31.425 1.425
-7.425 30.825 0.975
-7.425 30.825 0.675
-7.575 30.675 1.575
-12.375 32.025 1.425
-7.725 30.525 0.825
-12.525 32.775 4.125
-12.525 32.625 1.275
-12.525 32.625 2.025
-6.525 32.625 1.875
-12.525 32.625 1.875
-12.525 32.475 2.475
-12.525 32.475 2.175
-12.525 32.475 2.775
-6.525 32.475 1.875
-6.975 31.275 1.275
-12.525 32.325 2.325
-7.275 30.825 1.875
-10.725 30.075 2.475
-12.375 31.725 3.975
-12.525 32.175 3.525
-12.525 32.175 2.025
-12.525 32.175 2.475
-10.875 30.075 3.225
-10.875 30.075 2.925
-12.675 32.775 2.775
-11.175 30.225 2.325
-12.675 32.475 2.775
-7.125 30.825 1.425
-12.675 32.325 4.425
-6.975 30.975 1.425
-11.025 30.075 2.475
-6.675 31.425 1.275
-12.675 32.175 2.175
-6.375 32.175 1.725
-6.825 31.125 1.425
-8.625 29.775 2.025
-12.675 32.025 1.575
-12.675 32.025 2.175
-6.375 32.025 2.025
-10.875 29.925 2.625
-10.875 29.925 2.025
-7.125 30.675 1.275
-12.825 32.625 1.725
-10.575 29.775 2.325
-11.475 30.225 -3.225
-12.825 32.325 2.175
-12.825 32.325 3.075
-12.675 31.725 2.325
-6.375 31.725 4.275
-12.675 31.725 2.625
-12.825 32.175 2.475
-7.125 30.525 0.975
-7.275 30.375 -1.125
-6.825 30.825 0.975
-8.175 29.775 1.125
-10.875 29.775 3.075
-10.875 29.775 3.675
-12.825 31.875 2.475
-12.975 32.625 1.725
-12.975 32.475 1.875
-11.025 29.775 3.225
-12.975 32.325 3.375
-12.975 32.325 1.875
-10.725 29.625 2.325
-8.325 29.625 1.425
-11.775 30.225 -0.075
-12.225 30.675 -0.225
-12.225 30.675 0.075
-12.975 32.175 3.225
-6.075 32.175 1.725
-7.425 30.075 0.075
-10.425 29.475 4.275
-10.875 29.625 3.525
-12.975 32.025 1.425
-11.475 29.925 3.075
-11.475 29.925 2.625
-12.975 31.875 2.175
-13.125 32.325 5.175
-10.725 29.475 2.325
-10.725 29.475 2.775
-6.225 31.275 1.725
-7.575 29.775 1.575
-12.225 30.375 0.075
-12.375 30.525 0.975
-12.375 30.525 0.375
-10.575 29.325 2.325
-9.675 29.175 0.975
-11.025 29.475 1.875
-12.975 31.425 2.625
-12.975 31.425 2.475
-12.975 31.425 -2.175
-13.275 32.625 3.975
-13.275 32.625 4.875
-5.775 32.475 1.425
-5.775 32.325 1.725
-13.275 32.325 2.475
-12.075 30.075 0.075
-12.375 30.375 0.375
-13.275 32.175 1.725
-12.525 30.525 0.825
-10.425 29.175 3.225
-6.075 31.125 0.825
-7.425 29.625 0.225
-7.425 29.625 1.425
-12.375 30.225 0.525
-12.375 30.225 0.975
-6.675 30.225 1.275
-6.975 29.925 1.875
-6.975 29.925 0.975
-13.425 32.325 3.975
-13.425 32.325 0.075
-13.125 31.275 1.875
-7.575 29.475 0.375
-6.075 30.975 1.575
-7.275 29.625 0.975
-5.925 31.125 1.125
-12.375 30.075 0.225
-12.225 29.925 1.275
-7.425 29.475 0.675
-7.425 29.475 0.975
-7.425 29.475 1.275
-8.475 29.025 1.275
-9.525 28.875 0.525
-12.075 29.775 5.325
-5.475 32.625 1.275
-9.975 28.875 -0.075
-13.575 32.475 4.725
-5.475 32.475 1.875
-7.125 29.625 1.425
-13.575 32.325 1.425
-7.875 29.175 0.375
-8.175 29.025 0.975
-12.375 29.925 1.575
-6.525 30.075 1.125
-6.525 30.075 1.275
-6.375 30.225 1.425
-6.375 30.225 0.825
-11.325 29.175 1.425
-12.825 30.375 3.075
-12.825 30.375 2.925
-9.375 28.725 0.375
-9.675 28.725 0.825
-13.725 32.625 4.875
-9.975 28.725 1.125
-13.275 30.975 4.425
-5.775 30.975 1.575
-8.925 28.725 1.125
-12.525 29.925 0.825
-6.525 29.925 0.825
-12.375 29.775 0.675
-6.375 30.075 1.125
-6.825 29.625 1.125
-10.275 28.725 1.275
-10.425 28.725 0.975
-11.325 29.025 0.825
-11.025 28.875 0.225
-8.025 28.875 3.975
-8.475 28.725 0.675
-9.525 28.575 -0.975
-9.525 28.575 1.425
-6.375 29.925 0.825
-12.525 29.775 0.825
-12.525 29.775 0.225
-12.525 29.775 1.575
-6.525 29.775 1.275
-9.375 28.575 0.225
-9.375 28.575 0.975
-9.375 28.575 0.675
-12.825 30.075 3.975
-9.825 28.575 -0.075
-9.825 28.575 0.825
-6.675 29.625 0.825
-7.575 29.025 0.675
-6.225 30.075 1.275
-10.725 28.725 -0.075
-11.775 29.175 -1.425
-7.275 29.175 0.975
-9.075 28.575 0.375
-6.825 29.475 1.125
-6.075 30.225 0.825
-10.125 28.575 1.425
-10.125 28.575 0.375
-8.175 28.725 0.825
-10.875 28.725 0.225
-10.875 28.725 1.125
-8.775 28.575 0.525
-13.875 32.175 1.725
-7.425 29.025 1.725
-13.575 31.125 3.975
-10.425 28.575 -0.225
-10.425 28.575 0.825
-10.425 28.575 0.675
-11.025 28.725 0.525
-8.025 28.725 0.975
-12.375 29.475 0.525
-12.375 29.475 0.975
-10.575 28.575 0.375
-10.575 28.575 0.675
-8.475 28.575 0.375
-11.475 28.875 0.975
-11.475 28.875 0.825
-11.475 28.875 -1.275
-9.525 28.425 0.675
-9.675 28.425 0.675
-9.375 28.425 0.975
-11.775 29.025 -1.275
-7.275 29.025 0.675
-9.225 28.425 0.225
-9.825 28.425 1.125
-9.225 28.425 1.425
-10.725 28.575 0.825
-8.325 28.575 0.525
-9.975 28.425 1.575
-9.075 28.425 1.125
-14.025 32.475 4.875
-8.925 28.425 0.825
-10.125 28.425 1.425
-8.925 28.425 0.375
-8.775 28.425 0.675
-10.275 28.425 0.375
-8.775 28.425 0.825
-11.625 28.875 1.125
-11.325 28.725 0.975
-12.525 29.475 0.525
-12.525 29.475 0.675
-7.125 29.025 1.575
-7.125 29.025 2.025
-10.425 28.425 0.675
-10.425 28.425 1.125
-10.425 28.425 0.375
-8.625 28.425 0.825
-12.375 29.325 1.275
-12.375 29.325 0.375
-6.675 29.325 1.275
-5.925 30.075 0.975
-10.575 28.425 0.225
-10.575 28.425 0.675
-13.275 30.225 2.025
-7.275 28.875 0.525
-7.275 28.875 1.575
-9.525 28.275 1.425
-7.875 28.575 0.375
-11.175 28.575 -0.075
-9.675 28.275 0.525
-10.725 28.425 0.225
-10.725 28.425 2.475
-9.225 28.275 0.825
-9.225 28.275 -0.525
-9.825 28.275 0.375
-6.975 29.025 0.825
-12.675 29.475 2.025
-9.075 28.275 2.775
-14.175 32.475 4.875
-13.125 29.925 1.425
-5.925 29.925 1.125
-12.525 29.325 -1.725
-4.875 32.325 1.575
-8.175 28.425 -0.075
-8.175 28.425 0.525
-8.175 28.425 0.225
-8.175 28.425 0.975
-11.325 28.575 -0.075
-11.325 28.575 0.975
-13.875 31.125 -3.525
-6.675 29.175 1.125
-8.775 28.275 0.075
-5.775 30.075 1.575
-8.775 28.275 1.125
-10.275 28.275 1.425
-8.625 28.275 0.825
-8.625 28.275 0.375
-11.025 28.425 0.375
-13.425 30.225 -3.975
-12.225 29.025 0.375
-10.575 28.275 -0.075
-10.575 28.275 0.225
-14.175 31.875 1.275
-12.675 29.325 0.075
-6.975 28.875 3.375
-11.175 28.425 0.225
-7.875 28.425 0.375
-14.025 31.275 -3.525
-9.675 28.125 0.975
-9.375 28.125 0.525
-9.675 28.125 0.675
-9.375 28.125 0.375
-9.675 28.125 1.425
-8.325 28.275 -0.225
-9.225 28.125 0.975
-9.225 28.125 -0.075
-9.825 28.125 0.675
-9.075 28.125 1.425
-9.075 28.125 0.975
-14.325 32.475 5.475
-4.725 32.475 2.025
-11.625 28.575 1.125
-6.675 29.025 0.675
-12.375 29.025 0.525
-10.125 28.125 0.975
-8.925 28.125 1.425
-10.125 28.125 1.275
-14.325 32.325 4.575
-8.175 28.275 0.975
-11.325 28.425 1.575
-7.725 28.425 0.525
-7.725 28.425 0.375
-8.775 28.125 0.525
-10.275 28.125 0.225
-6.825 28.875 0.825
-12.975 29.475 1.875
-8.625 28.125 0.825
-8.025 28.275 0.225
-11.025 28.275 1.425
-11.025 28.275 1.125
-11.475 28.425 1.125
-7.575 28.425 0.525
-10.575 28.125 0.675
-8.475 28.125 0.975
-14.325 31.875 -0.975
-7.875 28.275 1.125
-7.875 28.275 0.375
-11.175 28.275 0.525
-10.725 28.125 1.725
-8.325 28.125 0.525
-9.525 27.975 0.375
-9.525 27.975 0.675
-12.375 28.875 0.075
-11.625 28.425 1.125
-7.425 28.425 0.675
-10.125 27.975 0.375
-10.125 27.975 1.275
-13.125 29.475 5.475
-8.175 28.125 0.525
-11.325 28.275 0.825
-7.725 28.275 0.525
-7.725 28.275 0.675
-7.725 28.275 0.375
-12.225 28.725 0.525
-6.825 28.725 0.525
-12.825 29.175 -0.075
-12.825 29.175 0.525
-10.275 27.975 1.725
-10.275 27.975 1.275
-12.675 29.025 0.525
-6.375 29.025 0.975
-8.025 28.125 0.675
-11.025 28.125 0.675
-8.025 28.125 0.075
-8.025 28.125 -0.375
-8.025 28.125 0.375
-14.325 31.425 -3.375
-8.625 27.975 -0.675
-10.425 27.975 1.725
-8.625 27.975 1.275
-10.425 27.975 1.275
-12.525 28.875 -1.725
-12.525 28.875 6.375
-12.525 28.875 -0.225
-11.475 28.275 1.125
-11.475 28.275 0.525
-11.475 28.275 0.975
-6.975 28.575 4.725
-7.575 28.275 0.825
-7.575 28.275 0.675
-7.575 28.275 4.425
-10.575 27.975 1.275
-8.475 27.975 -0.375
-8.475 27.975 -0.525
-8.475 27.975 1.125
-12.375 28.725 0.675
-12.375 28.725 0.975
-11.175 28.125 1.725
-11.175 28.125 1.275
-11.175 28.125 1.425
-13.125 29.325 0.675
-10.725 27.975 1.275
-10.725 27.975 0.525
-5.775 29.475 1.275
-6.075 29.175 1.125
-11.925 28.425 0.675
-9.675 27.825 -0.075
-9.375 27.825 1.125
-9.675 27.825 0.525
-11.625 28.275 1.425
-11.625 28.275 0.975
-11.625 28.275 0.075
-7.425 28.275 0.825
-14.175 30.825 4.575
-9.225 27.825 1.275
-9.225 27.825 0.825
-9.825 27.825 1.725
-12.825 29.025 0.225
-12.825 29.025 -1.425
-14.625 32.625 4.125
-9.075 27.825 1.275
-11.325 28.125 1.875
-11.325 28.125 1.275
-7.725 28.125 0.825
-10.875 27.975 2.175
-8.175 27.975 0.225
-12.675 28.875 0.675
-12.675 28.875 0.225
-8.925 27.825 1.425
-4.425 32.325 1.875
-12.525 28.725 0.225
-6.525 28.725 0.525
-12.525 28.725 0.525
-13.725 29.925 -0.975
-11.775 28.275 1.425
-11.025 27.975 1.125
-8.025 27.975 0.225
-8.025 27.975 0.675
-11.025 27.975 1.425
-8.025 27.975 0.375
-6.975 28.425 0.525
-6.975 28.425 0.375
-11.475 28.125 0.375
-11.475 28.125 1.275
-7.575 28.125 0.975
-7.575 28.125 -0.075
-5.775 29.325 1.425
-13.275 29.325 -1.575
-12.375 28.575 6.225
-6.675 28.575 0.525
-13.875 30.075 -1.275
-12.975 29.025 -1.275
-7.875 27.975 0.675
-7.875 27.975 0.075
-7.875 27.975 0.825
-11.175 27.975 1.125
-12.825 28.875 0.225
-13.575 29.625 -0.225
-11.925 28.275 1.725
-11.925 28.275 1.875
-11.925 28.275 1.275
-7.125 28.275 4.725
-10.725 27.825 2.175
-11.625 28.125 2.025
-7.425 28.125 0.825
-7.425 28.125 0.975
-7.425 28.125 0.225
-12.225 28.425 1.125
-12.225 28.425 0.375
-9.525 27.675 0.075
-9.525 27.675 1.125
-9.525 27.675 1.725
-12.675 28.725 1.125
-13.725 29.775 -0.975
-9.675 27.675 1.125
-9.675 27.675 1.725
-9.675 27.675 0.075
-9.375 27.675 1.575
-9.375 27.675 -1.125
-9.375 27.675 0.225
-9.375 27.675 1.125
-9.225 27.675 0.675
-9.225 27.675 1.275
-11.325 27.975 2.325
-7.725 27.975 2.475
-7.725 27.975 0.375
-7.725 27.975 0.675
-9.975 27.675 -0.075
-9.075 27.675 0.675
-9.975 27.675 2.025
-8.175 27.825 0.975
-10.875 27.825 1.125
-11.775 28.125 0.525
-7.275 28.125 0.525
-7.275 28.125 0.825
-11.775 28.125 1.425
-13.275 29.175 0.825
-12.075 28.275 0.975
-12.075 28.275 1.275
-11.025 27.825 0.375
-11.025 27.825 1.125
-7.575 27.975 0.675
-7.575 27.975 0.225
-13.575 29.475 -0.075
-13.575 29.475 1.875
-12.975 28.875 0.525
-12.975 28.875 0.675
-12.975 28.875 0.225
-8.625 27.675 0.975
-13.725 29.625 -0.225
-14.775 31.875 -0.825
-7.875 27.825 0.075
-11.175 27.825 1.125
-7.125 28.125 0.975
-6.375 28.575 0.375
-13.875 29.775 -0.225
-12.675 28.575 1.425
-11.625 27.975 1.275
-7.425 27.975 0.675
-7.425 27.975 0.975
-11.625 27.975 6.225
-12.225 28.275 6.225
-12.225 28.275 1.875
-6.825 28.275 1.275
-8.325 27.675 1.125
-9.675 27.525 1.275
-9.675 27.525 2.175
-12.525 28.425 0.825
-12.525 28.425 0.075
-12.525 28.425 6.075
-12.525 28.425 0.375
-12.525 28.425 1.125
-12.525 28.425 1.425
-7.725 27.825 0.975
-7.725 27.825 0.525
-9.825 27.525 1.125
-14.925 32.625 5.025
-13.125 28.875 0.375
-13.125 28.875 -1.425
-14.925 32.475 4.425
-4.125 32.475 1.875
-8.175 27.675 0.825
-10.125 27.525 0.675
-8.925 27.525 1.875
-14.925 32.325 5.325
-12.975 28.725 0.825
-12.975 28.725 -0.075
-13.725 29.475 -0.975
-13.725 29.475 1.875
-12.075 28.125 1.275
-12.075 28.125 -0.075
-5.325 29.475 1.275
-6.975 28.125 0.375
-6.975 28.125 0.825
-6.975 28.125 0.075
-6.975 28.125 0.525
-11.775 27.975 1.275
-7.275 27.975 0.075
-7.275 27.975 0.975
-7.275 27.975 0.675
-8.775 27.525 0.975
-8.775 27.525 1.575
-8.775 27.525 1.125
-14.175 30.075 -0.825
-8.025 27.675 0.825
-7.575 27.825 1.125
-7.575 27.825 -0.075
-7.575 27.825 0.525
-8.625 27.525 1.125
-8.625 27.525 1.575
-12.675 28.425 0.375
-12.675 28.425 0.675
-11.925 27.975 2.325
-11.925 27.975 1.275
-7.125 27.975 0.525
-7.125 27.975 0.975
-14.475 30.525 1.875
-8.475 27.525 1.125
-8.475 27.525 1.575
-7.875 27.675 0.975
-7.875 27.675 1.575
-11.175 27.675 0.075
-11.175 27.675 0.975
-14.325 30.225 3.825
-12.225 28.125 1.275
-12.225 28.125 2.325
-7.425 27.825 0.825
-7.425 27.825 0.675
-7.425 27.825 2.475
-13.425 29.025 1.725
-5.775 28.875 0.825
-13.275 28.875 -2.025
-8.325 27.525 1.275
-8.325 27.525 1.125
-12.525 28.275 1.575
-7.725 27.675 0.825
-6.075 28.575 -0.225
-9.225 27.375 0.975
-9.225 27.375 2.775
-8.175 27.525 -0.075
-12.075 27.975 3.375
-6.975 27.975 0.975
-6.975 27.975 0.675
-9.075 27.375 0.675
-9.075 27.375 0.525
-9.075 27.375 0.975
-9.975 27.375 1.125
-8.925 27.375 -0.375
-8.925 27.375 0.975
-10.125 27.375 1.125
-10.125 27.375 0.675
-12.375 28.125 -0.525
-12.375 28.125 1.875
-12.375 28.125 1.275
-6.675 28.125 0.225
-11.475 27.675 0.375
-8.775 27.375 -0.375
-10.275 27.375 1.125
-12.675 28.275 2.025
-12.675 28.275 1.425
-12.675 28.275 1.875
-4.875 29.775 1.125
-5.775 28.725 1.425
-7.125 27.825 0.375
-6.825 27.975 0.075
-6.825 27.975 -0.075
-6.825 27.975 1.125
-6.825 27.975 0.825
-14.475 30.225 3.975
-13.125 28.575 0.825
-13.125 28.575 1.425
-15.075 31.875 -0.675
-11.625 27.675 -0.975
-14.325 29.925 -0.675
-12.525 28.125 1.125
-6.525 28.125 0.525
-6.525 28.125 0.825
-14.925 31.125 4.575
-4.125 31.125 1.725
-7.725 27.525 1.125
-12.075 27.825 1.275
-6.975 27.825 0.675
-6.975 27.825 0.375
-6.975 27.825 1.275
-12.825 28.275 0.375
-12.825 28.275 1.875
-6.225 28.275 0.375
-6.675 27.975 0.825
-12.375 27.975 0.075
-4.575 30.075 1.425
-5.475 28.875 1.125
-8.925 27.225 1.725
-8.925 27.225 0.825
-5.625 28.725 0.675
-5.625 28.725 0.825
-5.625 28.725 1.275
-13.425 28.725 7.125
-6.375 28.125 0.225
-7.575 27.525 0.825
-7.575 27.525 1.125
-4.125 30.975 1.425
-5.175 29.175 0.975
-13.275 28.575 0.975
-13.275 28.575 0.375
-8.025 27.375 2.175
-8.025 27.375 1.725
-8.025 27.375 1.125
-15.225 32.175 -0.375
-5.925 28.425 0.825
-8.625 27.225 2.025
-6.825 27.825 0.525
-6.825 27.825 0.225
-6.825 27.825 5.325
-7.125 27.675 0.675
-11.925 27.675 1.425
-6.525 27.975 0.825
-12.525 27.975 1.275
-6.525 27.975 0.675
-12.525 27.975 1.575
-12.525 27.975 0.075
-6.525 27.975 -0.225
-4.575 29.925 1.275
-7.875 27.375 3.375
-7.875 27.375 1.125
-7.875 27.375 1.575
-12.975 28.275 -1.275
-7.425 27.525 0.975
-4.125 30.825 0.675
-8.475 27.225 -1.275
-8.325 27.225 0.975
-12.825 28.125 1.425
-14.325 29.625 -0.975
-6.225 28.125 0.975
-6.225 28.125 0.525
-5.475 28.725 0.975
-5.325 28.875 1.125
-5.475 28.725 0.675
-7.725 27.375 -1.425
-3.975 31.125 1.275
-12.075 27.675 1.425
-14.775 30.375 4.425
-6.675 27.825 0.825
-6.675 27.825 0.975
-6.675 27.825 0.675
-13.425 28.575 0.525
-13.425 28.575 -0.975
-13.425 28.575 0.825
-5.625 28.575 0.825
-7.275 27.525 2.325
-4.125 30.675 1.725
-8.175 27.225 0.975
-8.175 27.225 1.125
-13.275 28.425 0.675
-13.275 28.425 4.425
-6.375 27.975 0.675
-6.375 27.975 0.375
-12.675 27.975 0.975
-9.975 27.075 0.225
-4.575 29.775 1.125
-8.925 27.075 3.075
-7.575 27.375 1.275
-7.575 27.375 1.575
-3.975 30.975 1.125
-8.025 27.225 -1.575
-14.775 30.225 0.075
-11.925 27.525 1.125
-7.125 27.525 0.975
-12.975 28.125 0.375
-12.975 28.125 1.425
-6.075 28.125 0.525
-6.525 27.825 -0.525
-6.525 27.825 0.525
-8.625 27.075 1.125
-8.625 27.075 3.525
-7.875 27.225 0.975
-7.425 27.375 0.675
-3.975 30.825 0.975
-3.975 30.825 1.725
-13.725 28.725 1.725
-8.475 27.075 0.975
-5.475 28.575 0.825
-5.475 28.575 0.675
-5.475 28.575 1.125
-6.225 27.975 0.375
-6.225 27.975 0.975
-13.425 28.425 0.825
-13.425 28.425 3.825
-5.625 28.425 0.375
-5.025 29.025 0.975
-10.725 27.075 0.225
-14.925 30.375 4.425
-6.975 27.525 -0.075
-6.675 27.675 0.825
-6.675 27.675 0.375
-14.175 29.175 -0.825
-13.275 28.275 1.275
-4.275 30.075 1.425
-7.275 27.375 1.575
-6.375 27.825 1.275
-6.375 27.825 0.825
-6.375 27.825 0.525
-12.675 27.825 1.275
-13.125 28.125 2.175
-5.925 28.125 0.525
-8.175 27.075 2.175
-10.875 27.075 0.225
-7.575 27.225 0.975
-7.575 27.225 1.875
-7.575 27.225 1.575
-6.075 27.975 0.975
-6.075 27.975 2.175
-8.025 27.075 0.975
-8.025 27.075 0.825
-6.525 27.675 0.975
-13.725 28.575 0.075
-13.725 28.575 0.525
-5.175 28.725 0.825
-7.125 27.375 0.825
-7.125 27.375 1.125
-5.325 28.575 0.675
-13.575 28.425 0.225
-13.575 28.425 0.825
-13.575 28.425 3.975
-13.575 28.425 -0.075
-5.475 28.425 0.825
-5.025 28.875 1.425
-4.875 29.025 1.275
-13.425 28.275 0.525
-13.425 28.275 0.375
-13.425 28.275 4.275
-14.175 29.025 -0.375
-11.625 27.225 0.975
-7.425 27.225 1.125
-7.425 27.225 1.575
-6.225 27.825 1.275
-6.225 27.825 0.375
-6.225 27.825 0.675
-14.625 29.625 -0.825
-11.175 27.075 0.675
-5.775 28.125 0.225
-6.675 27.525 0.825
-14.925 30.075 4.125
-8.325 26.925 0.675
-13.125 27.975 1.275
-5.925 27.975 0.375
-7.725 27.075 2.025
-6.375 27.675 -0.825
-7.275 27.225 1.125
-11.775 27.225 0.825
-15.225 30.675 4.125
-8.175 26.925 0.825
-13.875 28.575 0.375
-9.375 26.775 1.425
-13.725 28.425 0.375
-14.025 28.725 0.375
-5.325 28.425 0.075
-6.075 27.825 0.825
-7.575 27.075 1.125
-7.575 27.075 1.875
-13.575 28.275 1.125
-13.575 28.275 0.375
-13.575 28.275 0.825
-5.475 28.275 1.575
-5.475 28.275 1.275
-12.225 27.375 1.275
-12.225 27.375 1.125
-6.525 27.525 0.675
-10.125 26.775 0.525
-3.375 32.325 1.425
-7.125 27.225 1.125
-11.925 27.225 1.125
-11.025 26.925 0.975
-5.625 28.125 1.275
-13.425 28.125 1.125
-13.425 28.125 0.825
-14.325 29.025 0.375
-3.825 30.525 1.725
-12.825 27.675 0.075
-12.825 27.675 1.275
-12.825 27.675 0.675
-6.225 27.675 0.675
-6.225 27.675 0.375
-6.225 27.675 0.225
-5.775 27.975 1.875
-5.775 27.975 0.375
-13.275 27.975 0.225
-13.275 27.975 1.275
-5.775 27.975 0.525
-14.475 29.175 -0.525
-8.625 26.775 0.525
-10.425 26.775 -0.075
-5.925 27.825 2.325
-5.925 27.825 0.225
-6.375 27.525 0.825
-4.125 29.775 0.825
-13.875 28.425 0.375
-13.875 28.425 0.675
-14.025 28.575 0.525
-5.025 28.575 0.075
-5.025 28.575 0.525
-15.525 31.125 4.575
-4.875 28.725 1.275
-4.875 28.725 1.725
-13.725 28.275 0.675
-10.725 26.775 -0.225
-10.725 26.775 2.025
-15.375 30.675 0.675
-14.325 28.875 0.675
-4.725 28.875 1.425
-4.725 28.875 1.875
-12.975 27.675 1.125
-6.075 27.675 1.125
-6.075 27.675 0.675
-6.075 27.675 1.575
-8.175 26.775 2.475
-15.675 31.575 3.675
-15.825 32.925 4.725
-5.625 27.975 0.825
-13.425 27.975 1.275
-13.425 27.975 1.425
-5.625 27.975 0.075
-4.575 29.025 1.275
-12.225 27.225 1.425
-9.825 26.625 0.375
-11.475 26.925 0.225
-15.825 32.475 4.275
-15.375 30.525 0.675
-12.825 27.525 1.425
-5.775 27.825 0.825
-5.775 27.825 0.675
-5.775 27.825 0.375
-13.275 27.825 1.425
-11.625 26.925 0.375
-7.425 26.925 1.725
-8.625 26.625 0.675
-14.025 28.425 0.975
-5.025 28.425 1.725
-13.125 27.675 1.125
-5.925 27.675 0.825
-5.925 27.675 0.675
-4.275 29.325 0.675
-5.175 28.275 2.025
-6.675 27.225 1.425
-6.675 27.225 0.075
-12.375 27.225 1.275
-13.725 28.125 0.825
-4.725 28.725 1.425
-5.325 28.125 1.275
-5.325 28.125 1.125
-12.075 27.075 0.975
-12.075 27.075 1.275
-6.375 27.375 -0.375
-6.975 27.075 1.575
-13.575 27.975 1.275
-5.475 27.975 0.975
-4.575 28.875 1.275
-7.275 26.925 0.825
-7.275 26.925 2.025
-12.975 27.525 1.125
-7.725 26.775 4.275
-5.625 27.825 0.525
-5.625 27.825 0.375
-5.625 27.825 0.225
-4.425 29.025 1.125
-4.425 29.025 0.825
-6.525 27.225 1.125
-12.225 27.075 1.275
-9.525 26.475 0.225
-9.375 26.475 0.525
-5.775 27.675 0.675
-5.775 27.675 0.075
-11.475 26.775 0.825
-11.475 26.775 0.525
-15.975 32.775 4.575
-12.825 27.375 -0.075
-12.825 27.375 1.425
-12.825 27.375 2.175
-6.225 27.375 0.225
-6.225 27.375 1.575
-6.225 27.375 -0.075
-15.975 32.625 4.275
-3.975 29.625 1.425
-3.975 29.625 0.825
-11.925 26.925 1.725
-7.125 26.925 0.825
-15.525 30.525 4.575
-4.875 28.425 2.475
-14.175 28.425 0.675
-5.025 28.275 2.175
-5.025 28.275 0.975
-11.025 26.625 0.225
-10.125 26.475 0.525
-14.325 28.575 0.225
-13.875 28.125 0.675
-5.175 28.125 1.275
-5.175 28.125 2.775
-4.725 28.575 2.475
-4.725 28.575 0.975
-4.725 28.575 1.275
-5.925 27.525 1.725
-5.925 27.525 1.125
-14.475 28.725 5.625
-5.325 27.975 0.825
-4.575 28.725 1.275
-4.575 28.725 1.425
-4.575 28.725 1.125
-7.425 26.775 0.825
-12.375 27.075 1.875
-6.675 27.075 0.975
-6.675 27.075 1.425
-6.675 27.075 1.575
-6.375 27.225 -0.225
-12.675 27.225 1.575
-6.375 27.225 0.825
-6.375 27.225 1.125
-13.575 27.825 1.725
-13.575 27.825 1.875
-13.575 27.825 1.275
-4.425 28.875 1.725
-4.425 28.875 1.425
-5.475 27.825 -0.225
-5.475 27.825 0.525
-5.475 27.825 0.675
-5.475 27.825 -0.075
-6.975 26.925 0.975
-12.975 27.375 2.025
-4.275 29.025 0.975
-4.275 29.025 1.275
-11.775 26.775 1.725
-7.275 26.775 0.975
-5.775 27.525 2.625
-5.775 27.525 1.725
-14.175 28.275 0.675
-4.875 28.275 2.325
-4.875 28.275 -0.075
-4.875 28.275 2.025
-14.325 28.425 3.975
-12.225 26.925 1.575
-12.225 26.925 1.725
-6.825 26.925 0.975
-6.825 26.925 0.525
-14.025 28.125 0.825
-14.025 28.125 0.675
-5.025 28.125 2.025
-4.725 28.425 2.175
-3.525 30.225 0.975
-6.225 27.225 2.625
-6.225 27.225 1.125
-6.225 27.225 1.725
-13.875 27.975 0.525
-5.175 27.975 3.375
-4.575 28.575 1.425
-4.575 28.575 2.175
-9.525 26.325 0.525
-4.425 28.725 1.575
-4.425 28.725 1.425
-4.425 28.725 -1.275
-4.425 28.725 1.275
-9.825 26.325 0.825
-13.725 27.825 1.275
-5.325 27.825 0.825
-5.325 27.825 0.525
-5.325 27.825 -0.075
-3.975 29.325 0.675
-3.975 29.325 1.125
-11.025 26.475 0.525
-10.125 26.325 0.975
-10.125 26.325 0.225
-13.575 27.675 1.275
-5.475 27.675 0.225
-5.475 27.675 0.525
-5.475 27.675 0.825
-5.475 27.675 -0.075
-4.275 28.875 0.975
-4.275 28.875 1.275
-4.275 28.875 1.425
-11.625 26.625 0.675
-12.375 26.925 1.725
-8.775 26.325 0.825
-8.775 26.325 0.375
-10.275 26.325 0.075
-2.925 32.175 1.575
-12.675 27.075 0.675
-6.375 27.075 0.075
-6.375 27.075 1.125
-6.375 27.075 2.625
-11.175 26.475 0.525
-12.075 26.775 1.125
-12.075 26.775 1.875
-12.075 26.775 1.575
-8.625 26.325 0.975
-8.625 26.325 0.525
-16.125 32.025 3.675
-4.125 29.025 0.225
-13.425 27.525 1.125
-5.625 27.525 0.675
-12.975 27.225 1.125
-6.075 27.225 0.375
-8.475 26.325 0.525
-4.875 28.125 2.175
-4.725 28.275 2.325
-5.025 27.975 2.175
-14.025 27.975 0.825
-14.475 28.425 0.825
-4.575 28.425 1.425
-4.575 28.425 2.325
-4.575 28.425 0.975
-4.575 28.425 0.675
-5.775 27.375 0.375
-14.625 28.575 0.525
-14.625 28.575 1.725
-5.175 27.825 0.825
-13.875 27.825 0.975
-4.425 28.575 1.275
-6.525 26.925 0.975
-6.525 26.925 1.575
-10.725 26.325 1.875
-10.725 26.325 0.375
-12.825 27.075 1.425
-12.825 27.075 0.675
-12.225 26.775 1.125
-6.825 26.775 0.975
-13.725 27.675 0.675
-13.725 27.675 1.275
-13.725 27.675 2.025
-5.325 27.675 0.375
-5.325 27.675 -0.225
-5.325 27.675 0.525
-5.325 27.675 -0.075
-4.275 28.725 1.425
-4.275 28.725 1.875
-8.175 26.325 0.525
-7.575 26.475 2.775
-11.925 26.625 0.825
-15.225 29.325 -0.225
-3.825 29.325 0.675
-9.525 26.175 0.675
-5.475 27.525 0.225
-5.475 27.525 0.825
-9.375 26.175 0.675
-9.825 26.175 0.975
-9.225 26.175 0.675
-9.225 26.175 0.525
-9.975 26.175 0.525
-9.975 26.175 0.975
-10.125 26.175 0.825
-8.925 26.175 1.125
-6.375 26.925 0.975
-6.375 26.925 1.575
-12.675 26.925 0.825
-12.675 26.925 0.525
-12.675 26.925 0.225
-15.525 29.775 0.675
-12.375 26.775 0.375
-12.375 26.775 0.975
-6.675 26.775 0.825
-6.675 26.775 2.025
-15.075 29.025 0.525
-5.625 27.375 1.275
-14.325 28.125 -3.225
-4.725 28.125 2.175
-4.875 27.975 0.375
-6.075 27.075 0.825
-6.075 27.075 1.575
-6.075 27.075 1.125
-6.075 27.075 0.675
-4.575 28.275 2.325
-12.075 26.625 3.225
-12.075 26.625 1.575
-15.825 30.375 4.125
-14.625 28.425 0.075
-5.025 27.825 0.675
-4.425 28.425 0.825
-4.425 28.425 2.325
-4.425 28.425 0.975
-4.425 28.425 1.275
-8.625 26.175 1.125
-13.875 27.675 1.875
-5.175 27.675 0.675
-4.275 28.575 1.275
-4.275 28.575 1.125
-4.275 28.575 1.575
-4.275 28.575 1.875
-5.775 27.225 -0.525
-11.775 26.475 0.225
-8.475 26.175 0.675
-4.125 28.725 1.725
-4.125 28.725 0.825
-5.325 27.525 2.025
-5.325 27.525 0.675
-13.725 27.525 0.975
-13.725 27.525 1.275
-15.675 29.925 4.425
-6.525 26.775 0.225
-6.225 26.925 0.975
-6.225 26.925 1.425
-6.225 26.925 0.225
-3.525 29.625 0.975
-12.225 26.625 -0.525
-6.825 26.625 0.975
-5.925 27.075 1.575
-5.925 27.075 0.225
-13.575 27.375 1.125
-13.575 27.375 1.275
-15.075 28.875 0.825
-5.475 27.375 1.275
-3.975 28.875 1.275
-3.975 28.875 0.975
-11.925 26.475 0.975
-11.925 26.475 2.325
-3.075 30.525 0.525
-14.325 27.975 0.825
-14.325 27.975 -0.375
-4.725 27.975 3.525
-4.725 27.975 0.675
-14.475 28.125 5.925
-14.475 28.125 0.225
-4.575 28.125 3.825
-4.575 28.125 2.625
-4.875 27.825 0.675
-14.625 28.275 1.425
-4.425 28.275 0.825
-12.375 26.625 1.575
-5.025 27.675 0.675
-5.025 27.675 0.525
-14.025 27.675 -0.225
-16.275 31.425 4.275
-4.275 28.425 1.725
-14.775 28.425 -3.075
-14.775 28.425 5.475
-6.075 26.925 0.375
-6.075 26.925 1.125
-11.625 26.325 0.675
-8.925 26.025 0.375
-4.125 28.575 1.575
-14.925 28.575 0.525
-5.175 27.525 -0.225
-5.175 27.525 -0.075
-5.175 27.525 0.525
-5.175 27.525 0.675
-12.075 26.475 1.875
-8.775 26.025 0.375
-8.775 26.025 0.975
-8.625 26.025 0.975
-8.625 26.025 0.375
-15.075 28.725 5.325
-13.725 27.375 1.275
-3.975 28.725 1.425
-3.975 28.725 0.675
-15.825 29.925 3.825
-12.525 26.625 1.125
-12.525 26.625 2.775
-12.825 26.775 2.475
-12.825 26.775 0.825
-12.825 26.775 3.525
-7.725 26.175 1.425
-7.725 26.175 0.075
-5.475 27.225 -0.675
-5.475 27.225 1.275
-13.125 26.925 4.725
-14.325 27.825 -0.375
-14.625 28.125 1.275
-8.325 26.025 0.525
-7.575 26.175 2.175
-4.125 28.425 1.125
-4.125 28.425 1.575
-4.125 28.425 1.875
-4.125 28.425 1.425
-8.175 26.025 1.125
-8.175 26.025 0.825
-5.625 27.075 1.275
-15.375 29.025 0.675
-9.525 25.875 0.975
-12.375 26.475 2.175
-12.375 26.475 2.325
-9.375 25.875 0.075
-9.375 25.875 1.275
-9.675 25.875 2.025
-9.675 25.875 0.825
-13.875 27.375 1.125
-15.075 28.575 0.375
-15.075 28.575 0.975
-5.175 27.375 1.125
-5.775 26.925 1.425
-8.925 25.875 0.525
-12.075 26.325 1.725
-12.075 26.325 2.025
-13.725 27.225 1.275
-13.725 27.225 1.725
-15.225 28.725 -0.825
-15.225 28.725 -0.375
-15.225 28.725 5.325
-7.875 26.025 0.525
-14.625 27.975 0.675
-4.575 27.825 2.775
-4.575 27.825 0.525
-4.575 27.825 1.425
-14.475 27.825 0.675
-14.475 27.825 0.525
-14.475 27.825 1.125
-12.825 26.625 0.975
-4.725 27.675 0.825
-4.725 27.675 2.775
-4.725 27.675 0.675
-4.725 27.675 0.525
-4.275 28.125 2.025
-4.875 27.525 0.375
-4.875 27.525 0.675
-13.125 26.775 4.875
-4.125 28.275 2.175
-4.125 28.275 1.725
-16.125 30.225 4.725
-12.225 26.325 2.025
-12.225 26.325 1.875
-12.225 26.325 1.425
-11.325 26.025 0.825
-7.725 26.025 0.525
-5.025 27.375 -0.075
-3.975 28.425 1.575
-3.975 28.425 0.975
-3.975 28.425 1.275
-2.475 31.725 1.275
-11.925 26.175 2.325
-5.175 27.225 2.625
-5.175 27.225 1.725
-13.875 27.225 1.725
-13.875 27.225 1.125
-13.875 27.225 1.275
-3.825 28.575 1.875
-8.175 25.875 0.525
-15.825 29.475 3.975
-15.375 28.725 -0.525
-15.375 28.725 1.275
-15.675 29.175 1.275
-13.275 26.775 2.925
-9.225 25.725 0.225
-8.025 25.875 0.675
-14.625 27.825 1.425
-14.625 27.825 1.275
-4.425 27.825 0.675
-4.425 27.825 2.175
-4.425 27.825 2.625
-12.075 26.175 0.675
-12.075 26.175 2.475
-14.475 27.675 1.875
-4.575 27.675 0.675
-4.575 27.675 0.525
-4.125 28.125 2.025
-4.125 28.125 1.575
-14.325 27.525 0.375
-14.925 28.125 -3.075
-4.725 27.525 0.675
-11.175 25.875 0.675
-11.175 25.875 0.525
-5.925 26.625 0.225
-5.025 27.225 0.825
-14.025 27.225 1.125
-3.825 28.425 0.525
-12.225 26.175 0.825
-2.475 31.125 1.275
-5.625 26.775 1.725
-13.875 27.075 1.125
-3.675 28.575 0.825
-16.125 29.775 2.925
-14.625 27.675 0.075
-14.625 27.675 2.025
-4.425 27.675 0.525
-4.275 27.825 0.975
-4.275 27.825 0.825
-14.775 27.825 0.675
-8.175 25.725 0.525
-14.475 27.525 5.025
-4.575 27.525 0.675
-4.575 27.525 0.375
-4.575 27.525 3.975
-4.575 27.525 0.525
-5.775 26.625 0.825
-15.075 28.125 -0.975
-15.075 28.125 1.425
-15.075 28.125 -0.375
-15.075 28.125 -0.525
-4.725 27.375 0.375
-3.975 28.125 2.025
-3.975 28.125 2.325
-3.975 28.125 2.175
-4.875 27.225 2.775
-4.875 27.225 2.925
-12.075 26.025 2.625
-2.475 30.825 0.675
-2.475 30.825 1.275
-5.475 26.775 1.575
-6.225 26.325 1.125
-2.925 29.625 0.675
-14.025 27.075 1.725
-11.175 25.725 0.975
-5.925 26.475 0.825
-5.925 26.475 0.975
-7.875 25.725 1.125
-15.975 29.325 0.975
-2.175 32.175 1.575
-2.175 32.025 1.275
-5.625 26.625 0.975
-12.225 26.025 1.875
-13.875 26.925 0.075
-13.875 26.925 2.175
-5.175 26.925 2.625
-13.875 26.925 1.125
-11.325 25.725 0.225
-4.125 27.825 0.825
-4.125 27.825 4.125
-4.425 27.525 0.825
-4.425 27.525 0.525
-14.625 27.525 3.075
-15.075 27.975 0.375
-3.975 27.975 2.175
-3.975 27.975 2.325
-4.575 27.375 0.225
-4.575 27.375 1.125
-13.725 26.775 2.025
-2.925 29.475 0.675
-5.325 26.775 1.575
-5.325 26.775 1.425
-2.475 30.525 0.975
-12.675 26.175 2.175
-2.775 29.775 -0.225
-4.725 27.225 1.275
-15.225 28.125 -0.225
-15.225 28.125 -0.375
-3.825 28.125 2.325
-12.375 26.025 0.825
-14.175 27.075 5.025
-5.475 26.625 0.975
-12.075 25.875 3.075
-9.525 25.425 0.525
-5.025 26.925 2.625
-14.025 26.925 1.875
-15.525 28.425 1.875
-9.225 25.425 0.225
-2.025 32.625 0.075
-2.775 29.625 0.675
-2.775 29.625 0.075
-5.925 26.325 0.825
-4.125 27.675 0.825
-4.275 27.525 0.675
-4.275 27.525 2.325
-4.275 27.525 0.525
-4.275 27.525 2.475
-13.875 26.775 0.225
-13.875 26.775 0.975
-13.875 26.775 1.125
-5.175 26.775 0.975
-2.175 31.275 1.425
-15.075 27.825 -0.825
-4.425 27.375 0.375
-11.775 25.725 2.325
-2.325 30.675 1.275
-4.575 27.225 0.525
-4.575 27.225 0.375
-12.225 25.875 2.325
-2.025 32.025 0.975
-4.725 27.075 -0.375
-2.175 31.125 1.425
-13.725 26.625 0.225
-5.325 26.625 0.975
-4.875 26.925 3.375
-5.775 26.325 0.825
-12.375 25.875 0.975
-12.375 25.875 1.725
-5.475 26.475 0.825
-5.475 26.475 0.975
-5.025 26.775 0.675
-5.025 26.775 1.125
-14.025 26.775 1.275
-14.025 26.775 2.025
-4.125 27.525 0.675
-4.125 27.525 0.825
-15.075 27.675 -0.525
-14.775 27.375 0.225
-4.275 27.375 0.525
-4.275 27.375 0.825
-3.975 27.675 1.125
-3.975 27.675 0.675
-11.625 25.575 0.675
-7.425 25.575 0.225
-4.425 27.225 0.975
-4.425 27.225 0.375
-3.825 27.825 2.475
-2.625 29.625 0.975
-5.175 26.625 1.575
-12.525 25.875 1.875
-6.525 25.875 0.375
-14.475 27.075 1.425
-4.575 27.075 0.525
-5.625 26.325 0.975
-8.925 25.275 0.675
-14.325 26.925 0.075
-4.725 26.925 0.675
-4.725 26.925 -0.525
-1.875 32.175 1.425
-5.325 26.475 0.975
-5.325 26.475 2.025
-14.175 26.775 1.275
-14.175 26.775 0.825
-14.175 26.775 2.025
-15.675 28.275 0.975
-15.675 28.275 0.525
-2.025 31.125 1.425
-6.375 25.875 0.375
-1.875 31.875 1.125
-2.475 29.775 0.975
-15.825 28.425 0.525
-5.025 26.625 3.525
-5.025 26.625 1.575
-5.025 26.625 1.425
-5.025 26.625 0.975
-5.025 26.625 1.125
-14.025 26.625 1.125
-4.125 27.375 2.475
-4.125 27.375 0.375
-3.975 27.525 0.675
-1.875 31.725 1.425
-2.025 30.975 1.425
-2.025 30.975 1.275
-14.625 27.075 1.425
-4.425 27.075 0.675
-14.475 26.925 0.375
-5.175 26.475 0.975
-5.175 26.475 2.025
-12.525 25.725 1.125
-2.325 29.925 0.675
-14.325 26.775 1.725
-3.375 28.125 1.725
-4.725 26.775 3.075
-14.175 26.625 1.275
-14.175 26.625 1.575
-4.875 26.625 0.975
-4.875 26.625 0.675
-12.225 25.575 0.525
-3.975 27.375 0.825
-3.975 27.375 0.525
-3.975 27.375 0.675
-3.975 27.375 0.375
-3.825 27.525 0.525
-6.375 25.725 1.875
-11.325 25.275 0.225
-2.325 29.775 0.675
-15.375 27.675 -0.525
-14.775 27.075 -0.225
-14.775 27.075 1.425
-14.025 26.475 1.125
-14.625 26.925 0.375
-14.625 26.925 1.275
-4.425 26.925 4.275
-2.025 30.525 0.975
-10.725 25.125 0.225
-10.725 25.125 0.525
-14.475 26.775 1.125
-1.875 30.975 1.125
-13.125 25.875 0.075
-10.875 25.125 -0.675
-12.825 25.725 0.825
-4.725 26.625 1.275
-4.725 26.625 3.675
-2.325 29.625 0.975
-13.425 26.025 2.325
-6.525 25.575 0.675
-2.175 29.925 1.275
-4.875 26.475 1.125
-14.175 26.475 1.275
-14.175 26.475 1.725
-15.075 27.225 0.375
-3.975 27.225 0.675
-3.975 27.225 1.275
-3.975 27.225 0.525
-3.825 27.375 0.225
-3.675 27.525 1.425
-3.675 27.525 0.975
-3.675 27.525 0.525
-6.825 25.425 1.425
-10.125 24.975 0.525
-10.125 24.975 1.425
-4.275 26.925 1.125
-14.775 26.925 0.375
-15.525 27.675 -0.525
-15.525 27.675 -0.375
-10.275 24.975 0.525
-2.925 28.425 0.825
-14.025 26.325 1.125
-14.025 26.325 1.275
-14.625 26.775 0.525
-13.575 26.025 0.225
-2.625 28.875 0.825
-7.725 25.125 0.375
-11.325 25.125 0.525
-14.475 26.625 0.525
-4.575 26.625 3.825
-1.575 31.875 1.425
-12.375 25.425 0.675
-13.875 26.175 -0.675
-14.325 26.475 0.975
-4.725 26.475 0.525
-4.725 26.475 1.575
-11.475 25.125 0.675
-15.975 28.125 2.625
-1.575 31.725 1.275
-6.225 25.575 0.375
-15.225 27.225 0.225
-3.825 27.225 0.375
-3.825 27.225 0.225
-3.975 27.075 0.225
-3.675 27.375 0.375
-3.675 27.375 0.525
-14.925 26.925 0.225
-14.925 26.925 0.375
-3.525 27.525 1.275
-3.525 27.525 0.675
-3.525 27.525 0.525
-14.175 26.325 1.275
-14.175 26.325 1.725
-1.725 30.825 1.575
-3.375 27.675 0.525
-14.775 26.775 1.875
-9.525 24.825 0.525
-9.675 24.825 1.275
-9.225 24.825 0.825
-5.025 26.175 0.825
-5.025 26.175 0.975
-14.025 26.175 1.125
-9.075 24.825 0.975
-9.975 24.825 0.675
-1.875 30.225 1.125
-13.275 25.725 -0.075
-11.175 24.975 0.225
-8.925 24.825 0.675
-14.475 26.475 0.225
-4.575 26.475 1.575
-5.475 25.875 6.375
-12.675 25.425 0.975
-8.775 24.825 0.525
-10.275 24.825 0.675
-10.275 24.825 0.375
-10.275 24.825 0.075
-2.025 29.775 1.275
-1.425 32.175 1.125
-1.425 32.175 0.825
-1.425 32.025 0.825
-1.425 32.025 0.975
-13.875 26.025 0.375
-5.175 26.025 1.125
-5.175 26.025 0.825
-1.875 30.075 0.975
-1.875 30.075 1.125
-10.575 24.825 0.525
-3.825 27.075 0.225
-3.525 27.375 0.675
-3.525 27.375 0.525
-3.975 26.925 1.275
-3.975 26.925 0.975
-3.375 27.525 0.525
-3.375 27.525 0.375
-14.925 26.775 0.825
-14.925 26.775 0.375
-5.625 25.725 0.375
-2.025 29.625 1.575
-14.175 26.175 1.875
-14.175 26.175 1.125
-14.175 26.175 1.575
-2.775 28.275 0.825
-14.775 26.625 -0.075
-14.775 26.625 0.525
-3.225 27.675 0.525
-12.525 25.275 1.875
-4.425 26.475 1.425
-4.425 26.475 3.825
-2.625 28.425 0.825
-16.425 28.425 1.125
-14.025 26.025 0.525
-14.025 26.025 0.975
-4.575 26.325 1.725
-4.575 26.325 1.875
-9.675 24.675 0.975
-9.675 24.675 0.375
-1.725 30.225 1.125
-1.725 30.225 1.275
-9.825 24.675 0.675
-10.125 24.675 1.575
-3.675 27.075 0.525
-3.675 27.075 0.675
-1.875 29.775 1.125
-1.875 29.775 0.525
-1.875 29.775 1.425
-3.525 27.225 0.375
-3.525 27.225 0.225
-15.525 27.225 -3.525
-15.225 26.925 -0.075
-4.725 26.175 0.825
-13.875 25.875 1.125
-3.375 27.375 0.225
-3.375 27.375 0.375
-15.075 26.775 3.525
-1.275 32.175 0.975
-11.325 24.825 0.975
-11.325 24.825 0.675
-3.225 27.525 0.825
-6.675 25.125 1.575
-1.575 30.525 1.275
-1.725 30.075 1.275
-15.975 27.675 2.325
-14.175 26.025 1.125
-14.175 26.025 1.725
-1.875 29.625 2.325
-1.875 29.625 1.575
-5.325 25.725 1.125
-14.625 26.325 0.675
-14.625 26.325 0.375
-12.075 24.975 2.175
-1.575 30.375 0.675
-1.575 30.375 1.125
-10.875 24.675 1.125
-14.025 25.875 0.975
-14.025 25.875 2.175
-4.575 26.175 3.675
-4.575 26.175 0.825
-3.525 27.075 3.525
-3.675 26.925 -0.525
-11.025 24.675 0.975
-5.775 25.425 0.975
-3.375 27.225 0.375
-3.375 27.225 0.825
-3.375 27.225 0.525
-3.825 26.775 0.525
-3.825 26.775 3.375
-1.875 29.475 1.575
-15.825 27.375 0.525
-3.225 27.375 0.525
-9.825 24.525 0.375
-9.825 24.525 1.575
-9.225 24.525 0.525
-9.225 24.525 0.825
-13.875 25.725 1.125
-12.675 25.125 1.575
-3.075 27.525 0.525
-1.725 29.775 1.125
-1.725 29.775 2.025
-10.125 24.525 1.275
-10.125 24.525 1.125
-14.775 26.325 0.525
-14.775 26.325 0.225
-4.275 26.325 1.425
-4.275 26.325 1.275
-1.125 32.175 0.675
-14.175 25.875 0.975
-14.175 25.875 1.125
-11.925 24.825 0.975
-1.425 30.525 1.275
-2.025 29.025 0.825
-1.875 29.325 2.625
-1.875 29.325 0.075
-4.425 26.175 0.825
-4.425 26.175 -0.225
-1.125 31.875 -0.375
-1.125 31.875 0.525
-1.725 29.625 1.125
-1.725 29.625 0.525
-1.725 29.625 1.725
-11.475 24.675 1.575
-3.675 26.775 -0.075
-3.375 27.075 0.675
-3.375 27.075 0.525
-14.025 25.725 1.125
-1.425 30.375 1.125
-4.575 26.025 -0.075
-15.825 27.225 0.375
-15.225 26.625 1.725
-15.225 26.625 0.975
-3.225 27.225 0.225
-3.825 26.625 0.225
-1.575 29.925 2.175
-1.575 29.925 1.275
-1.125 31.575 2.025
-15.075 26.475 0.075
-15.975 27.375 1.275
-15.975 27.375 0.375
-3.075 27.375 0.825
-5.775 25.275 1.125
-2.025 28.875 1.275
-16.125 27.525 1.425
-14.325 25.875 1.725
-1.725 29.475 2.175
-1.725 29.475 0.825
-1.725 29.475 3.675
-11.025 24.525 1.275
-12.675 24.975 2.025
-12.675 24.975 -0.075
-4.275 26.175 0.825
-9.375 24.375 0.825
-9.375 24.375 0.975
-14.775 26.175 0.525
-1.575 29.775 0.525
-1.575 29.775 0.675
-1.575 29.775 2.325
-1.575 29.775 3.075
-9.825 24.375 0.675
-9.825 24.375 0.525
-9.225 24.375 0.825
-9.225 24.375 0.375
-11.175 24.525 1.425
-9.975 24.375 1.275
-9.075 24.375 0.825
-14.175 25.725 1.125
-10.275 24.375 -0.675
-8.775 24.375 0.225
-12.375 24.825 0.525
-13.725 25.425 1.425
-15.375 26.625 0.525
-3.225 27.075 0.375
-3.225 27.075 -0.375
-3.075 27.225 0.675
-15.225 26.475 0.075
-10.575 24.375 0.525
-14.475 25.875 0.525
-4.575 25.875 1.875
-5.025 25.575 2.025
-14.025 25.575 0.975
-15.075 26.325 4.425
-15.075 26.325 0.975
-12.075 24.675 1.125
-12.075 24.675 2.475
-1.275 30.375 1.425
-12.525 24.825 1.875
-1.425 29.925 1.725
-4.125 26.175 -1.125
-4.125 26.175 0.525
-4.125 26.175 0.825
-14.925 26.175 -0.525
-14.925 26.175 -0.225
-14.325 25.725 1.275
-14.325 25.725 -0.375
-4.725 25.725 1.725
-1.575 29.475 1.425
-1.575 29.475 1.125
-14.775 26.025 0.375
-14.775 26.025 -0.075
-17.775 30.225 5.475
-1.425 29.775 0.975
-2.175 28.275 0.525
-3.225 26.925 0.225
-9.375 24.225 0.375
-14.625 25.875 0.225
-14.625 25.875 0.075
-9.225 24.225 0.825
-9.225 24.225 0.525
-15.375 26.475 -0.075
-11.175 24.375 1.575
-3.075 27.075 0.225
-3.075 27.075 0.675
-9.075 24.225 2.475
-16.125 27.225 0.525
-1.725 29.025 0.375
-1.725 29.025 0.525
-13.125 24.975 2.625
-1.575 29.325 1.125
-10.275 24.225 1.425
-0.825 32.175 1.575
-14.475 25.725 1.125
-14.475 25.725 0.375
-14.475 25.725 0.225
-14.475 25.725 0.975
-14.475 25.725 1.275
-15.075 26.175 0.225
-15.075 26.175 0.375
-3.975 26.175 1.425
-14.025 25.425 1.125
-1.425 29.625 0.375
-1.425 29.625 1.875
-1.425 29.625 0.525
-0.825 32.025 0.975
-4.125 26.025 0.975
-12.525 24.675 1.425
-1.275 29.925 1.575
-2.175 28.125 0.675
-10.725 24.225 1.125
-13.275 24.975 4.275
-4.275 25.875 0.975
-1.575 29.175 -0.975
-12.975 24.825 -0.075
-15.675 26.625 0.525
-1.425 29.475 2.025
-1.425 29.475 0.975
-0.825 31.575 1.575
-0.825 31.575 2.175
-3.075 26.925 1.725
-2.925 27.075 0.825
-2.025 28.275 0.975
-2.025 28.275 1.275
-2.775 27.225 0.975
-9.525 24.075 0.825
-9.525 24.075 1.125
-9.225 24.075 0.825
-1.575 29.025 1.125
-1.725 28.725 0.375
-14.475 25.575 -0.075
-14.475 25.575 1.275
-14.025 25.275 -0.375
-14.025 25.275 0.975
-4.125 25.875 0.825
-12.825 24.675 1.275
-1.275 29.625 0.825
-1.275 29.625 2.025
-14.325 25.425 0.525
-14.325 25.425 0.375
-14.325 25.425 -0.075
-14.325 25.425 1.275
-2.025 28.125 0.825
-2.025 28.125 0.675
-14.775 25.725 0.525
-14.775 25.725 0.075
-3.075 26.775 0.975
-3.075 26.775 0.825
-2.925 26.925 1.275
-3.525 26.325 -0.975
-1.575 28.875 0.825
-0.975 30.375 1.425
-0.675 31.725 0.825
-1.725 28.575 0.375
-3.675 26.175 2.475
-14.625 25.575 0.675
-14.625 25.575 0.975
-2.625 27.225 0.825
-2.625 27.225 0.525
-3.825 26.025 1.425
-3.825 26.025 2.175
-1.875 28.275 0.825
-1.125 29.775 0.075
-1.125 29.775 1.575
-17.925 29.775 0.825
-15.075 25.875 0.225
-3.975 25.875 0.825
-14.475 25.425 1.725
-14.475 25.425 0.525
-1.575 28.725 0.975
-14.925 25.725 0.075
-2.325 27.525 0.525
-9.375 23.925 0.675
-9.375 23.925 0.975
-9.375 23.925 1.575
-1.275 29.325 0.975
-1.275 29.325 0.675
-14.025 25.125 -0.225
-14.025 25.125 0.675
-14.025 25.125 1.275
-9.225 23.925 1.725
-5.025 25.125 -0.375
-1.725 28.425 1.575
-9.975 23.925 0.975
-3.225 26.475 2.325
-2.925 26.775 0.525
-2.925 26.775 0.975
-1.125 29.625 0.375
-1.125 29.625 0.075
-14.325 25.275 -0.225
-14.325 25.275 1.125
-0.525 32.175 1.425
-0.525 32.175 1.575
-14.775 25.575 0.375
-4.275 25.575 0.075
-2.175 27.675 0.375
-0.525 32.025 1.725
-0.525 32.025 1.575
-0.525 32.025 1.425
-3.675 26.025 1.275
-2.625 27.075 1.125
-1.425 28.875 0.825
-1.425 28.875 0.675
-0.525 31.875 1.725
-0.525 31.875 1.575
-1.575 28.575 0.675
-12.075 24.225 1.875
-15.225 25.875 0.225
-15.225 25.875 1.275
-3.825 25.875 0.825
-18.225 30.375 5.025
-0.525 31.725 1.575
-1.125 29.475 0.675
-1.125 29.475 0.975
-1.725 28.275 0.975
-7.425 24.075 3.825
-18.225 30.225 4.575
-1.875 27.975 1.575
-18.075 29.775 1.125
-14.475 25.275 1.725
-14.925 25.575 0.975
-4.125 25.575 0.075
-4.125 25.575 0.225
-2.175 27.525 0.375
-1.425 28.725 0.975
-3.225 26.325 0.075
-3.225 26.325 -0.225
-3.375 26.175 -0.225
-15.675 26.175 3.225
-18.375 30.675 3.975
-14.025 24.975 1.875
-1.125 29.325 0.225
-1.125 29.325 0.825
-17.925 29.325 1.725
-3.525 26.025 0.375
-9.375 23.775 1.125
-14.325 25.125 1.125
-14.325 25.125 0.975
-14.325 25.125 0.225
-14.325 25.125 1.275
-1.725 28.125 0.375
-3.675 25.875 0.525
-3.675 25.875 0.825
-15.375 25.875 0.075
-15.375 25.875 0.225
-15.375 25.875 -0.075
-2.475 27.075 0.525
-0.975 29.625 0.975
-0.375 32.325 1.275
-0.375 32.175 1.875
-15.225 25.725 0.975
-3.825 25.725 0.375
-14.625 25.275 0.375
-13.875 24.825 0.825
-1.425 28.575 1.425
-1.425 28.575 0.975
-1.425 28.575 0.825
-1.125 29.175 0.825
-17.925 29.175 1.275
-12.525 24.225 1.125
-14.175 24.975 2.325
-15.075 25.575 -0.075
-2.175 27.375 0.675
-0.975 29.475 1.125
-15.975 26.325 0.825
-14.475 25.125 2.025
-14.475 25.125 0.075
-14.475 25.125 0.225
-1.725 27.975 1.575
-1.725 27.975 0.375
-0.375 31.575 1.575
-12.675 24.225 0.975
-3.525 25.875 0.825
-1.275 28.725 0.975
-2.475 26.925 0.525
-1.125 29.025 0.975
-14.025 24.825 1.125
-1.425 28.425 0.975
-3.675 25.725 0.075
-3.675 25.725 2.325
-3.675 25.725 0.975
-3.675 25.725 1.575
-14.775 25.275 0.525
-14.775 25.275 0.375
-14.325 24.975 0.075
-14.325 24.975 2.175
-14.325 24.975 0.975
-1.575 28.125 0.675
-0.675 30.075 0.975
-9.375 23.625 0.375
-15.225 25.575 0.825
