# .PCD v0.7 - Point Cloud Data file format
VERSION 0.7
FIELDS x y z
SIZE 4 4 4
TYPE F F F
COUNT 1 1 1
WIDTH 2048
HEIGHT 1
VIEWPOINT 0 0 0 1 0 0 0
POINTS 2048
DATA ascii
16.725 -7.875 -0.525
17.025 -8.025 0.675
17.025 -8.025 0.375
16.725 -8.175 -4.725
17.025 -7.875 -0.225
17.025 -7.875 0.675
16.575 -8.025 0.975
16.875 -7.725 -0.675
16.875 -7.725 -0.825
16.575 -7.875 0.975
16.575 -8.175 0.225
16.575 -8.175 0.525
17.025 -7.725 -0.375
17.025 -7.725 -1.275
17.025 -7.725 -1.575
16.575 -7.725 1.125
16.575 -7.725 1.275
16.875 -8.325 -1.275
17.175 -8.025 0.075
17.175 -8.025 -0.525
17.175 -7.875 0.675
16.425 -8.025 0.525
16.425 -7.875 0.525
16.425 -7.875 1.575
16.725 -7.575 0.525
16.725 -7.575 0.225
17.025 -8.325 0.675
17.175 -8.175 -5.025
17.175 -8.175 -0.825
17.175 -8.175 0.075
17.175 -8.175 -0.075
16.575 -8.325 0.525
16.575 -8.325 1.425
17.175 -7.725 -0.225
16.425 -7.725 1.575
16.575 -7.575 -0.525
16.575 -7.575 -3.825
16.575 -7.575 0.675
17.175 -8.325 -0.675
16.725 -8.475 -0.825
16.425 -8.325 -0.375
16.425 -8.325 0.675
17.175 -7.575 -0.225
17.175 -7.575 -0.375
16.275 -8.025 -0.525
16.875 -7.425 -0.075
16.275 -7.875 -0.225
16.725 -7.425 -0.225
16.725 -7.425 1.125
16.725 -7.425 0.975
16.725 -7.425 0.525
17.325 -8.175 -0.225
16.425 -7.575 -0.075
17.325 -7.725 -0.225
17.025 -7.425 -0.075
16.275 -7.725 0.525
16.575 -7.425 0.375
16.575 -7.425 -0.525
16.575 -7.425 0.525
16.575 -7.425 -0.975
16.575 -7.425 0.975
17.175 -8.475 0.375
17.175 -8.475 0.225
17.175 -8.475 -0.825
17.175 -8.475 -0.975
17.325 -8.325 0.375
16.425 -8.475 0.525
16.425 -8.475 0.075
16.425 -8.475 0.375
16.275 -8.325 -0.525
16.275 -8.325 0.225
17.475 -8.025 -0.525
17.475 -7.875 0.825
16.275 -7.575 -2.025
16.425 -7.425 -2.325
16.425 -7.425 0.075
16.425 -7.425 -0.825
16.875 -7.275 -0.675
16.725 -7.275 -0.525
16.725 -7.275 1.125
16.575 -8.625 -0.225
17.025 -7.275 -0.375
17.025 -7.275 0.075
16.575 -7.275 -0.375
16.575 -7.275 -0.675
16.575 -7.275 -2.175
16.575 -7.275 0.525
16.275 -8.475 -0.825
16.275 -8.475 -0.075
16.275 -8.475 0.375
16.275 -8.475 -0.675
17.175 -8.625 0.675
16.425 -8.625 -0.975
16.425 -8.625 -0.525
16.425 -8.625 0.975
16.275 -7.425 -2.175
16.275 -7.425 -0.075
16.275 -7.425 0.525
16.875 -8.775 -0.525
16.875 -8.775 -0.825
16.725 -8.775 -0.675
17.475 -8.475 -0.375
16.575 -8.775 -0.975
16.575 -8.775 -0.225
16.875 -7.125 -0.525
16.725 -7.125 -0.075
16.725 -7.125 -1.125
16.275 -8.625 0.525
16.275 -8.625 -0.525
16.275 -8.625 1.725
17.475 -7.425 -0.375
16.125 -8.475 0.525
17.325 -7.275 1.275
15.975 -8.175 0.675
15.975 -8.175 0.375
15.975 -8.175 -0.525
16.125 -7.425 0.525
16.125 -7.425 -0.375
16.425 -8.775 0.975
17.175 -7.125 0.975
15.975 -7.575 -1.275
15.975 -7.575 0.525
16.425 -7.125 0.525
16.425 -7.125 -0.525
17.475 -7.275 -0.075
17.475 -7.275 -0.525
16.875 -8.925 -0.675
16.725 -8.925 2.925
16.725 -8.925 -0.525
16.725 -8.925 0.225
16.275 -8.775 1.575
16.275 -8.775 0.525
16.125 -7.275 -0.225
16.125 -7.275 0.525
17.325 -7.125 1.275
16.575 -8.925 -0.525
17.775 -7.725 -2.175
17.775 -7.725 0.825
15.825 -8.025 0.675
16.875 -6.975 -1.425
15.825 -7.875 -1.725
15.825 -7.875 -0.375
16.725 -6.975 0.525
16.725 -6.975 0.225
16.275 -7.125 0.375
16.275 -7.125 1.575
17.025 -6.975 -0.675
15.825 -7.725 -0.675
16.575 -6.975 0.675
16.575 -6.975 -0.525
16.575 -6.975 -0.225
16.425 -8.925 -0.825
16.425 -8.925 -0.975
16.425 -8.925 0.975
16.425 -8.925 0.525
15.825 -7.575 0.825
15.975 -8.625 -0.825
17.475 -7.125 0.075
17.475 -7.125 -1.425
17.475 -7.125 -0.675
15.975 -7.275 0.525
16.125 -7.125 0.225
16.125 -7.125 0.375
16.275 -8.925 1.875
16.275 -8.925 0.525
16.275 -8.925 -0.375
16.875 -9.075 -0.525
16.875 -9.075 0.225
16.725 -9.075 -0.375
17.325 -6.975 -0.375
15.825 -7.425 -2.475
16.275 -6.975 0.375
16.875 -6.825 -2.925
16.725 -6.825 -0.225
16.725 -6.825 0.525
16.725 -6.825 0.975
17.025 -6.825 0.225
17.025 -6.825 -0.675
15.675 -7.725 -0.375
16.575 -6.825 1.275
16.575 -6.825 -0.525
16.575 -6.825 1.425
16.575 -6.825 -0.075
16.575 -6.825 -0.825
16.425 -9.075 0.525
16.425 -9.075 -0.375
16.425 -9.075 0.225
17.925 -7.575 -2.175
16.125 -8.925 -0.975
17.775 -7.275 -0.675
17.475 -6.975 -1.125
17.475 -6.975 -0.825
17.175 -6.825 -0.675
17.175 -6.825 -0.375
15.675 -7.575 -2.625
15.675 -7.575 0.225
16.425 -6.825 1.725
16.425 -6.825 1.425
16.125 -6.975 -1.725
16.275 -9.075 0.525
17.325 -6.825 -4.575
17.325 -6.825 -0.975
16.875 -9.225 0.075
18.075 -7.875 -2.025
15.675 -7.425 -2.175
15.675 -7.425 -2.325
16.275 -6.825 0.375
15.975 -8.925 0.525
17.025 -9.225 0.075
15.825 -8.775 0.525
17.475 -9.075 0.825
15.525 -8.025 -3.075
16.875 -6.675 0.525
16.725 -6.675 -0.375
16.725 -6.675 0.975
16.725 -6.675 0.675
15.825 -7.125 -1.575
15.975 -6.975 0.075
15.975 -6.975 1.275
16.125 -9.075 -0.825
18.075 -8.325 0.975
16.575 -6.675 1.575
16.575 -6.675 0.525
16.575 -6.675 -0.225
16.575 -6.675 0.075
15.675 -8.625 1.275
15.675 -8.625 0.975
17.475 -6.825 0.375
15.675 -7.275 2.175
15.675 -7.275 -2.175
15.675 -7.275 -2.025
15.675 -7.275 -1.875
16.125 -6.825 0.375
15.525 -7.575 -2.475
16.425 -6.675 -0.225
16.275 -9.225 1.275
15.825 -8.925 0.375
17.775 -6.975 -0.675
17.325 -6.675 -0.825
17.325 -6.675 0.225
16.875 -9.375 -0.225
16.725 -9.375 1.425
16.725 -9.375 -0.225
18.075 -8.625 6.225
17.025 -9.375 -0.825
16.575 -9.375 3.675
16.125 -9.225 0.525
16.125 -9.225 1.575
16.875 -6.525 0.225
16.875 -6.525 0.525
16.875 -6.525 -0.075
16.725 -6.525 0.975
16.725 -6.525 1.125
17.475 -6.675 0.075
17.475 -6.675 0.225
17.475 -6.675 0.675
16.425 -9.375 0.975
15.375 -7.725 3.975
16.575 -6.525 0.525
16.575 -6.525 -0.525
17.775 -9.075 -1.275
16.125 -6.675 0.525
16.125 -6.675 0.375
17.175 -6.525 1.725
16.425 -6.525 0.525
16.425 -6.525 -0.525
15.675 -6.975 -2.325
17.625 -6.675 -0.525
17.325 -6.525 -0.525
17.325 -6.525 -0.825
16.275 -6.525 -0.675
15.525 -7.125 -2.325
16.125 -9.375 0.525
17.475 -6.525 -0.675
17.475 -6.525 -0.225
17.475 -6.525 0.225
17.475 -6.525 0.075
17.475 -6.525 -0.825
16.875 -6.375 0.975
16.875 -6.375 0.525
16.875 -6.375 0.225
16.725 -6.375 0.525
16.725 -6.375 -0.075
16.725 -6.375 0.675
17.175 -9.525 0.225
16.125 -6.525 0.525
16.125 -6.525 -0.525
16.425 -9.525 0.975
17.025 -6.375 -0.375
15.525 -8.925 -1.425
15.225 -7.725 -2.775
15.675 -6.825 -0.675
18.225 -8.775 -0.525
18.225 -8.775 -0.675
17.175 -6.375 2.025
17.175 -6.375 -0.375
17.325 -9.525 -3.075
17.325 -9.525 -0.375
15.975 -9.375 0.075
16.425 -6.375 0.525
16.275 -9.525 -5.475
16.275 -9.525 0.525
17.625 -6.525 -0.825
15.975 -6.525 0.375
15.225 -8.475 -2.025
17.325 -6.375 -0.825
18.375 -8.625 0.975
18.075 -6.825 -0.975
16.125 -9.525 0.525
16.875 -9.675 1.275
16.875 -9.675 1.425
16.725 -9.675 1.875
17.025 -9.675 0.525
17.025 -9.675 1.575
17.025 -9.675 1.875
17.025 -9.675 0.825
17.475 -6.375 -0.525
16.575 -9.675 -1.575
16.575 -9.675 1.725
16.125 -6.375 -0.525
16.875 -6.225 0.975
16.875 -6.225 0.525
16.875 -6.225 0.075
16.725 -6.225 1.575
16.725 -6.225 1.275
16.725 -6.225 0.525
16.725 -6.225 -1.125
16.725 -6.225 0.075
16.725 -6.225 -0.075
17.175 -9.675 1.125
17.175 -9.675 0.525
16.425 -9.675 0.825
17.625 -9.525 6.975
18.375 -8.775 -0.375
16.575 -6.225 0.825
16.575 -6.225 -0.525
16.575 -6.225 0.525
17.175 -6.225 0.525
17.325 -9.675 1.275
17.325 -9.675 -0.075
17.325 -9.675 1.425
16.425 -6.225 0.375
16.275 -9.675 0.975
16.275 -9.675 0.225
16.275 -9.675 0.525
16.275 -9.675 -5.625
17.925 -9.375 1.275
15.525 -9.225 0.825
17.325 -6.225 -1.125
17.925 -6.525 -0.375
18.375 -8.925 0.825
17.475 -9.675 -0.225
18.525 -8.625 0.375
16.125 -9.675 4.125
16.125 -9.675 0.525
15.825 -9.525 -3.525
15.825 -9.525 -0.225
16.875 -9.825 1.275
16.875 -9.825 -0.975
16.875 -9.825 -3.225
16.725 -9.825 1.725
17.475 -6.225 -2.775
17.025 -9.825 1.275
17.025 -9.825 1.425
16.575 -9.825 2.025
16.125 -6.225 -0.525
15.225 -6.975 0.675
18.525 -8.775 0.975
17.175 -9.825 0.675
17.175 -9.825 0.825
17.175 -9.825 0.975
16.875 -6.075 0.975
16.875 -6.075 -0.975
16.875 -6.075 1.125
16.725 -6.075 -0.225
16.725 -6.075 0.375
16.725 -6.075 1.275
16.725 -6.075 0.525
16.425 -9.825 0.525
16.425 -9.825 0.375
16.425 -9.825 4.275
17.025 -6.075 -0.525
17.025 -6.075 -1.275
14.925 -7.725 -3.225
16.575 -6.075 0.525
16.575 -6.075 -0.375
17.625 -6.225 -2.325
17.625 -6.225 -0.375
17.325 -9.825 -0.375
16.425 -6.075 -0.525
16.275 -9.825 0.975
16.275 -9.825 0.525
16.275 -6.075 0.375
18.375 -9.225 1.125
17.475 -6.075 -2.625
16.875 -9.975 1.125
16.875 -9.975 1.725
16.875 -9.975 2.775
16.725 -9.975 1.725
16.125 -6.075 0.525
16.125 -6.075 1.125
17.025 -9.975 1.125
17.025 -9.975 -0.825
17.025 -9.975 0.975
17.025 -9.975 0.675
18.825 -8.175 4.125
18.675 -8.775 -0.075
17.925 -9.675 1.575
18.525 -9.075 0.975
17.175 -9.975 0.675
17.175 -9.975 0.825
17.175 -9.975 1.425
16.875 -5.925 0.975
16.875 -5.925 1.125
16.875 -5.925 0.375
16.875 -5.925 -0.225
15.525 -6.375 -4.125
16.575 -5.925 -0.525
16.575 -5.925 0.525
17.625 -6.075 -2.325
17.325 -9.975 -0.375
17.175 -5.925 0.075
16.275 -9.975 0.225
16.275 -9.975 0.525
16.275 -9.975 1.875
17.775 -9.825 1.125
17.325 -5.925 -0.675
17.325 -5.925 -0.525
17.325 -5.925 -0.975
14.775 -7.425 -2.475
16.275 -5.925 0.675
17.775 -6.075 -0.525
18.525 -9.225 0.975
16.125 -9.975 0.525
18.225 -6.375 -2.025
14.925 -6.975 3.375
14.775 -8.625 -2.775
17.475 -5.925 0.675
17.475 -5.925 -0.975
16.875 -10.125 1.125
16.875 -10.125 0.975
17.025 -10.125 0.825
17.025 -10.125 1.725
17.175 -10.125 -0.225
17.175 -10.125 0.825
17.175 -10.125 1.275
14.925 -9.075 0.375
16.875 -5.775 -0.525
16.875 -5.775 -0.375
16.875 -5.775 0.225
16.875 -5.775 0.675
16.725 -5.775 1.275
16.725 -5.775 1.425
17.025 -5.775 0.525
17.025 -5.775 -0.375
16.575 -5.775 0.525
17.325 -10.125 0.825
14.625 -8.325 -0.225
17.175 -5.775 -3.825
17.175 -5.775 -0.225
15.225 -9.525 -1.575
16.425 -5.775 0.375
17.325 -5.775 0.225
17.325 -5.775 2.025
16.275 -5.775 -0.975
16.275 -5.775 0.525
14.775 -6.975 3.375
17.475 -5.775 -0.975
15.525 -6.075 -3.525
16.125 -5.775 0.525
17.625 -10.125 0.375
16.875 -10.275 0.825
18.525 -9.525 1.425
17.025 -10.275 0.825
16.575 -10.275 1.575
14.775 -9.075 1.575
14.775 -9.075 1.275
17.175 -10.275 0.975
17.175 -10.275 0.825
17.625 -5.775 6.375
17.625 -5.775 -3.975
17.625 -5.775 -0.375
16.875 -5.625 0.675
16.875 -5.625 0.225
16.875 -5.625 0.525
16.875 -5.625 0.975
15.975 -5.775 -1.575
17.025 -5.625 0.525
17.025 -5.625 0.225
14.925 -9.375 -3.375
17.175 -5.625 -0.375
18.075 -9.975 1.725
18.075 -9.975 1.425
16.275 -10.275 1.275
15.825 -10.125 0.525
16.425 -5.625 0.525
18.975 -6.975 5.175
17.775 -5.775 -0.525
17.775 -5.775 -0.825
16.275 -5.625 -0.075
16.275 -5.625 -0.825
16.275 -5.625 0.375
15.525 -5.925 -4.125
17.925 -10.125 0.825
15.675 -10.125 0.375
14.475 -7.275 3.525
16.125 -5.625 1.275
16.125 -5.625 0.525
14.925 -9.525 -3.825
18.225 -9.975 2.025
18.225 -9.975 0.375
16.875 -10.425 -3.825
17.025 -10.425 0.975
17.025 -10.425 0.825
18.825 -6.525 0.675
14.475 -8.775 -1.875
17.175 -10.425 1.575
17.175 -10.425 0.825
14.475 -7.125 -2.025
15.975 -5.625 -0.075
15.975 -5.625 0.825
16.875 -5.475 0.525
16.875 -5.475 -0.225
16.875 -5.475 -0.075
16.875 -5.475 -0.525
16.875 -5.475 1.125
16.725 -5.475 -0.225
16.725 -5.475 0.525
18.975 -9.225 4.125
17.025 -5.475 0.975
17.025 -5.475 0.525
15.825 -10.275 0.525
16.275 -10.425 1.875
16.275 -5.475 0.825
16.275 -5.475 0.375
16.125 -10.425 1.125
18.825 -6.375 0.225
14.925 -6.225 2.025
15.675 -10.275 -4.575
18.225 -10.125 1.875
16.125 -5.475 0.375
14.775 -6.375 0.375
15.975 -10.425 0.525
16.875 -10.575 0.975
16.725 -10.575 0.675
17.025 -10.575 1.425
17.025 -10.575 0.675
17.025 -10.575 0.825
17.025 -10.575 0.975
16.575 -10.575 -2.325
17.625 -5.475 -0.075
15.975 -5.475 0.075
17.175 -10.575 0.525
17.175 -10.575 0.675
17.175 -10.575 0.975
16.425 -10.575 1.575
16.875 -5.325 0.525
16.875 -5.325 1.425
16.875 -5.325 -0.225
16.875 -5.325 -0.375
16.725 -5.325 1.575
16.725 -5.325 0.525
17.025 -5.325 -1.125
17.025 -5.325 1.125
17.325 -10.575 0.975
17.175 -5.325 -0.675
17.175 -5.325 -1.275
17.775 -5.475 -0.525
17.775 -5.475 0.675
16.425 -5.325 -0.075
15.825 -5.475 -0.675
18.975 -6.375 -0.075
17.925 -10.425 1.425
16.275 -5.325 -0.375
16.125 -10.575 0.975
16.125 -10.575 0.525
18.225 -10.275 1.425
15.675 -10.425 0.375
17.475 -5.325 -0.075
17.475 -5.325 0.525
14.325 -9.075 1.725
14.475 -9.375 0.825
19.425 -8.775 3.225
15.975 -10.575 0.525
15.975 -10.575 -4.725
16.875 -10.725 2.025
16.875 -10.725 0.975
16.875 -10.725 1.125
16.875 -10.725 1.875
16.875 -10.725 1.275
18.825 -6.075 0.225
19.275 -9.225 1.125
19.275 -9.225 0.225
19.275 -9.225 0.375
17.625 -5.325 -0.675
17.625 -5.325 -0.225
17.025 -10.725 0.975
17.025 -10.725 1.575
17.025 -10.725 1.125
17.025 -10.725 0.675
17.025 -10.725 0.825
19.575 -8.175 4.875
15.525 -10.425 0.525
18.525 -5.775 -0.825
17.175 -10.725 0.975
17.175 -10.725 0.825
18.375 -10.275 1.125
19.125 -9.525 1.875
16.875 -5.175 1.425
16.875 -5.175 -0.375
16.725 -5.175 -0.975
16.725 -5.175 0.525
16.725 -5.175 -0.375
16.725 -5.175 1.575
14.025 -8.175 6.075
17.025 -5.175 1.725
17.025 -5.175 -0.675
17.025 -5.175 1.125
16.575 -5.175 0.375
16.575 -5.175 0.225
17.325 -10.725 0.825
16.275 -10.725 4.125
17.775 -5.325 -0.375
17.775 -5.325 -0.675
14.475 -9.525 -3.975
14.475 -9.525 2.175
14.475 -9.525 0.675
17.175 -5.175 -1.275
14.025 -7.575 1.275
16.425 -5.175 -0.075
14.475 -6.375 0.675
19.275 -9.375 0.825
19.275 -9.375 1.275
16.125 -10.725 0.225
16.125 -10.725 0.525
16.125 -10.725 0.675
19.575 -7.275 0.375
15.675 -10.575 0.375
15.375 -10.425 0.825
17.925 -5.325 1.875
14.625 -9.825 0.975
14.625 -9.825 2.175
16.125 -5.175 -0.675
14.325 -6.525 0.975
15.975 -10.725 0.675
18.075 -10.575 2.625
18.075 -10.575 0.675
18.075 -10.575 1.575
18.075 -10.575 1.275
19.425 -9.225 1.275
14.475 -9.675 0.975
16.875 -10.875 0.975
16.875 -10.875 1.275
16.875 -10.875 1.725
16.725 -10.875 0.225
16.725 -10.875 0.825
16.725 -10.875 -0.225
16.725 -10.875 1.125
15.525 -10.575 2.325
18.375 -10.425 1.425
19.725 -7.875 0.375
19.275 -9.525 0.975
17.025 -10.875 0.675
16.575 -10.875 -0.075
14.475 -6.225 0.675
19.575 -8.925 0.075
18.075 -5.325 -0.525
17.175 -10.875 0.525
17.175 -10.875 0.825
17.175 -10.875 0.975
15.825 -10.725 3.375
14.325 -9.525 0.975
16.875 -5.025 1.575
16.725 -5.025 0.375
16.725 -5.025 0.525
18.825 -10.125 1.575
18.975 -9.975 1.125
17.025 -5.025 -1.425
17.025 -5.025 -0.375
17.325 -10.875 0.525
16.575 -5.025 0.375
16.425 -5.025 -0.075
14.775 -10.125 0.825
14.625 -9.975 0.975
14.625 -9.975 0.825
18.975 -5.925 -0.825
15.675 -10.725 0.525
17.325 -5.025 -1.125
19.575 -6.825 -0.075
14.475 -9.825 0.975
14.475 -9.825 1.425
14.475 -9.825 0.825
16.125 -10.875 2.175
16.125 -10.875 4.125
14.175 -9.375 1.425
17.925 -5.175 -1.425
17.925 -5.175 1.875
15.975 -10.875 1.125
19.725 -7.125 0.225
18.075 -10.725 0.375
19.575 -9.225 0.825
19.575 -9.225 0.525
19.425 -9.525 -0.375
19.425 -9.525 1.275
19.575 -6.675 0.975
17.625 -5.025 1.275
16.875 -11.025 0.825
16.875 -11.025 0.675
16.875 -11.025 0.975
16.875 -11.025 1.275
16.725 -11.025 0.975
19.125 -9.975 0.675
17.025 -11.025 0.975
17.025 -11.025 0.675
19.875 -7.725 -0.525
15.825 -10.875 0.525
14.625 -10.125 0.825
17.175 -11.025 0.675
19.275 -9.825 0.375
16.425 -11.025 0.525
16.425 -11.025 0.675
14.475 -9.975 0.825
14.475 -9.975 0.375
16.875 -4.875 -0.075
16.875 -4.875 0.675
17.775 -5.025 -0.675
17.775 -5.025 -0.525
17.025 -4.875 0.675
17.025 -4.875 -0.525
17.025 -4.875 -0.375
16.575 -4.875 0.375
14.325 -9.825 1.725
14.325 -9.825 0.675
14.325 -9.825 1.275
14.325 -9.825 0.975
17.925 -10.875 0.525
17.175 -4.875 0.525
17.175 -4.875 0.225
16.425 -4.875 0.525
16.425 -4.875 -0.525
19.425 -9.675 0.825
19.425 -9.675 0.975
17.325 -4.875 -0.525
18.975 -10.275 0.975
19.125 -10.125 1.425
17.475 -4.875 -0.675
17.475 -4.875 0.525
15.975 -11.025 1.125
15.975 -11.025 0.975
19.875 -7.125 -0.075
19.275 -9.975 1.425
14.475 -10.125 0.975
14.475 -10.125 0.225
17.625 -4.875 0.225
17.625 -4.875 1.275
17.625 -4.875 0.375
14.325 -9.975 1.275
14.325 -9.975 0.825
14.325 -9.975 0.975
19.425 -9.825 1.725
16.875 -11.175 0.825
16.725 -11.175 0.825
15.825 -11.025 0.525
17.025 -11.175 0.675
17.025 -11.175 1.275
16.575 -11.175 1.275
17.175 -11.175 0.975
14.175 -9.825 1.125
14.175 -9.825 0.825
14.175 -9.825 1.275
17.775 -4.875 -0.975
17.775 -4.875 0.525
16.875 -4.725 -0.225
18.525 -10.725 2.325
19.725 -6.525 0.825
17.025 -4.725 -0.225
17.025 -4.725 0.675
16.575 -4.725 0.525
16.275 -11.175 1.575
17.175 -4.725 -0.375
17.175 -4.725 -0.225
17.175 -4.725 0.525
18.225 -5.025 0.375
19.575 -6.225 0.675
16.425 -4.725 -0.075
16.425 -4.725 0.525
16.425 -4.725 0.075
14.025 -9.675 0.525
19.275 -10.125 0.525
17.925 -4.875 1.275
14.475 -10.275 0.825
14.475 -10.275 0.675
14.475 -10.275 1.125
16.275 -4.725 0.525
16.275 -4.725 -0.675
16.275 -4.725 0.675
16.275 -4.725 -0.075
18.825 -10.575 0.975
14.325 -10.125 1.125
17.475 -4.725 -0.375
17.475 -4.725 -0.825
17.475 -4.725 0.675
17.475 -4.725 -0.075
15.225 -10.875 0.525
16.125 -4.725 0.375
15.975 -11.175 0.525
14.175 -9.975 1.575
14.175 -9.975 1.125
19.575 -9.825 0.825
13.875 -9.525 0.975
13.875 -9.525 1.725
18.075 -4.875 -0.675
17.625 -4.725 -0.675
17.625 -4.725 1.125
14.025 -9.825 1.275
15.825 -11.175 0.525
15.825 -11.175 0.675
15.825 -11.175 0.225
16.875 -11.325 0.825
16.875 -11.325 1.425
16.725 -11.325 1.125
16.725 -11.325 0.675
17.025 -11.325 1.125
17.025 -11.325 5.475
17.025 -11.325 0.825
17.025 -11.325 0.975
17.025 -11.325 0.525
17.025 -11.325 0.675
19.125 -10.425 1.275
19.275 -10.275 1.575
17.175 -11.325 0.675
17.175 -11.325 1.275
15.375 -11.025 0.525
17.775 -4.725 1.875
17.775 -4.725 -0.675
17.775 -4.725 -0.225
17.775 -4.725 -0.825
15.075 -10.875 0.225
14.475 -10.425 0.825
14.325 -10.275 0.525
14.325 -10.275 1.425
17.325 -11.325 0.675
17.025 -4.575 0.525
16.575 -4.575 0.225
15.675 -11.175 1.275
14.175 -10.125 0.375
17.175 -4.575 1.125
17.175 -4.575 0.525
17.175 -4.575 0.975
18.825 -10.725 0.975
16.425 -4.575 0.525
16.425 -4.575 -0.525
16.425 -4.575 -0.375
17.325 -4.575 -0.075
13.575 -6.825 -0.825
14.025 -9.975 1.125
18.825 -5.175 3.525
17.475 -4.575 1.575
17.475 -4.575 1.125
17.475 -4.575 -0.675
20.025 -6.675 0.975
13.725 -9.525 1.275
20.175 -7.125 -0.675
13.875 -9.825 1.125
13.875 -9.825 1.275
13.875 -9.825 1.575
17.625 -4.575 0.225
18.975 -10.725 3.975
20.175 -6.975 0.825
14.475 -10.575 0.975
14.175 -10.275 1.125
14.175 -10.275 1.425
16.875 -11.475 1.275
16.875 -11.475 1.125
16.875 -11.475 0.825
16.725 -11.475 1.125
16.725 -11.475 1.425
16.725 -11.475 0.675
17.025 -11.475 0.525
16.575 -11.475 1.125
15.375 -11.175 0.525
20.025 -6.525 0.825
20.025 -6.525 -0.075
19.875 -6.225 0.975
19.875 -6.225 0.825
17.175 -11.475 0.525
14.025 -10.125 0.975
14.025 -10.125 1.275
13.725 -9.675 -3.075
13.725 -9.675 1.275
13.575 -9.375 2.475
15.825 -4.575 -0.975
18.825 -10.875 0.375
18.225 -4.725 -0.525
17.925 -11.325 3.525
16.875 -4.425 -0.975
15.675 -11.325 1.125
20.175 -6.825 0.375
20.175 -6.825 1.275
17.025 -4.425 -0.375
17.025 -4.425 -0.225
17.025 -4.425 -0.525
17.025 -4.425 0.525
17.025 -4.425 -0.075
16.575 -4.425 -0.075
19.725 -5.925 0.225
13.875 -9.975 1.575
17.175 -4.425 -0.375
17.325 -4.425 1.125
17.325 -4.425 -1.275
17.325 -4.425 -0.225
16.275 -4.425 0.525
19.425 -10.425 -0.075
18.075 -11.325 3.075
15.525 -11.325 0.525
15.525 -11.325 1.575
19.575 -10.275 0.225
20.175 -6.675 1.275
14.325 -10.575 0.525
14.325 -10.575 1.275
14.175 -10.425 0.675
14.175 -10.425 1.275
20.325 -7.125 3.525
13.425 -9.225 -0.225
14.025 -10.275 0.825
14.025 -10.275 2.175
14.025 -10.275 1.575
19.725 -5.775 0.225
13.875 -10.125 0.975
20.025 -6.225 0.525
20.025 -6.225 -0.225
20.175 -6.525 1.125
20.175 -6.525 0.675
16.875 -11.625 0.675
16.875 -11.625 0.975
16.875 -11.625 0.825
16.725 -11.625 0.975
16.725 -11.625 -3.825
16.725 -11.625 0.225
16.725 -11.625 0.825
13.575 -9.675 0.525
13.575 -9.675 0.675
17.025 -11.625 0.675
17.025 -11.625 0.825
16.575 -11.625 0.825
16.575 -11.625 0.675
17.775 -4.425 -0.675
17.775 -4.425 5.925
13.425 -9.375 0.225
15.675 -11.475 1.125
16.875 -4.275 0.075
16.875 -4.275 -0.225
16.725 -4.275 1.275
17.025 -4.275 0.525
17.025 -4.275 -0.225
20.475 -7.425 1.575
16.575 -4.275 0.975
17.175 -4.275 -0.075
17.175 -4.275 -0.225
17.175 -4.275 -0.375
17.175 -4.275 1.275
17.175 -4.275 0.675
14.175 -10.575 0.675
14.175 -10.575 0.825
17.925 -4.425 -0.525
16.425 -4.275 -0.225
19.125 -10.875 1.275
14.325 -10.725 0.525
14.925 -11.175 -3.525
20.025 -6.075 1.275
20.025 -6.075 0.675
20.025 -6.075 0.375
20.025 -6.075 0.825
18.075 -11.475 -3.225
17.325 -4.275 -0.375
17.325 -4.275 0.225
13.425 -9.525 1.125
13.425 -9.525 1.725
15.525 -11.475 0.525
13.875 -10.275 0.975
17.625 -11.625 0.825
17.475 -4.275 -1.125
18.075 -4.425 -0.675
14.625 -11.025 -4.725
19.875 -5.775 0.975
13.725 -10.125 0.825
17.625 -4.275 -0.225
20.325 -6.525 1.275
13.425 -9.675 1.725
19.575 -10.575 1.575
20.025 -5.925 0.675
20.025 -5.925 0.075
16.875 -11.775 0.825
16.875 -11.775 1.125
16.875 -11.775 0.975
16.875 -11.775 0.375
16.725 -11.775 1.125
16.725 -11.775 0.825
13.575 -9.975 2.175
13.575 -9.975 1.575
13.575 -9.975 0.375
13.575 -9.975 0.225
17.025 -11.775 0.675
17.025 -11.775 0.825
17.775 -4.275 -0.525
16.575 -11.775 0.975
16.575 -11.775 -0.225
20.625 -7.725 3.975
14.175 -10.725 0.675
14.025 -10.575 0.825
14.025 -10.575 0.675
14.025 -10.575 1.575
20.625 -7.575 0.825
19.725 -5.475 0.825
15.675 -11.625 0.975
15.675 -11.625 0.525
13.875 -10.425 1.725
13.875 -10.425 0.675
20.475 -6.825 1.275
20.475 -6.825 0.375
16.875 -4.125 0.525
16.725 -4.125 -0.075
16.275 -11.775 -3.825
17.025 -4.125 0.225
16.575 -4.125 -0.225
19.875 -5.625 0.675
20.325 -6.375 1.125
17.925 -4.275 -0.375
20.175 -6.075 -0.225
20.175 -6.075 0.675
20.175 -6.075 0.225
17.175 -4.125 -0.525
17.175 -4.125 -0.225
17.175 -4.125 -0.375
16.425 -4.125 -0.375
17.475 -11.775 1.125
17.475 -11.775 0.825
18.975 -11.175 0.525
13.275 -9.525 2.025
18.075 -11.625 -2.625
17.325 -4.125 0.975
17.325 -4.125 0.675
17.325 -4.125 -0.075
17.325 -4.125 -1.275
15.525 -11.625 0.525
16.275 -4.125 -0.375
14.925 -4.575 0.075
13.575 -10.125 2.175
13.575 -10.125 1.125
20.625 -8.775 2.775
17.475 -4.125 0.225
17.475 -4.125 -0.375
17.475 -4.125 0.525
15.525 -4.275 0.825
20.325 -6.225 0.975
14.025 -10.725 -2.175
14.025 -10.725 1.125
17.775 -11.775 -2.325
17.775 -11.775 -3.675
17.625 -4.125 -0.075
17.625 -4.125 -0.225
14.175 -10.875 1.725
13.875 -10.575 1.125
20.175 -5.925 1.425
20.475 -6.525 1.575
20.625 -6.975 3.075
19.875 -5.475 -0.075
19.875 -5.475 0.975
13.725 -10.425 0.825
13.725 -10.425 0.225
13.725 -10.425 0.975
20.025 -10.275 1.575
16.875 -11.925 2.025
16.875 -11.925 -3.075
16.875 -11.925 0.825
16.875 -11.925 0.975
16.875 -11.925 -3.825
16.725 -11.925 2.175
20.775 -8.025 2.175
20.775 -8.025 1.875
17.775 -4.125 -0.675
20.775 -7.875 1.875
20.775 -7.875 0.825
17.025 -11.925 0.825
16.575 -11.925 0.975
20.775 -8.175 2.625
20.775 -8.175 1.725
20.775 -7.725 2.475
20.775 -7.725 0.975
18.675 -11.475 0.825
20.025 -5.625 0.825
15.675 -11.775 0.225
15.675 -11.775 0.525
20.775 -8.325 2.325
20.775 -8.325 2.625
20.775 -8.325 1.575
13.575 -10.275 1.575
20.775 -7.575 1.425
20.775 -7.575 2.775
14.925 -11.475 0.525
15.225 -11.625 0.375
20.475 -6.375 1.425
16.875 -3.975 0.525
16.725 -3.975 0.225
16.725 -3.975 -0.075
16.275 -11.925 1.275
20.775 -7.425 1.725
17.025 -3.975 -0.075
17.025 -3.975 0.225
13.275 -9.825 0.825
19.725 -10.725 2.025
17.175 -3.975 1.425
17.175 -3.975 -0.075
17.175 -3.975 -0.225
18.075 -11.775 1.275
20.175 -5.775 -0.075
20.175 -5.775 0.375
20.775 -8.625 1.875
20.775 -7.275 2.775
20.775 -7.275 2.925
20.775 -7.275 2.475
20.775 -7.275 2.325
15.525 -11.775 0.975
15.525 -11.775 0.675
17.325 -3.975 0.525
14.025 -10.875 0.975
14.025 -10.875 1.125
13.875 -10.725 2.025
13.875 -10.725 1.425
13.875 -10.725 2.175
12.975 -9.225 1.275
19.875 -5.325 0.225
13.725 -10.575 0.975
13.725 -10.575 0.825
13.725 -10.575 3.075
17.475 -3.975 0.975
20.775 -7.125 0.825
20.775 -7.125 1.575
15.075 -11.625 0.375
20.325 -5.925 0.975
20.325 -5.925 1.725
20.325 -5.925 0.525
13.125 -9.675 -0.075
17.625 -3.975 -0.375
17.625 -3.975 -0.525
19.125 -11.325 0.675
20.475 -9.825 2.475
16.875 -12.075 0.675
16.875 -12.075 1.575
16.875 -12.075 0.975
16.725 -12.075 0.975
16.725 -12.075 0.675
16.725 -12.075 0.825
20.925 -7.875 1.125
20.925 -7.875 0.675
20.925 -7.725 0.975
19.575 -11.025 0.825
20.775 -6.825 1.575
20.775 -6.825 2.775
16.425 -12.075 0.975
15.225 -11.775 0.525
20.925 -7.575 1.575
20.625 -6.375 0.375
20.625 -6.375 1.425
13.125 -9.825 1.125
13.875 -10.875 1.425
20.325 -5.775 -0.075
14.025 -11.025 -3.825
13.725 -10.725 0.675
16.725 -3.825 0.375
16.725 -3.825 0.825
17.925 -3.975 0.075
13.275 -10.125 1.575
17.025 -3.825 -0.375
17.025 -3.825 -0.225
16.575 -3.825 0.525
16.575 -3.825 -0.375
20.025 -5.325 1.125
17.175 -3.825 -0.075
15.525 -11.925 1.425
20.775 -6.675 3.975
20.925 -7.275 1.125
20.925 -7.275 0.825
20.925 -7.275 1.275
17.325 -3.825 -0.075
17.325 -3.825 0.525
13.425 -10.425 0.525
20.925 -8.775 2.325
20.925 -8.775 2.625
20.475 -5.925 0.525
17.475 -3.825 1.125
20.925 -7.125 1.575
16.125 -3.825 -0.525
18.225 -11.925 -0.225
15.375 -11.925 1.575
20.775 -6.525 1.425
17.625 -3.825 -0.375
18.225 -3.975 -0.375
13.725 -10.875 1.275
19.875 -5.025 0.975
19.425 -11.325 0.375
20.625 -6.075 0.375
20.625 -6.075 1.725
18.375 -11.925 0.975
20.025 -5.175 0.225
16.875 -12.225 0.525
16.875 -12.225 2.025
16.875 -12.225 0.975
16.725 -12.225 1.725
16.725 -12.225 1.275
21.075 -8.025 -0.375
21.075 -7.875 2.025
16.575 -12.225 -0.525
16.575 -12.225 1.275
15.225 -11.925 0.525
20.925 -6.825 2.625
20.925 -6.825 0.975
20.475 -5.775 1.275
20.175 -5.325 0.225
16.425 -12.225 0.525
16.425 -12.225 1.275
16.425 -12.225 1.125
13.425 -10.575 0.975
13.425 -10.575 2.925
17.925 -3.825 -0.675
21.075 -8.475 0.375
16.875 -3.675 0.825
16.725 -3.675 -0.075
16.725 -3.675 0.675
21.075 -7.425 1.125
17.025 -3.675 0.525
18.825 -11.775 0.825
15.525 -12.075 1.125
15.525 -12.075 0.975
17.175 -3.675 0.375
20.925 -6.675 1.425
12.525 -7.575 -0.975
13.275 -10.425 0.675
16.425 -3.675 0.375
16.125 -12.225 1.575
20.625 -5.925 1.875
17.325 -3.675 0.525
17.325 -3.675 0.375
17.325 -3.675 -0.225
19.125 -11.625 1.125
19.125 -11.625 0.825
20.775 -6.225 1.425
14.475 -11.625 -3.975
17.475 -3.675 1.125
17.475 -3.675 -0.375
17.475 -3.675 1.725
20.475 -5.625 0.075
20.475 -5.625 -0.075
20.475 -5.625 0.525
19.575 -11.325 1.125
16.125 -3.675 -0.375
15.375 -12.075 0.525
20.025 -5.025 1.275
20.025 -5.025 0.075
20.925 -6.525 1.725
20.925 -6.525 0.825
20.925 -6.525 1.125
17.775 -12.225 -3.675
17.625 -3.675 0.225
17.625 -3.675 -0.375
20.175 -5.175 -0.075
13.425 -10.725 1.275
13.275 -10.575 3.075
15.825 -3.675 -2.025
16.875 -12.375 1.275
16.875 -12.375 1.125
16.875 -12.375 0.975
16.725 -12.375 0.675
16.725 -12.375 1.575
16.725 -12.375 -1.125
16.725 -12.375 2.025
16.725 -12.375 1.275
21.075 -6.825 1.125
21.075 -6.825 1.275
17.025 -12.375 0.825
16.575 -12.375 1.125
16.575 -12.375 1.275
12.975 -5.775 1.425
16.425 -12.375 1.125
21.225 -7.575 1.425
20.475 -5.475 0.525
17.925 -3.675 -0.225
20.175 -10.875 1.575
16.725 -3.525 0.075
17.025 -3.525 0.075
17.025 -3.525 -0.375
15.525 -12.225 0.525
21.075 -6.675 2.325
20.775 -5.925 0.975
20.775 -5.925 1.725
20.025 -4.875 0.075
17.175 -3.525 1.125
17.175 -3.525 -0.225
17.175 -3.525 -0.675
19.875 -4.725 0.525
16.425 -3.525 -0.075
16.425 -3.525 -0.675
16.125 -12.375 1.875
20.325 -10.725 1.875
20.925 -6.225 0.675
17.325 -3.525 0.525
20.625 -5.625 1.425
20.625 -5.625 1.875
18.075 -3.675 0.525
18.075 -3.675 -0.375
12.675 -9.675 1.425
20.325 -5.175 1.275
17.475 -3.525 1.275
17.475 -3.525 0.675
17.475 -3.525 1.425
19.425 -11.625 2.475
21.075 -6.525 0.675
21.075 -6.525 1.575
20.475 -5.325 1.575
20.475 -5.325 0.525
17.625 -3.525 0.525
17.625 -3.525 -0.225
17.625 -3.525 -0.675
17.625 -3.525 0.225
20.775 -5.775 2.625
20.175 -11.025 2.175
21.075 -6.375 0.975
20.625 -5.475 0.825
15.675 -12.375 -0.525
19.725 -11.475 0.675
20.325 -10.875 2.325
16.875 -12.525 0.825
16.875 -12.525 1.725
16.725 -12.525 2.025
16.725 -12.525 0.975
16.725 -12.525 0.825
16.725 -12.525 1.125
16.575 -12.525 1.125
12.525 -9.525 1.275
19.875 -4.575 0.075
18.825 -12.075 0.675
16.425 -12.525 0.975
12.525 -6.375 1.425
20.325 -5.025 0.375
20.325 -5.025 0.675
19.575 -11.625 2.625
20.925 -5.925 1.725
20.925 -5.925 3.975
16.275 -12.525 1.275
16.275 -12.525 1.725
15.525 -12.375 0.525
15.525 -12.375 0.225
17.025 -3.375 0.375
16.575 -3.375 -0.525
14.025 -11.625 5.025
20.775 -5.625 1.425
17.175 -3.375 0.375
17.175 -3.375 -0.075
17.175 -3.375 0.075
16.425 -3.375 0.075
16.125 -12.525 2.025
16.125 -12.525 2.175
16.125 -12.525 1.275
16.125 -12.525 1.425
18.075 -3.525 0.225
18.075 -3.525 1.725
18.075 -3.525 -0.525
18.075 -3.525 -0.375
18.075 -3.525 0.375
17.325 -3.375 -0.375
17.325 -3.375 -0.075
16.275 -3.375 -0.225
15.975 -12.525 2.325
20.625 -5.325 1.725
20.625 -5.325 2.325
20.625 -5.325 3.675
15.375 -12.375 0.675
17.475 -3.375 -0.225
17.475 -3.375 -0.375
12.975 -10.575 3.075
20.175 -11.175 2.175
19.875 -11.475 1.875
18.225 -3.525 -0.375
17.625 -3.375 0.075
17.625 -3.375 0.525
15.975 -3.375 0.375
12.675 -10.125 5.025
20.175 -4.725 0.375
20.175 -4.725 0.525
20.025 -4.575 -0.075
20.025 -4.575 0.225
20.775 -5.475 1.425
20.775 -5.475 0.675
19.875 -4.425 0.675
12.825 -10.425 -2.025
17.775 -3.375 0.975
16.875 -12.675 0.825
16.875 -12.675 0.975
16.725 -12.675 0.825
16.575 -12.675 0.975
14.025 -11.775 -2.175
14.775 -12.225 0.675
20.625 -5.175 2.925
20.625 -5.175 1.275
20.625 -5.175 0.975
20.625 -5.175 1.575
16.425 -12.675 0.975
21.075 -5.925 0.825
20.925 -5.625 1.275
20.925 -5.625 1.425
15.525 -12.525 -0.375
16.275 -12.675 1.275
16.275 -12.675 2.025
19.425 -11.925 0.675
21.225 -6.225 0.525
16.575 -3.225 0.075
20.175 -11.325 2.325
17.175 -3.225 -0.525
17.175 -3.225 0.375
16.425 -3.225 -0.375
20.775 -5.325 3.975
20.775 -5.325 2.625
16.275 -3.225 2.775
20.175 -4.575 0.525
20.175 -4.575 0.375
20.025 -4.425 0.225
20.025 -4.425 0.825
17.475 -3.225 -0.825
17.475 -3.225 -0.525
20.475 -4.875 0.225
16.125 -3.225 -2.175
21.225 -6.075 0.975
17.625 -3.225 -0.675
17.625 -3.225 0.525
19.725 -4.125 -0.075
15.225 -12.525 -0.225
17.775 -3.225 1.125
17.775 -3.225 1.425
20.775 -5.175 1.575
20.775 -5.175 3.225
18.375 -3.375 -0.375
14.775 -12.375 0.525
16.725 -12.825 0.825
16.725 -12.825 0.375
21.075 -5.625 1.125
21.075 -5.625 0.975
21.075 -5.625 0.825
17.025 -12.825 0.675
17.025 -12.825 0.375
16.575 -12.825 0.975
16.575 -12.825 0.825
20.475 -11.175 2.025
17.925 -3.225 -1.125
17.175 -12.825 0.075
18.075 -12.675 -3.675
16.425 -12.825 0.375
21.375 -6.225 0.525
20.175 -4.425 0.375
20.175 -4.425 0.225
20.175 -4.425 0.975
20.925 -5.325 1.425
20.925 -5.325 2.025
16.275 -12.825 1.425
16.275 -12.825 1.125
16.275 -12.825 1.725
20.475 -4.725 0.975
20.475 -4.725 0.525
20.025 -4.275 0.375
16.875 -3.075 0.075
17.025 -3.075 0.825
17.475 -12.825 0.225
17.175 -3.075 0.525
16.125 -12.825 2.025
20.625 -4.875 0.675
17.325 -3.075 -0.075
16.275 -3.075 -0.675
21.225 -5.775 1.125
21.225 -5.775 2.925
20.775 -5.025 0.525
20.775 -5.025 0.825
20.775 -5.025 1.425
17.475 -3.075 0.525
17.475 -3.075 -1.125
17.775 -12.825 0.525
18.675 -3.375 -0.675
17.625 -3.075 -0.225
17.625 -3.075 0.375
20.925 -5.175 1.575
20.925 -5.175 3.975
20.925 -5.175 2.325
17.925 -12.825 1.725
17.775 -3.075 1.275
17.775 -3.075 -0.675
20.325 -4.425 0.825
20.325 -4.425 0.375
20.475 -4.575 0.375
20.475 -4.575 0.825
20.175 -4.275 0.525
20.175 -4.275 0.975
18.375 -3.225 -0.225
14.775 -12.525 0.525
20.025 -4.125 -0.075
16.875 -12.975 0.975
16.875 -12.975 0.375
16.875 -12.975 0.825
16.725 -12.975 1.275
16.725 -12.975 0.825
16.725 -12.975 0.675
16.725 -12.975 0.525
17.025 -12.975 0.975
17.025 -12.975 0.375
17.025 -12.975 0.675
18.825 -3.375 -0.225
16.575 -12.975 2.025
16.575 -12.975 0.975
15.075 -12.675 1.425
15.075 -12.675 1.575
15.075 -12.675 0.525
16.425 -12.975 1.275
16.425 -12.975 1.875
20.775 -4.875 2.325
20.775 -4.875 1.125
17.325 -12.975 0.075
19.725 -12.075 0.525
16.275 -12.975 1.125
17.025 -2.925 -0.225
16.575 -2.925 -0.375
16.575 -2.925 -0.075
17.475 -12.975 0.525
17.475 -12.975 0.375
17.475 -12.975 -1.275
20.925 -5.025 1.575
16.125 -12.975 3.075
17.175 -2.925 -0.225
14.625 -12.525 0.525
18.225 -12.825 1.275
18.225 -12.825 0.675
21.375 -5.775 1.125
18.675 -12.675 -3.375
21.225 -5.475 1.875
21.225 -5.475 1.275
17.625 -12.975 -0.825
17.625 -12.975 0.525
17.625 -12.975 0.675
17.625 -12.975 -0.375
14.925 -12.675 0.375
14.925 -12.675 0.525
17.475 -2.925 0.525
17.475 -2.925 0.075
18.225 -3.075 -0.525
20.475 -4.425 0.975
21.075 -5.175 1.125
21.075 -5.175 0.975
20.325 -4.275 0.375
18.375 -12.825 -0.075
20.175 -4.125 1.125
20.175 -4.125 0.075
17.625 -2.925 1.575
17.625 -2.925 1.425
11.775 -7.125 0.225
15.225 -12.825 1.125
17.925 -12.975 1.425
17.925 -12.975 1.275
14.775 -12.675 0.375
17.775 -2.925 0.375
17.775 -2.925 0.225
17.775 -2.925 0.525
17.775 -2.925 1.275
18.375 -3.075 -0.525
21.225 -5.325 2.025
21.225 -5.325 1.575
20.925 -4.875 1.575
16.875 -13.125 0.975
16.875 -13.125 0.825
16.725 -13.125 1.275
16.725 -13.125 0.975
15.075 -12.825 0.525
15.075 -12.825 1.275
15.075 -12.825 1.425
17.025 -13.125 0.375
17.025 -13.125 1.875
17.025 -13.125 0.975
17.025 -13.125 -0.375
16.575 -13.125 0.825
16.575 -13.125 1.725
16.575 -13.125 0.975
16.575 -13.125 2.025
16.575 -13.125 1.125
18.075 -12.975 0.375
18.075 -12.975 1.425
16.425 -13.125 1.875
16.425 -13.125 0.975
16.425 -13.125 0.675
21.075 -5.025 1.875
21.075 -5.025 1.425
17.325 -13.125 0.975
17.325 -13.125 1.425
20.175 -11.925 1.125
13.125 -11.625 0.225
17.025 -2.775 -0.225
17.025 -2.775 -0.525
18.075 -2.925 0.075
17.475 -13.125 1.725
18.675 -12.825 -0.075
20.625 -4.425 0.225
18.225 -12.975 0.675
18.225 -12.975 0.525
16.125 -13.125 0.225
16.125 -13.125 1.125
16.125 -13.125 0.525
20.325 -4.125 0.375
20.325 -4.125 0.225
17.175 -2.775 -0.225
14.925 -12.825 0.525
20.025 -12.075 1.125
17.325 -2.775 -0.225
20.175 -3.975 0.075
20.175 -3.975 0.525
17.625 -13.125 0.825
17.625 -13.125 0.675
17.625 -13.125 1.125
13.575 -12.075 -1.875
18.675 -3.075 -0.375
17.475 -2.775 0.525
17.475 -2.775 -0.075
20.925 -4.725 2.025
18.225 -2.925 -0.225
18.225 -2.925 0.975
11.775 -6.525 0.825
18.375 -12.975 0.375
17.775 -13.125 1.725
17.775 -13.125 0.375
17.775 -13.125 -4.425
19.425 -12.525 2.775
15.825 -13.125 0.375
15.225 -12.975 1.125
17.625 -2.775 0.675
21.075 -4.875 1.425
21.075 -4.875 0.675
12.525 -11.025 3.375
14.775 -12.825 0.525
17.925 -13.125 1.575
17.925 -13.125 1.275
17.925 -13.125 0.525
17.925 -13.125 0.375
17.775 -2.775 0.525
17.775 -2.775 -1.275
11.625 -6.975 0.825
20.325 -11.925 1.125
18.525 -12.975 1.875
18.525 -12.975 0.525
21.225 -5.025 2.175
21.225 -5.025 1.275
15.075 -12.975 0.525
20.625 -4.275 0.375
20.625 -4.275 0.525
20.475 -4.125 0.375
20.475 -4.125 0.225
16.725 -13.275 1.575
16.725 -13.275 0.525
16.725 -13.275 0.975
16.725 -13.275 1.125
18.075 -13.125 -4.425
18.075 -13.125 1.425
18.075 -13.125 0.375
17.925 -2.775 0.975
16.575 -13.275 0.975
16.575 -13.275 1.725
20.325 -3.975 0.225
20.325 -3.975 0.525
17.175 -13.275 0.525
16.425 -13.275 1.875
16.425 -13.275 0.525
16.425 -13.275 0.975
16.425 -13.275 0.825
18.525 -2.925 0.375
20.925 -4.575 1.575
20.925 -4.575 1.125
20.025 -12.225 0.525
17.325 -13.275 0.675
16.275 -13.275 1.125
16.275 -13.275 -0.675
16.275 -13.275 1.575
16.275 -13.275 1.725
18.675 -12.975 0.675
18.675 -12.975 0.525
18.075 -2.775 -0.075
18.225 -13.125 0.525
18.225 -13.125 0.975
21.375 -5.175 1.275
17.475 -13.275 0.675
14.925 -12.975 0.525
21.075 -4.725 1.875
21.075 -4.725 0.825
17.175 -2.625 0.075
15.375 -13.125 -0.525
11.475 -7.575 -1.575
16.425 -2.625 0.225
17.325 -2.625 -0.075
17.625 -13.275 0.825
16.275 -2.625 1.425
11.775 -9.825 4.125
19.125 -12.825 1.125
11.475 -8.625 -1.275
17.475 -2.625 0.525
17.475 -2.625 0.075
17.475 -2.625 -0.375
21.225 -4.875 0.675
21.225 -4.875 0.525
21.225 -4.875 0.975
16.125 -2.625 -0.225
18.375 -13.125 0.525
14.475 -12.825 -0.225
17.775 -13.275 1.125
15.225 -13.125 1.125
15.225 -13.125 1.275
15.225 -13.125 0.975
15.225 -13.125 0.075
15.225 -13.125 -0.675
15.225 -13.125 0.525
20.325 -12.075 1.275
17.625 -2.625 -0.375
17.625 -2.625 -0.075
15.975 -2.625 -0.675
20.625 -4.125 0.075
13.125 -11.925 -0.225
20.775 -4.275 3.675
20.475 -3.975 -0.225
20.475 -3.975 0.225
18.375 -2.775 -0.375
17.925 -13.275 0.375
20.175 -12.225 0.525
20.925 -4.425 2.475
20.925 -4.425 2.175
20.925 -4.425 1.425
20.925 -4.425 1.725
17.775 -2.625 -0.225
17.775 -2.625 0.825
17.775 -2.625 0.525
17.775 -2.625 0.225
15.675 -13.275 -0.525
15.675 -13.275 1.725
20.325 -3.825 0.225
20.325 -3.825 0.525
11.475 -6.975 0.825
18.525 -13.125 0.675
18.525 -13.125 2.775
18.525 -13.125 0.525
11.775 -5.925 -0.675
15.075 -13.125 0.525
21.075 -4.575 2.175
21.075 -4.575 1.275
20.175 -3.675 1.125
20.025 -12.375 1.125
18.075 -13.275 0.675
17.925 -2.625 -0.525
17.925 -2.625 1.125
17.925 -2.625 -0.375
16.875 -13.425 -0.975
16.875 -13.425 1.425
16.875 -13.425 0.825
16.725 -13.425 1.125
16.725 -13.425 2.325
17.025 -13.425 -0.525
16.425 -13.425 1.125
21.225 -4.725 0.675
21.225 -4.725 0.825
18.675 -13.125 2.325
18.075 -2.625 0.075
18.075 -2.625 -0.525
19.875 -12.525 1.875
18.225 -13.275 1.725
14.925 -13.125 0.525
17.475 -13.425 1.575
17.475 -13.425 0.975
17.475 -13.425 0.825
15.375 -13.275 -0.375
15.375 -13.275 0.525
11.325 -8.325 0.825
17.175 -2.475 0.825
16.425 -2.475 1.275
21.375 -4.875 2.475
21.375 -4.875 0.825
21.375 -4.875 1.575
21.375 -4.875 2.175
19.425 -12.825 1.125
19.125 -12.975 -0.075
19.125 -12.975 3.525
17.625 -13.425 3.675
20.775 -4.125 1.275
20.625 -3.975 0.225
20.925 -4.275 0.225
20.925 -4.275 1.425
20.475 -3.825 0.675
20.475 -3.825 -0.225
20.475 -3.825 0.225
18.375 -13.275 0.675
18.375 -13.275 0.825
17.475 -2.475 0.225
17.475 -2.475 -0.075
17.475 -2.475 0.375
19.725 -12.675 1.275
18.825 -13.125 1.275
21.075 -4.425 2.625
21.075 -4.425 0.975
21.075 -4.425 3.075
15.225 -13.275 0.225
15.225 -13.275 -0.375
15.225 -13.275 -1.725
15.225 -13.275 1.125
15.225 -13.275 0.975
15.225 -13.275 0.675
17.775 -13.425 0.675
20.175 -12.375 1.125
20.175 -12.375 1.875
19.125 -2.925 -0.375
14.775 -13.125 -2.325
17.625 -2.475 0.375
21.225 -4.575 1.425
21.225 -4.575 0.825
18.375 -2.625 -0.225
15.675 -13.425 -0.375
17.775 -2.475 0.525
17.775 -2.475 -0.225
18.525 -13.275 2.175
15.075 -13.275 0.825
15.075 -13.275 0.525
19.575 -12.825 1.425
18.975 -13.125 0.675
21.375 -4.725 0.675
21.375 -4.725 2.325
21.375 -4.725 1.275
17.925 -2.475 -0.375
17.925 -2.475 -0.075
14.625 -13.125 -0.225
14.625 -13.125 0.825
15.525 -13.425 -0.375
16.725 -13.575 0.975
16.725 -13.575 1.125
16.725 -13.575 -3.675
19.275 -2.925 -0.375
16.575 -13.575 1.275
16.575 -13.575 1.125
19.875 -12.675 0.825
18.675 -13.275 0.525
18.675 -13.275 2.025
18.675 -13.275 2.475
20.625 -3.825 0.075
20.625 -3.825 0.825
20.625 -3.825 -0.375
21.525 -4.875 0.975
20.325 -12.375 1.125
14.925 -13.275 0.225
14.925 -13.275 -2.175
14.925 -13.275 -0.375
18.075 -2.475 0.075
18.075 -2.475 1.125
21.075 -4.275 0.975
21.075 -4.275 -0.075
21.075 -4.275 1.425
19.425 -12.975 0.825
19.425 -12.975 1.425
21.225 -4.425 0.825
12.525 -4.275 0.525
20.175 -12.525 1.575
19.725 -12.825 1.425
14.475 -13.125 -0.375
14.475 -13.125 -0.675
21.375 -4.575 0.825
21.375 -4.575 0.975
15.225 -13.425 -2.025
15.225 -13.425 0.225
15.225 -13.425 -0.225
15.225 -13.425 0.525
15.225 -13.425 -0.375
14.775 -13.275 0.975
20.025 -12.675 1.575
20.025 -12.675 -0.375
20.025 -12.675 0.825
18.375 -2.475 -0.225
21.525 -4.725 1.275
18.525 -13.425 0.675
18.525 -13.425 1.875
18.525 -13.425 2.175
17.775 -2.325 1.575
17.775 -2.325 0.525
17.775 -2.325 -0.225
15.075 -13.425 0.075
20.925 -3.975 3.225
20.925 -3.975 1.275
18.975 -13.275 0.825
20.775 -3.825 0.975
20.775 -3.825 3.075
21.075 -4.125 1.125
21.075 -4.125 1.875
20.625 -3.675 3.675
20.625 -3.675 0.675
19.875 -12.825 0.825
11.175 -9.075 -0.975
21.225 -4.275 1.275
21.225 -4.275 0.675
21.225 -4.275 0.975
21.225 -4.275 0.825
18.525 -2.475 -0.525
20.475 -3.525 0.375
16.875 -13.725 1.275
18.975 -2.625 -0.225
21.375 -4.425 1.125
21.375 -4.425 1.425
20.325 -3.375 0.375
19.425 -13.125 1.875
18.075 -2.325 -0.675
18.075 -2.325 -0.375
15.375 -13.575 1.425
19.725 -12.975 1.425
16.575 -2.175 0.375
21.525 -4.575 0.975
11.325 -6.075 0.225
17.325 -2.175 -0.375
18.225 -2.325 -0.525
18.225 -2.325 -0.375
11.175 -6.525 -0.825
14.775 -13.425 -0.525
15.225 -13.575 0.525
20.925 -3.825 1.275
21.075 -3.975 0.375
21.075 -3.975 3.525
21.075 -3.975 0.675
21.075 -3.975 1.725
12.975 -12.375 5.775
11.025 -8.775 1.725
21.225 -4.125 0.525
19.575 -13.125 2.925
11.175 -9.525 0.825
18.375 -2.325 -0.525
14.025 -13.125 -0.075
21.375 -4.275 0.675
19.875 -12.975 0.675
17.775 -2.175 -0.075
17.775 -2.175 0.525
15.075 -13.575 -0.225
15.075 -13.575 0.675
20.475 -3.375 0.525
19.575 -2.775 -0.825
19.275 -2.625 0.225
21.825 -4.875 0.975
17.925 -2.175 1.275
20.325 -3.225 1.125
11.025 -6.825 -0.675
20.175 -12.825 2.325
16.425 -13.875 3.375
19.725 -13.125 0.525
19.125 -13.425 0.825
18.225 -13.725 3.075
18.075 -2.175 -0.375
18.075 -2.175 -0.525
18.675 -2.325 0.225
21.075 -3.825 0.375
21.075 -3.825 1.575
21.075 -3.825 1.125
20.925 -3.675 2.175
16.725 -2.025 0.075
19.425 -2.625 -0.225
20.025 -12.975 0.375
20.025 -12.975 2.025
21.225 -3.975 0.375
21.225 -3.975 2.175
20.775 -3.525 0.975
20.775 -3.525 0.525
20.775 -3.525 1.875
18.225 -2.175 0.375
21.375 -4.125 1.575
21.375 -4.125 1.125
21.375 -4.125 0.675
21.375 -4.125 3.525
17.625 -13.875 0.825
17.625 -13.875 0.075
17.325 -2.025 -0.375
20.625 -3.375 0.675
15.975 -13.875 -0.525
14.775 -13.575 -0.525
14.775 -13.575 -0.375
10.875 -7.275 4.275
21.525 -4.275 1.725
19.275 -13.425 0.675
20.475 -3.225 0.525
19.875 -13.125 0.525
17.625 -2.025 0.525
17.625 -2.025 0.225
18.525 -13.725 1.125
19.575 -2.625 -0.075
19.575 -2.625 0.825
19.575 -2.625 0.075
21.675 -4.425 0.825
15.075 -13.725 -2.775
20.175 -12.975 2.175
17.925 -2.025 0.675
15.525 -13.875 -0.675
15.525 -13.875 -0.525
21.075 -3.675 1.425
21.225 -3.825 0.075
21.225 -3.825 1.575
21.225 -3.825 0.975
20.925 -3.525 0.375
14.925 -13.725 -0.975
14.925 -13.725 -1.275
14.925 -13.725 -0.375
21.375 -3.975 0.825
21.375 -3.975 1.425
14.175 -13.425 -0.375
20.775 -3.375 1.275
13.875 -13.275 -2.475
18.075 -2.025 0.225
18.075 -2.025 0.525
18.075 -2.025 -0.375
20.025 -13.125 1.425
21.525 -4.125 2.025
21.525 -4.125 1.725
21.525 -4.125 1.575
15.375 -13.875 -0.225
19.425 -2.475 0.675
19.425 -2.475 -0.375
20.625 -3.225 2.475
20.625 -3.225 0.225
16.875 -1.875 -0.525
17.025 -1.875 -0.225
19.125 -2.325 0.225
13.125 -12.825 -0.075
14.775 -13.725 -1.425
14.325 -13.575 0.375
20.325 -2.925 1.125
17.625 -1.875 -0.375
17.625 -1.875 0.525
17.625 -1.875 0.225
17.625 -1.875 -0.075
17.625 -1.875 -0.225
21.225 -3.675 1.275
21.225 -3.675 0.975
21.225 -3.675 0.675
21.225 -3.675 2.925
21.075 -3.525 1.275
21.075 -3.525 0.525
19.275 -2.325 -0.375
19.275 -2.325 0.375
17.925 -14.025 1.275
21.375 -3.825 1.125
21.375 -3.825 1.275
21.375 -3.825 0.075
