# .PCD v0.7 - Point Cloud Data file format
VERSION 0.7
FIELDS x y z
SIZE 4 4 4
TYPE F F F
COUNT 1 1 1
WIDTH 2048
HEIGHT 1
VIEWPOINT 0 0 0 1 0 0 0
POINTS 2048
DATA ascii
16.425 -3.225 -0.675
16.425 -3.225 0.225
16.425 -3.225 -0.825
16.425 -3.225 -0.375
16.275 -3.225 0.225
16.425 -3.375 0.375
16.275 -3.375 -0.375
16.425 -3.075 -0.225
16.275 -3.075 -0.825
16.275 -3.075 0.675
16.275 -3.075 -0.075
16.275 -3.075 0.225
16.275 -3.075 -0.675
16.275 -3.075 0.375
16.275 -3.075 -0.525
16.125 -3.225 -0.525
16.125 -3.225 -0.075
16.125 -3.225 -0.375
16.125 -3.225 0.675
16.125 -3.225 1.125
16.125 -3.225 0.375
16.575 -3.375 -1.275
16.125 -3.375 0.975
16.125 -3.375 0.675
16.125 -3.375 -0.675
16.575 -3.075 -0.675
16.125 -3.075 -0.525
16.125 -3.075 0.225
16.125 -3.075 0.375
16.125 -3.075 -0.825
16.125 -3.075 -0.675
16.425 -3.525 -0.525
16.425 -3.525 -0.675
16.275 -3.525 0.375
16.275 -3.525 -0.075
16.275 -3.525 -0.225
16.425 -2.925 -0.975
16.275 -2.925 0.225
16.275 -2.925 0.675
16.275 -2.925 -0.675
16.275 -2.925 -0.525
16.275 -2.925 0.975
16.275 -2.925 0.825
16.725 -3.225 -0.075
16.725 -3.225 -0.675
16.725 -3.225 -0.225
16.125 -3.525 0.375
16.125 -3.525 -0.375
16.125 -3.525 0.225
16.125 -3.525 -0.975
16.125 -3.525 0.675
16.575 -2.925 -1.275
16.575 -2.925 -0.825
15.975 -3.225 -0.825
15.975 -3.225 0.075
15.975 -3.225 -0.975
15.975 -3.225 0.225
15.975 -3.225 1.125
15.975 -3.225 0.975
16.125 -2.925 0.225
16.125 -2.925 -0.525
16.725 -3.375 -2.475
16.725 -3.375 -0.975
15.975 -3.375 0.075
15.975 -3.375 -0.675
15.975 -3.375 1.875
15.975 -3.375 -0.525
15.975 -3.375 0.225
15.975 -3.075 0.225
15.975 -3.075 0.075
15.975 -3.075 -0.075
15.975 -3.075 -0.375
16.425 -3.675 0.825
16.275 -3.675 -0.675
16.275 -3.675 -0.525
16.275 -3.675 0.075
16.425 -2.775 -0.975
16.425 -2.775 -0.525
16.425 -2.775 0.375
16.425 -2.775 0.975
16.425 -2.775 0.075
16.275 -2.775 -0.825
16.275 -2.775 -0.525
16.275 -2.775 -0.375
16.275 -2.775 0.525
16.275 -2.775 1.275
16.725 -3.525 -1.125
15.975 -3.525 0.675
15.975 -3.525 -0.375
15.975 -3.525 -1.125
15.975 -3.525 0.225
16.725 -2.925 -0.975
15.975 -2.925 -0.825
15.975 -2.925 -0.675
15.975 -2.925 -0.375
15.975 -2.925 1.275
15.975 -2.925 0.075
16.575 -3.675 -0.525
16.125 -3.675 -0.675
16.125 -3.675 0.375
16.125 -3.675 0.225
16.125 -3.675 -0.525
16.125 -3.675 -0.075
16.575 -2.775 -0.375
16.575 -2.775 -0.525
16.125 -2.775 0.225
16.125 -2.775 0.075
16.875 -3.225 -0.675
15.825 -3.225 -1.125
15.825 -3.225 -0.075
15.825 -3.225 0.075
15.825 -3.375 1.125
15.825 -3.375 -0.225
15.825 -3.375 -0.675
15.825 -3.375 -0.075
15.825 -3.375 0.975
15.825 -3.075 0.975
15.825 -3.075 -0.525
15.825 -3.075 -0.975
16.725 -3.675 -0.675
16.725 -3.675 -0.825
15.975 -3.675 0.225
16.725 -2.775 -0.825
16.725 -2.775 -1.425
16.725 -2.775 -1.575
15.975 -2.775 -0.825
15.975 -2.775 -0.375
15.975 -2.775 -0.675
15.975 -2.775 -0.075
15.975 -2.775 0.225
16.875 -3.525 -0.825
16.275 -3.825 0.075
16.275 -3.825 -0.825
16.875 -2.925 -1.275
16.875 -2.925 -0.825
15.825 -3.525 0.075
15.825 -3.525 -0.075
15.825 -3.525 -2.025
16.425 -2.625 -0.525
16.425 -2.625 -0.075
16.425 -2.625 -1.725
16.425 -2.625 -0.675
16.425 -2.625 0.825
16.425 -2.625 0.375
16.425 -2.625 0.075
15.825 -2.925 -0.825
15.825 -2.925 -0.975
15.825 -2.925 0.075
16.275 -2.625 -0.525
16.275 -2.625 -0.675
16.275 -2.625 -1.125
16.275 -2.625 1.275
16.275 -2.625 1.125
16.275 -2.625 0.525
16.275 -2.625 0.375
16.575 -3.825 -0.675
16.125 -3.825 -0.675
16.125 -3.825 -0.525
16.125 -3.825 -0.075
16.125 -2.625 0.075
16.125 -2.625 0.225
16.125 -2.625 -0.525
17.025 -3.225 -0.975
15.675 -3.225 -0.075
15.675 -3.225 -0.975
17.025 -3.375 -0.825
17.025 -3.075 -0.375
17.025 -3.075 -0.075
17.025 -3.075 0.225
15.825 -3.675 0.075
15.825 -3.675 -0.825
15.825 -3.675 0.225
16.875 -2.775 -0.375
16.875 -2.775 -0.525
15.675 -3.375 -1.125
15.675 -3.375 -1.275
15.675 -3.375 -0.075
16.725 -3.825 -0.675
15.675 -3.075 0.075
15.825 -2.775 -0.375
15.825 -2.775 -0.825
15.975 -3.825 0.675
15.975 -3.825 -0.825
15.975 -3.825 0.225
16.725 -2.625 0.225
16.725 -2.625 -1.425
16.725 -2.625 -0.825
16.725 -2.625 -0.975
15.975 -2.625 0.075
15.975 -2.625 -0.675
15.975 -2.625 -0.825
17.025 -2.925 -0.675
15.675 -3.525 0.525
15.675 -3.525 -0.075
16.425 -3.975 -1.125
16.275 -3.975 0.225
15.675 -2.925 -0.975
15.675 -2.925 0.375
15.675 -2.925 -0.075
16.425 -2.475 -0.375
16.425 -2.475 0.825
16.425 -2.475 -1.275
16.425 -2.475 -0.525
16.425 -2.475 0.375
16.425 -2.475 0.975
16.275 -2.475 0.375
16.575 -3.975 -0.375
16.575 -3.975 -0.675
16.575 -3.975 -1.275
16.875 -3.825 -0.825
16.575 -2.475 -0.075
16.575 -2.475 -0.825
16.125 -2.475 -0.825
16.125 -2.475 -0.225
16.125 -2.475 0.225
15.825 -3.825 -0.225
15.825 -3.825 0.825
15.825 -3.825 -0.525
15.825 -3.825 0.075
15.825 -3.825 0.525
15.825 -3.825 -0.825
16.875 -2.625 0.075
16.875 -2.625 1.575
16.875 -2.625 -1.125
16.875 -2.625 -1.425
16.875 -2.625 -0.825
17.025 -3.675 -0.675
15.825 -2.625 0.225
15.825 -2.625 -0.225
15.825 -2.625 -0.675
15.675 -3.675 -0.825
15.675 -3.675 0.975
15.675 -3.675 1.125
15.675 -3.675 0.075
15.675 -3.675 -0.075
17.025 -2.775 -0.825
17.175 -3.225 -0.825
17.175 -3.225 -1.275
15.675 -2.775 -0.825
15.675 -2.775 -0.525
15.675 -2.775 -0.675
15.675 -2.775 -0.225
16.725 -3.975 -1.275
15.975 -3.975 -0.075
15.975 -3.975 0.075
17.175 -3.075 -0.825
15.525 -3.375 0.675
16.725 -2.475 -1.425
16.725 -2.475 -0.975
16.725 -2.475 -0.675
16.725 -2.475 -1.125
15.525 -3.075 -0.675
15.525 -3.075 -0.825
15.975 -2.475 -0.075
17.175 -3.525 -0.375
17.175 -3.525 -0.975
17.175 -3.525 0.225
15.525 -3.525 0.075
15.525 -3.525 -0.375
15.525 -3.525 0.675
15.525 -3.525 -1.125
15.525 -3.525 1.425
15.525 -2.925 -0.975
15.525 -2.925 -1.125
17.025 -3.825 -0.075
16.275 -4.125 -0.825
16.275 -4.125 -0.375
15.675 -3.825 0.075
15.675 -3.825 0.975
15.675 -3.825 -0.075
17.025 -2.625 -0.525
17.025 -2.625 -0.675
17.025 -2.625 0.375
17.025 -2.625 -0.825
17.025 -2.625 0.075
16.875 -3.975 -0.675
16.875 -3.975 -1.575
16.875 -3.975 0.075
16.875 -3.975 -0.975
16.875 -3.975 -0.075
16.425 -2.325 0.525
16.425 -2.325 0.825
16.425 -2.325 1.125
16.425 -2.325 0.225
15.825 -3.975 -0.225
15.825 -3.975 0.525
15.825 -3.975 0.225
15.825 -3.975 0.675
15.825 -3.975 -0.825
15.825 -3.975 0.075
16.275 -2.325 -0.525
16.275 -2.325 1.425
16.275 -2.325 0.375
16.275 -2.325 -0.675
15.675 -2.625 -0.525
15.675 -2.625 -0.075
16.575 -4.125 -0.675
16.875 -2.475 -0.225
16.875 -2.475 -0.675
16.125 -4.125 -0.525
16.125 -4.125 -0.675
16.125 -4.125 -1.575
16.575 -2.325 0.525
16.575 -2.325 -0.075
16.575 -2.325 -0.225
16.575 -2.325 -1.125
16.125 -2.325 -0.975
17.175 -2.775 0.675
17.175 -2.775 0.225
17.175 -2.775 -0.225
17.175 -2.775 -0.825
15.525 -3.675 -0.075
15.525 -3.675 0.075
15.525 -2.775 -0.525
15.525 -2.775 0.375
15.975 -4.125 0.225
15.975 -4.125 -1.125
15.975 -4.125 -0.225
15.975 -4.125 -0.075
15.975 -4.125 -0.375
15.975 -4.125 -0.825
15.375 -3.225 -1.425
16.725 -2.325 -0.825
16.725 -2.325 0.675
16.725 -2.325 -0.975
17.325 -3.075 -0.825
17.325 -3.075 -0.675
15.975 -2.325 -0.225
15.975 -2.325 0.375
15.975 -2.325 0.075
15.375 -3.375 0.225
15.375 -3.375 -1.425
15.375 -3.375 0.375
15.375 -3.075 -0.825
17.025 -3.975 0.825
15.675 -3.975 0.075
15.675 -3.975 -0.075
15.675 -3.975 0.825
17.175 -3.825 -0.825
17.025 -2.475 -0.675
17.025 -2.475 0.225
17.025 -2.475 -0.525
15.675 -2.475 -0.525
15.525 -3.825 0.075
15.525 -3.825 -1.125
17.175 -2.625 -0.375
17.175 -2.625 -0.825
17.175 -2.625 0.675
15.375 -3.525 -0.975
15.375 -2.925 -0.525
15.375 -2.925 -0.375
15.525 -2.625 -0.675
15.825 -4.125 0.225
15.825 -4.125 0.675
16.425 -4.275 -0.525
16.275 -4.275 0.075
16.875 -2.325 0.375
16.425 -2.175 0.525
16.425 -2.175 1.425
16.425 -2.175 0.975
16.425 -2.175 0.225
16.425 -2.175 1.125
16.275 -2.175 1.425
16.275 -2.175 0.375
16.275 -2.175 -0.375
16.575 -4.275 -0.675
16.575 -4.275 -0.825
16.575 -4.275 0.075
16.575 -4.275 -0.375
16.125 -4.275 -0.525
16.125 -4.275 0.225
16.575 -2.175 0.975
16.575 -2.175 -0.825
16.575 -2.175 -1.125
16.575 -2.175 0.525
15.375 -2.775 -0.375
16.125 -2.175 0.375
16.125 -2.175 0.225
16.725 -4.275 -0.675
16.725 -4.275 -0.525
16.725 -4.275 2.175
17.175 -3.975 -0.375
15.975 -4.275 -0.075
15.975 -4.275 -0.825
15.975 -4.275 -0.525
15.525 -3.975 -0.075
15.525 -3.975 0.375
15.525 -3.975 -0.975
15.525 -3.975 0.675
15.525 -3.975 0.075
17.175 -2.475 -1.275
17.175 -2.475 -0.525
16.725 -2.175 -0.975
16.725 -2.175 -0.375
15.675 -4.125 -0.825
15.675 -4.125 0.075
15.675 -4.125 0.675
15.675 -4.125 0.525
15.525 -2.475 -0.525
15.975 -2.175 -0.525
15.975 -2.175 0.225
15.975 -2.175 1.575
17.025 -2.325 -0.975
17.325 -3.825 -0.525
15.225 -3.375 0.975
15.225 -3.375 0.525
15.375 -3.825 1.425
15.375 -3.825 -1.575
17.325 -2.625 -0.375
17.325 -2.625 -0.525
17.325 -2.625 -0.675
15.375 -2.625 -0.825
17.475 -3.525 -0.375
16.875 -4.275 -0.525
16.875 -4.275 -0.675
15.825 -4.275 -0.225
15.825 -4.275 0.225
15.225 -2.925 -0.225
16.875 -2.175 -0.825
16.875 -2.175 -0.975
16.875 -2.175 -0.675
15.825 -2.175 1.575
15.825 -2.175 -0.075
16.275 -4.425 -0.525
16.275 -4.425 -0.825
17.475 -2.775 0.075
16.425 -2.025 -0.225
16.425 -2.025 1.575
16.425 -2.025 0.675
16.425 -2.025 0.525
16.275 -2.025 -0.375
15.225 -3.675 -1.575
16.125 -4.425 -0.225
15.525 -4.125 0.075
15.525 -4.125 1.125
15.525 -4.125 0.225
15.525 -4.125 -0.975
15.225 -2.775 -0.675
15.225 -2.775 -0.825
17.325 -3.975 0.075
16.575 -2.025 0.225
16.575 -2.025 -0.375
16.575 -2.025 0.525
16.575 -2.025 0.975
15.375 -3.975 1.275
16.125 -2.025 0.525
16.125 -2.025 -0.525
16.125 -2.025 -0.225
16.125 -2.025 0.225
17.325 -2.475 0.375
17.325 -2.475 -0.675
15.675 -4.275 0.075
15.675 -4.275 0.825
15.675 -4.275 0.225
15.975 -4.425 -0.375
17.025 -2.175 1.425
16.725 -2.025 2.775
17.475 -3.825 1.125
15.975 -2.025 -0.075
15.975 -2.025 0.225
15.975 -2.025 0.075
17.475 -2.625 -0.225
15.225 -2.625 -0.375
15.225 -2.625 -0.525
15.225 -2.625 -0.975
16.875 -4.425 -0.675
15.825 -4.425 -0.675
15.825 -4.425 -0.075
15.825 -2.025 -0.075
15.825 -2.025 0.675
15.825 -2.025 -0.525
15.375 -4.125 0.375
17.325 -2.325 -0.075
15.525 -4.275 0.675
15.525 -4.275 0.375
15.525 -4.275 -0.225
15.525 -4.275 -0.825
15.525 -4.275 0.225
15.525 -4.275 0.075
15.375 -2.325 -0.825
15.375 -2.325 -0.525
17.175 -2.175 -0.975
16.425 -4.575 -0.975
16.275 -4.575 -0.975
15.525 -2.175 0.075
15.225 -3.975 0.375
15.225 -3.975 2.475
17.475 -2.475 0.375
17.475 -2.475 -2.925
16.575 -4.575 -1.275
15.075 -2.775 -0.225
15.075 -2.775 -0.675
16.425 -1.875 -0.225
16.425 -1.875 0.525
16.425 -1.875 1.575
16.275 -1.875 0.525
15.225 -2.475 -0.525
15.225 -2.475 -0.675
16.125 -4.575 -0.825
16.125 -4.575 -0.675
16.125 -4.575 0.225
17.025 -4.425 -0.375
15.675 -4.425 0.225
16.575 -1.875 0.225
16.575 -1.875 0.525
16.575 -1.875 1.125
16.575 -1.875 1.575
16.575 -1.875 0.675
16.575 -1.875 0.975
16.575 -1.875 -0.525
16.125 -1.875 1.425
16.125 -1.875 0.375
16.125 -1.875 -0.375
15.675 -2.025 -0.675
15.675 -2.025 0.375
15.675 -2.025 -0.525
15.675 -2.025 -0.075
15.675 -2.025 0.075
16.725 -4.575 -0.225
16.725 -4.575 -0.375
15.975 -4.575 -0.825
15.975 -4.575 -0.375
16.725 -1.875 -0.375
16.725 -1.875 0.975
16.725 -1.875 0.525
17.625 -2.625 -0.525
15.075 -3.825 0.075
15.975 -1.875 -0.225
15.975 -1.875 -0.075
15.975 -1.875 0.375
15.375 -4.275 0.525
15.375 -4.275 0.375
15.375 -4.275 -0.825
15.375 -4.275 -0.225
17.475 -4.125 1.125
14.925 -3.375 -0.825
16.875 -4.575 0.075
15.225 -4.125 0.375
15.225 -4.125 0.525
17.475 -2.325 -0.375
17.475 -2.325 -0.825
15.375 -2.175 -0.975
15.225 -2.325 -0.375
15.525 -4.425 0.675
15.525 -4.425 0.825
15.525 -4.425 0.225
15.525 -4.425 0.975
15.825 -1.875 -0.075
15.825 -1.875 -0.825
15.825 -1.875 -0.525
14.925 -3.525 -0.675
17.175 -2.025 -0.825
17.175 -2.025 1.425
15.525 -2.025 0.375
15.525 -2.025 -0.675
17.625 -3.975 -0.525
16.425 -4.725 1.425
16.275 -4.725 0.075
16.275 -4.725 -0.375
17.025 -4.575 -0.375
15.675 -4.575 0.225
15.675 -4.575 -0.525
15.675 -4.575 1.275
15.675 -4.575 -0.225
16.425 -1.725 0.525
16.425 -1.725 -0.525
16.425 -1.725 -0.375
16.275 -1.725 -0.225
16.275 -1.725 0.525
17.025 -1.875 1.875
15.675 -1.875 1.425
15.675 -1.875 0.225
16.575 -1.725 -0.975
16.575 -1.725 0.525
16.575 -1.725 -0.525
16.575 -1.725 1.575
16.575 -1.725 -0.675
16.575 -1.725 1.275
16.125 -1.725 0.375
16.125 -1.725 -0.375
16.125 -1.725 -0.225
17.325 -4.425 1.125
17.325 -4.425 0.975
16.725 -4.725 -0.975
16.725 -4.725 -0.375
15.225 -4.275 0.525
15.225 -4.275 1.275
15.975 -4.725 -0.675
15.975 -4.725 -0.375
17.475 -2.175 -0.525
15.225 -2.175 -0.225
17.625 -4.125 -0.375
16.725 -1.725 -0.225
16.725 -1.725 1.125
16.725 -1.725 -0.675
16.725 -1.725 0.975
14.925 -2.625 -0.375
15.975 -1.725 -0.075
15.975 -1.725 0.525
15.975 -1.725 -0.825
15.975 -1.725 -0.375
15.075 -4.125 0.675
15.075 -2.325 -0.525
15.525 -4.575 0.225
15.525 -4.575 0.375
15.525 -4.575 0.675
16.875 -4.725 -0.975
14.775 -3.225 -0.825
15.825 -4.725 -0.225
17.175 -1.875 -0.825
15.525 -1.875 -0.075
15.525 -1.875 0.075
16.875 -1.725 -0.225
15.825 -1.725 -0.675
15.825 -1.725 1.125
17.025 -4.725 -0.075
17.475 -4.425 0.675
17.925 -2.775 0.825
15.675 -4.725 -0.075
15.675 -4.725 -0.225
15.225 -4.425 0.525
15.225 -4.425 0.375
15.075 -4.275 0.525
17.025 -1.725 0.525
17.625 -2.175 -0.525
15.225 -2.025 -0.225
15.675 -1.725 1.425
15.675 -1.725 -0.675
15.675 -1.725 0.075
16.575 -4.875 -0.825
16.125 -4.875 0.075
16.425 -1.575 -0.375
16.425 -1.575 -0.525
16.425 -1.575 -0.675
16.425 -1.575 -0.225
16.425 -1.575 0.525
16.275 -1.575 0.525
16.275 -1.575 -0.525
15.075 -2.175 -0.525
15.375 -4.575 0.375
15.375 -4.575 0.825
15.375 -4.575 -0.675
17.325 -1.875 -0.975
16.575 -1.575 -0.375
16.575 -1.575 0.525
16.575 -1.575 -0.075
16.575 -1.575 0.675
16.575 -1.575 1.575
16.125 -1.575 -0.825
16.125 -1.575 0.375
16.125 -1.575 0.525
17.925 -2.625 -0.975
15.975 -4.875 -0.075
15.975 -4.875 -0.225
17.775 -2.325 -0.525
14.775 -3.825 -1.125
16.725 -1.575 0.225
16.725 -1.575 -0.375
16.725 -1.575 0.975
16.725 -1.575 0.675
16.725 -1.575 1.575
15.975 -1.575 -0.975
15.975 -1.575 -0.225
15.525 -4.725 0.225
15.525 -4.725 0.375
17.175 -1.725 -2.175
17.175 -1.725 -0.975
15.525 -1.725 0.525
16.875 -4.875 -0.225
15.825 -4.875 -0.225
15.825 -4.875 -0.375
16.875 -1.575 -0.225
16.875 -1.575 -0.525
16.875 -1.575 0.675
16.875 -1.575 -1.125
15.825 -1.575 -0.375
15.825 -1.575 -0.675
17.925 -2.475 -0.225
17.475 -4.575 1.575
14.775 -2.475 -0.375
15.225 -4.575 0.525
15.225 -4.575 -0.975
15.225 -4.575 0.675
15.225 -4.575 1.425
17.775 -2.175 1.125
17.025 -4.875 0.525
17.025 -4.875 -0.525
15.675 -4.875 0.075
14.925 -2.175 -0.525
17.325 -4.725 -1.125
15.375 -4.725 0.825
15.375 -4.725 0.375
14.625 -3.675 0.825
14.625 -3.675 -0.675
17.025 -1.575 -0.525
17.025 -1.575 -0.375
15.675 -1.575 0.075
15.675 -1.575 -0.675
16.425 -5.025 -0.225
16.425 -5.025 -0.375
16.275 -5.025 -0.675
17.325 -1.725 -0.825
15.375 -1.725 -0.825
16.575 -5.025 0.075
16.575 -5.025 -0.525
16.125 -5.025 -0.225
16.125 -5.025 -0.525
16.425 -1.425 -0.525
16.425 -1.425 0.525
16.425 -1.425 -0.675
16.425 -1.425 -0.375
16.425 -1.425 0.675
16.275 -1.425 0.375
16.275 -1.425 -0.675
16.275 -1.425 -1.125
16.575 -1.425 0.675
16.575 -1.425 -0.375
16.575 -1.425 0.075
16.575 -1.425 -0.975
14.775 -2.325 -0.675
16.125 -1.425 -0.075
16.125 -1.425 -0.375
16.125 -1.425 0.525
16.125 -1.425 -0.225
14.625 -2.625 -0.225
17.175 -4.875 -1.125
15.525 -4.875 0.375
16.725 -1.425 0.675
16.725 -1.425 1.425
16.725 -1.425 -0.525
16.725 -1.425 1.725
16.725 -1.425 -0.225
16.725 -1.425 0.225
16.725 -1.425 -0.075
16.725 -1.425 0.975
15.975 -1.425 -0.525
17.175 -1.575 -0.375
17.175 -1.575 0.975
15.075 -4.575 1.425
15.075 -4.575 1.875
15.075 -4.575 0.675
14.925 -4.425 0.825
17.775 -2.025 -0.825
15.075 -1.875 -0.525
15.825 -5.025 -0.525
15.225 -4.725 -0.825
15.225 -4.725 0.525
15.225 -4.725 0.675
17.475 -1.725 -0.825
16.875 -1.425 1.125
16.875 -1.425 -0.525
16.875 -1.425 -0.225
15.225 -1.725 -0.525
15.375 -4.875 0.375
15.375 -4.875 -0.225
15.375 -4.875 -0.525
17.025 -5.025 -0.375
17.325 -1.575 -0.225
17.325 -1.575 0.975
15.375 -1.575 4.875
15.375 -1.575 0.075
17.025 -1.425 -0.525
17.025 -1.425 -0.375
16.425 -5.175 0.225
16.275 -5.175 -0.075
16.275 -5.175 -0.225
17.775 -4.575 -0.075
16.575 -5.175 -0.525
14.625 -2.325 2.475
16.125 -5.175 -0.225
16.425 -1.275 -0.375
16.425 -1.275 -0.675
16.425 -1.275 -0.525
16.275 -1.275 0.525
14.925 -4.575 0.675
15.075 -4.725 1.425
15.075 -4.725 1.275
15.075 -4.725 0.525
16.575 -1.275 0.675
16.575 -1.275 1.725
16.575 -1.275 -0.375
16.575 -1.275 -1.425
16.125 -1.275 -0.525
16.125 -1.275 0.525
16.125 -1.275 -0.225
15.525 -5.025 0.075
15.525 -5.025 -0.525
16.725 -5.175 0.525
15.975 -5.175 -0.675
15.975 -5.175 -0.225
17.175 -1.425 0.525
17.175 -1.425 -0.525
14.775 -2.025 -0.525
15.525 -1.425 -0.675
15.525 -1.425 -0.375
15.525 -1.425 0.825
15.225 -4.875 1.125
15.225 -4.875 0.675
15.225 -4.875 0.525
15.225 -4.875 1.275
16.725 -1.275 -0.225
16.725 -1.275 1.275
16.725 -1.275 0.675
16.725 -1.275 -0.525
15.975 -1.275 0.675
17.475 -1.575 -0.525
17.475 -1.575 -0.375
17.475 -1.575 0.075
17.475 -1.575 -0.825
16.875 -5.175 0.375
15.825 -5.175 -0.075
16.875 -1.275 0.975
16.875 -1.275 -0.525
16.875 -1.275 -0.825
16.875 -1.275 -0.375
16.875 -1.275 1.125
16.875 -1.275 0.675
16.875 -1.275 0.375
14.625 -2.175 -0.225
15.825 -1.275 -0.375
15.825 -1.275 -1.575
15.825 -1.275 -0.225
15.375 -5.025 -0.375
14.325 -3.525 1.875
17.325 -1.425 -0.525
17.325 -1.425 -0.375
14.925 -4.725 -0.225
14.925 -4.725 -0.675
14.925 -4.725 1.725
14.925 -4.725 0.675
17.025 -1.275 -0.825
17.025 -1.275 -0.075
17.025 -1.275 -0.525
14.775 -4.575 0.825
14.775 -4.575 0.675
17.625 -4.875 0.375
17.925 -1.875 -0.375
15.075 -4.875 -0.225
15.075 -4.875 0.675
15.075 -4.875 1.425
16.425 -5.325 0.075
15.075 -1.575 -0.525
15.075 -1.575 -0.675
14.625 -4.425 0.825
16.575 -5.325 -0.525
16.125 -5.325 -0.375
17.175 -5.175 5.625
16.425 -1.125 0.525
16.425 -1.125 -0.375
16.275 -1.125 0.525
16.275 -1.125 -0.825
16.275 -1.125 -1.575
15.525 -5.175 -0.075
15.525 -5.175 -0.825
15.225 -5.025 0.075
15.225 -5.025 0.675
15.225 -5.025 1.125
15.225 -5.025 1.275
15.225 -5.025 0.975
15.225 -5.025 -0.225
15.225 -5.025 0.525
16.575 -1.125 -0.825
16.575 -1.125 -0.225
16.575 -1.125 -0.375
16.575 -1.125 0.225
16.575 -1.125 0.675
16.575 -1.125 0.075
16.125 -1.125 -0.375
16.125 -1.125 -0.675
17.175 -1.275 -0.375
17.175 -1.275 -0.675
17.475 -1.425 0.525
16.725 -1.125 1.575
16.725 -1.125 -0.525
16.725 -1.125 0.825
16.725 -1.125 1.425
16.725 -1.125 -1.125
16.725 -1.125 1.725
16.725 -1.125 0.675
15.975 -1.125 -0.075
15.825 -5.325 1.875
16.875 -1.125 1.425
16.875 -1.125 1.125
16.875 -1.125 0.675
14.775 -4.725 0.825
14.775 -4.725 0.675
15.825 -1.125 -0.675
15.375 -5.175 -0.225
14.925 -4.875 0.525
14.925 -4.875 -0.225
14.925 -4.875 -0.375
14.925 -4.875 1.725
14.775 -1.725 -0.525
14.175 -3.375 0.075
17.325 -1.275 0.975
17.325 -1.275 -0.075
15.075 -5.025 0.675
15.075 -5.025 1.275
15.075 -5.025 -0.075
15.075 -5.025 -0.375
17.625 -1.425 -0.825
17.625 -1.425 0.075
17.025 -1.125 -0.225
17.025 -1.125 0.075
17.025 -1.125 -0.375
15.675 -1.125 0.225
16.425 -5.475 -0.525
16.425 -5.475 -0.225
16.275 -5.475 -0.525
15.225 -5.175 0.675
15.225 -5.175 -0.375
15.225 -5.175 -0.525
15.225 -5.175 0.225
18.525 -3.825 -3.975
15.525 -5.325 2.625
16.575 -5.475 -0.675
16.125 -5.475 -0.225
17.475 -1.275 0.375
17.475 -1.275 1.875
16.425 -0.975 -0.225
16.425 -0.975 -0.675
16.425 -0.975 -1.425
16.275 -0.975 -0.825
16.275 -0.975 -0.225
16.275 -0.975 0.675
16.275 -0.975 0.525
15.525 -1.125 -0.825
16.575 -0.975 -0.375
16.575 -0.975 -0.975
16.575 -0.975 0.975
16.575 -0.975 0.675
16.575 -0.975 -0.675
16.725 -5.475 0.225
15.975 -5.475 -3.225
15.975 -5.475 -0.375
14.775 -4.875 0.675
14.775 -4.875 -0.525
16.725 -0.975 0.675
16.725 -0.975 -0.225
16.725 -0.975 -0.825
16.725 -0.975 1.725
15.975 -0.975 -0.525
14.925 -5.025 0.825
14.925 -5.025 1.575
17.775 -1.425 -0.975
17.775 -1.425 -0.225
16.875 -5.475 0.675
15.825 -5.475 -0.375
16.875 -0.975 1.125
16.875 -0.975 2.175
16.875 -0.975 0.675
16.875 -0.975 0.375
14.475 -1.875 -0.375
15.825 -0.975 -0.225
15.825 -0.975 -0.525
15.375 -1.125 -0.675
15.075 -5.175 1.275
15.075 -5.175 -0.225
15.075 -5.175 1.125
15.075 -5.175 0.675
17.625 -1.275 0.225
17.625 -1.275 -0.525
17.025 -0.975 -0.375
17.025 -0.975 -0.525
15.675 -0.975 1.125
15.675 -0.975 -0.675
14.025 -3.675 1.725
15.225 -5.325 0.675
15.225 -5.325 0.375
15.225 -5.325 -0.675
14.625 -4.875 0.825
17.475 -1.125 0.075
14.775 -5.025 0.675
15.525 -5.475 2.625
16.425 -5.625 -0.075
16.425 -5.625 0.975
16.275 -5.625 2.475
16.275 -5.625 0.525
17.925 -1.425 -0.525
14.775 -1.425 -0.375
16.125 -5.625 0.525
16.125 -5.625 0.375
17.175 -0.975 -0.525
17.175 -0.975 -0.675
16.425 -0.825 -0.825
16.425 -0.825 -0.225
16.425 -0.825 0.225
16.425 -0.825 0.675
16.425 -0.825 0.525
16.275 -0.825 -0.675
16.275 -0.825 -0.075
16.275 -0.825 0.675
14.925 -5.175 0.675
14.925 -5.175 -0.525
16.575 -0.825 -0.525
16.575 -0.825 0.675
16.575 -0.825 0.225
16.125 -0.825 -0.825
16.125 -0.825 -0.675
16.725 -0.825 -0.225
16.725 -0.825 0.675
16.725 -0.825 1.875
15.975 -0.825 -0.075
15.975 -0.825 0.225
15.375 -5.475 -0.375
15.375 -5.475 0.525
15.375 -5.475 0.225
15.825 -5.625 -0.375
15.825 -5.625 -1.125
15.075 -5.325 0.075
15.075 -5.325 0.675
17.325 -0.975 -0.675
17.625 -1.125 2.025
15.375 -0.975 0.375
16.875 -0.825 -0.675
16.875 -0.825 1.725
16.875 -0.825 1.425
16.875 -0.825 0.375
16.875 -0.825 1.125
16.875 -0.825 0.825
15.825 -0.825 0.075
15.075 -1.125 0.525
14.625 -5.025 0.675
14.625 -5.025 -0.075
18.075 -1.425 -0.225
14.475 -4.875 2.025
17.025 -0.825 -0.825
17.025 -0.825 -0.375
17.025 -0.825 0.675
17.025 -0.825 -1.425
15.675 -0.825 -0.075
14.775 -5.175 -0.675
14.775 -5.175 0.825
14.775 -5.175 -0.075
14.475 -1.575 -0.225
17.925 -1.275 -0.675
17.925 -1.275 -0.375
15.225 -5.475 1.275
15.225 -5.475 0.075
14.775 -1.275 -0.075
17.475 -0.975 -0.375
17.475 -0.975 -0.075
15.525 -5.625 -0.375
15.525 -5.625 1.125
14.925 -5.325 -0.225
14.925 -5.325 0.825
17.775 -1.125 -0.525
17.775 -1.125 0.075
17.775 -1.125 0.675
16.425 -5.775 0.225
16.275 -5.775 -0.525
16.275 -5.775 0.225
16.275 -5.775 -0.825
16.275 -5.775 0.975
16.275 -5.775 0.375
17.175 -0.825 -0.525
15.525 -0.825 -0.225
16.575 -5.775 -0.075
16.125 -5.775 0.675
16.125 -5.775 -0.825
16.425 -0.675 0.525
16.425 -0.675 0.225
16.275 -0.675 0.525
16.275 -0.675 0.675
16.575 -0.675 0.075
16.575 -0.675 0.675
16.575 -0.675 -0.225
15.975 -5.775 0.225
15.075 -5.475 0.825
15.075 -5.475 0.075
15.075 -5.475 2.625
15.075 -5.475 0.525
15.075 -5.475 -0.225
15.075 -5.475 0.375
15.375 -5.625 -0.375
16.725 -0.675 -0.375
16.725 -0.675 0.675
16.725 -0.675 -0.075
16.725 -0.675 -1.575
16.725 -0.675 1.575
15.975 -0.675 0.075
17.625 -0.975 -0.375
15.075 -0.975 0.075
14.475 -5.025 0.825
14.625 -5.175 0.675
14.625 -5.175 0.825
14.625 -5.175 -0.825
18.075 -1.275 0.075
14.325 -4.875 0.375
16.875 -0.675 0.675
16.875 -0.675 -0.525
16.875 -0.675 -0.225
16.875 -0.675 -0.075
16.875 -0.675 0.825
16.875 -0.675 1.425
16.875 -0.675 1.725
14.775 -5.325 -0.525
14.775 -5.325 0.975
14.775 -5.325 1.125
14.775 -5.325 0.675
14.775 -5.325 0.525
14.775 -5.325 1.275
14.325 -1.575 -0.225
15.675 -5.775 -0.375
15.675 -5.775 2.925
15.675 -5.775 1.875
17.025 -0.675 1.275
17.025 -0.675 0.375
17.025 -0.675 -0.375
17.025 -0.675 1.125
17.025 -0.675 -0.525
17.025 -0.675 0.675
17.025 -0.675 0.825
15.225 -5.625 2.325
15.225 -5.625 -0.225
15.675 -0.675 -0.075
15.675 -0.675 -0.225
17.475 -0.825 -0.975
17.475 -0.825 -0.525
14.925 -5.475 -0.525
14.925 -5.475 -0.075
14.925 -5.475 -0.675
15.225 -0.825 0.975
14.925 -0.975 -0.825
15.525 -5.775 2.625
15.525 -5.775 2.025
15.525 -5.775 2.325
16.425 -5.925 1.275
16.275 -5.925 0.375
16.275 -5.925 -0.825
16.575 -5.925 -0.525
16.125 -5.925 2.625
14.475 -5.175 -0.525
14.475 -5.175 0.825
14.475 -5.175 0.675
14.475 -5.175 1.875
14.325 -5.025 0.825
16.425 -0.525 0.225
16.425 -0.525 0.675
16.275 -0.525 -0.525
16.275 -0.525 0.525
15.075 -5.625 -0.225
14.625 -5.325 -1.425
14.625 -5.325 1.725
14.625 -5.325 1.575
14.625 -5.325 -0.075
14.625 -5.325 0.825
16.575 -0.525 -0.225
16.575 -0.525 -0.075
16.575 -0.525 0.675
15.975 -5.925 0.975
17.325 -5.775 -0.975
18.525 -4.875 -3.225
17.625 -0.825 -0.975
17.625 -0.825 -0.675
17.625 -0.825 0.375
17.625 -0.825 1.575
15.375 -5.775 2.325
15.375 -5.775 0.375
18.975 -2.475 -0.075
16.725 -0.525 -0.225
16.725 -0.525 -0.075
16.725 -0.525 -0.375
15.975 -0.525 -0.225
17.325 -0.675 -1.125
17.325 -0.675 -0.225
15.375 -0.675 -0.525
14.775 -5.475 0.825
14.775 -5.475 1.425
15.825 -5.925 -2.025
17.925 -0.975 -0.975
17.925 -0.975 0.225
16.875 -0.525 -0.375
16.875 -0.525 1.725
16.875 -0.525 -0.975
16.875 -0.525 0.675
15.675 -5.925 0.375
13.725 -4.125 2.475
15.225 -5.775 -0.225
15.225 -5.775 0.375
15.225 -5.775 4.725
14.925 -5.625 -0.075
14.925 -5.625 0.525
17.025 -0.525 1.425
17.025 -0.525 1.875
17.025 -0.525 1.125
17.025 -0.525 -0.375
17.475 -0.675 0.225
17.475 -0.675 0.975
17.475 -0.675 -0.225
17.775 -0.825 0.075
14.475 -5.325 1.575
14.475 -5.325 0.825
14.475 -5.325 0.675
14.475 -5.325 1.875
15.525 -5.925 -0.525
15.525 -5.925 4.275
15.525 -5.925 1.875
13.575 -2.775 1.125
14.175 -5.025 -0.675
14.475 -1.125 -0.375
17.175 -0.525 1.275
17.175 -0.525 0.225
14.625 -5.475 0.225
14.625 -5.475 1.425
14.625 -5.475 3.675
14.625 -5.475 0.825
14.625 -5.475 -0.225
18.075 -0.975 -0.375
18.075 -0.975 0.075
18.075 -0.975 -0.075
16.425 -6.075 -0.375
16.425 -6.075 0.825
16.425 -6.075 0.375
16.275 -6.075 0.225
16.275 -6.075 1.575
15.075 -5.775 -0.075
15.075 -5.775 -0.375
15.075 -5.775 4.725
16.575 -6.075 -0.525
14.025 -4.875 -0.075
16.125 -6.075 1.725
16.125 -6.075 1.125
17.625 -0.675 -0.525
16.425 -0.375 -0.075
16.425 -0.375 -0.525
16.425 -0.375 0.975
16.425 -0.375 0.675
16.425 -0.375 0.075
16.275 -0.375 0.825
16.275 -0.375 -0.525
15.375 -5.925 -0.525
15.375 -5.925 0.375
15.375 -5.925 -0.225
16.725 -6.075 0.375
14.775 -5.625 -0.975
14.775 -5.625 0.825
15.975 -6.075 0.975
15.975 -6.075 -0.825
16.575 -0.375 0.675
16.575 -0.375 0.225
16.125 -0.375 0.075
17.325 -0.525 -0.075
15.375 -0.525 -0.225
16.725 -0.375 0.675
16.725 -0.375 -0.075
16.725 -0.375 -0.225
13.725 -4.425 4.725
15.825 -6.075 1.275
15.825 -6.075 1.425
15.825 -6.075 1.125
16.875 -0.375 -0.225
16.875 -0.375 0.225
16.875 -0.375 0.675
16.875 -0.375 2.325
14.325 -5.325 -0.375
14.325 -5.325 1.875
14.325 -5.325 0.675
19.125 -2.325 0.075
15.225 -5.925 0.225
14.175 -5.175 0.825
15.675 -6.075 3.675
15.675 -6.075 1.275
15.675 -6.075 2.175
15.675 -6.075 2.475
14.475 -5.475 0.825
14.475 -5.475 1.425
14.475 -5.475 1.575
14.475 -5.475 0.375
17.775 -0.675 -0.825
17.025 -0.375 1.725
17.025 -0.375 -0.375
17.025 -0.375 0.825
17.025 -0.375 -0.525
14.475 -0.975 -0.375
14.625 -5.625 -0.375
14.625 -5.625 1.275
14.625 -5.625 0.825
15.525 -6.075 4.725
15.525 -6.075 2.475
15.525 -6.075 0.825
19.125 -2.175 0.525
14.625 -0.825 -0.225
17.175 -0.375 0.825
17.175 -0.375 0.225
17.175 -0.375 -0.525
17.175 -0.375 0.075
17.175 -0.375 0.375
13.875 -4.875 1.125
15.525 -0.375 -1.125
15.525 -0.375 1.575
15.075 -5.925 4.575
17.625 -0.525 -0.375
17.625 -0.525 -0.075
16.425 -6.225 -0.975
16.425 -6.225 0.225
16.275 -6.225 -0.375
16.275 -6.225 2.325
16.275 -6.225 0.375
16.275 -6.225 0.825
14.775 -5.775 0.375
14.775 -5.775 -0.225
16.125 -6.225 0.375
16.125 -6.225 2.475
16.125 -6.225 0.975
17.925 -0.675 -0.375
15.375 -6.075 3.825
15.375 -6.075 3.975
16.425 -0.225 -0.525
16.425 -0.225 0.525
16.425 -0.225 0.675
16.725 -6.225 0.225
15.975 -6.225 1.575
15.975 -6.225 2.925
16.575 -0.225 0.675
16.575 -0.225 -0.075
16.125 -0.225 -0.075
16.125 -0.225 -0.675
17.325 -0.375 -0.825
17.325 -0.375 -0.375
17.325 -0.375 -0.225
14.175 -5.325 0.525
14.175 -5.325 0.825
14.175 -5.325 0.075
14.325 -5.475 0.675
14.325 -5.475 0.825
14.325 -5.475 1.425
18.375 -0.975 -0.525
16.725 -0.225 -0.675
16.725 -0.225 0.825
16.725 -0.225 -0.825
16.725 -0.225 -0.225
16.725 -0.225 0.675
16.725 -0.225 -0.075
15.975 -0.225 -0.225
14.025 -5.175 0.975
16.875 -6.225 0.525
15.825 -6.225 -1.425
15.825 -6.225 2.775
15.825 -6.225 0.675
14.475 -5.625 0.975
14.475 -5.625 1.425
14.475 -5.625 1.275
14.475 -5.625 0.825
18.225 -0.825 3.525
16.875 -0.225 -0.225
16.875 -0.225 -1.575
16.875 -0.225 0.675
16.875 -0.225 -0.525
16.875 -0.225 -0.375
15.825 -0.225 0.375
15.825 -0.225 -0.525
14.475 -0.825 -0.525
15.225 -6.075 -0.525
15.225 -6.075 2.625
17.775 -0.525 -0.675
17.775 -0.525 -0.225
17.775 -0.525 -0.525
17.775 -0.525 -0.375
14.925 -0.525 -0.075
15.675 -6.225 0.975
15.675 -6.225 0.375
15.675 -6.225 3.975
15.675 -6.225 1.425
15.675 -6.225 1.275
15.675 -6.225 3.675
17.475 -0.375 -0.375
17.475 -0.375 -0.525
17.475 -0.375 -0.225
14.625 -5.775 0.525
14.625 -5.775 0.825
17.025 -0.225 -0.975
17.025 -0.225 -0.675
17.025 -0.225 0.825
17.025 -0.225 -0.375
17.025 -0.225 -1.425
18.075 -0.675 -0.375
18.075 -0.675 -0.225
18.975 -1.575 -0.525
19.425 -2.775 3.675
15.525 -6.225 3.975
15.075 -6.075 -0.525
15.075 -6.075 -0.375
17.175 -0.225 -0.375
17.175 -0.225 1.125
17.175 -0.225 -0.525
17.175 -0.225 1.425
17.175 -0.225 0.825
14.775 -5.925 0.225
14.175 -5.475 0.675
14.175 -5.475 0.825
14.175 -5.475 0.225
17.625 -0.375 -0.975
17.625 -0.375 -0.375
17.925 -0.525 -0.525
14.325 -5.625 1.575
14.325 -5.625 0.975
14.325 -5.625 0.525
14.325 -5.625 -0.375
14.325 -5.625 0.825
16.425 -6.375 0.675
16.425 -6.375 0.825
16.275 -6.375 0.825
18.375 -0.825 -0.525
16.575 -6.375 0.225
16.125 -6.375 0.825
16.125 -6.375 0.675
16.425 -0.075 -0.675
16.425 -0.075 0.225
16.425 -0.075 0.675
16.425 -0.075 -0.525
16.275 -0.075 -0.075
16.275 -0.075 0.075
16.275 -0.075 0.225
17.325 -0.225 0.075
14.475 -5.775 0.525
14.475 -5.775 -0.975
14.475 -5.775 0.825
16.725 -6.375 0.825
15.975 -6.375 0.825
15.975 -6.375 3.975
15.975 -6.375 1.875
15.975 -6.375 0.975
16.575 -0.075 -0.075
16.575 -0.075 0.675
16.575 -0.075 -0.225
16.125 -0.075 -0.375
16.725 -0.075 -0.375
16.725 -0.075 -0.225
16.725 -0.075 0.675
13.725 -5.025 1.875
16.875 -6.375 0.525
15.825 -6.375 0.975
15.825 -6.375 1.425
15.825 -6.375 1.125
17.775 -0.375 -0.825
15.225 -6.225 -0.825
14.625 -5.925 0.075
14.625 -5.925 -0.225
14.625 -5.925 -0.525
16.875 -0.075 -0.375
16.875 -0.075 0.825
16.875 -0.075 -0.825
16.875 -0.075 1.575
15.825 -0.075 1.125
18.075 -0.525 -0.525
18.075 -0.525 -0.675
17.475 -0.225 -0.525
17.475 -0.225 -0.675
15.675 -6.375 -1.125
15.675 -6.375 3.225
15.675 -6.375 0.825
15.675 -6.375 1.425
15.675 -6.375 1.275
15.675 -6.375 4.125
15.675 -6.375 3.375
17.025 -0.075 0.675
17.025 -0.075 -0.075
17.025 -0.075 1.125
14.025 -5.475 0.675
14.175 -5.625 0.825
14.175 -5.625 0.525
14.175 -5.625 -0.075
18.525 -0.825 -0.825
13.875 -5.325 0.525
17.925 -6.075 -0.375
15.525 -6.375 3.525
15.525 -6.375 3.675
14.775 -6.075 -0.075
14.775 -6.075 -0.825
14.775 -6.075 0.225
14.775 -6.075 0.975
14.775 -6.075 -0.525
14.775 -6.075 -0.675
14.775 -6.075 -0.375
14.325 -5.775 -0.225
14.325 -5.775 0.075
14.325 -5.775 0.825
14.325 -5.775 1.275
14.325 -5.775 0.975
14.325 -5.775 1.425
15.075 -6.225 4.425
17.925 -0.375 -0.225
17.925 -0.375 0.075
17.925 -0.375 -0.525
17.925 -0.375 -0.675
17.175 -0.075 1.275
17.175 -0.075 0.375
17.175 -0.075 -0.225
17.175 -0.075 2.775
17.175 -0.075 -0.375
17.175 -0.075 1.575
17.175 -0.075 0.825
17.625 -0.225 -0.675
17.625 -0.225 -0.825
17.625 -0.225 -0.525
17.625 -0.225 -0.225
17.625 -0.225 2.475
14.325 -0.675 0.075
18.225 -5.925 3.375
14.475 -5.925 -0.375
14.475 -5.925 -0.075
16.425 -6.525 1.425
16.425 -6.525 1.125
16.425 -6.525 0.825
16.425 -6.525 0.975
16.425 -6.525 0.525
16.425 -6.525 -0.075
16.425 -6.525 1.275
16.275 -6.525 0.825
16.275 -6.525 0.675
16.275 -6.525 0.525
16.275 -6.525 1.425
16.275 -6.525 0.975
16.275 -6.525 1.275
16.575 -6.525 0.675
16.575 -6.525 1.275
16.575 -6.525 1.125
16.575 -6.525 2.325
16.125 -6.525 1.275
16.125 -6.525 0.975
16.125 -6.525 0.825
17.325 -0.075 -0.375
17.325 -0.075 0.075
17.325 -0.075 0.225
17.325 -0.075 -0.225
17.325 -0.075 0.825
16.425 0.075 0.675
16.725 -6.525 -0.075
16.725 -6.525 0.675
15.975 -6.525 3.975
15.975 -6.525 0.375
15.975 -6.525 0.675
15.975 -6.525 2.925
15.975 -6.525 1.275
15.975 -6.525 1.125
16.575 0.075 -0.225
16.575 0.075 0.675
16.575 0.075 -0.075
14.925 -6.225 -0.075
14.925 -6.225 0.075
17.775 -0.225 -0.675
14.625 -6.075 -0.375
16.875 -6.525 0.525
15.825 -6.525 3.075
15.825 -6.525 1.575
15.825 -6.525 3.225
15.825 -6.525 1.125
18.075 -0.375 -0.825
14.025 -5.625 0.825
14.025 -5.625 2.175
14.025 -5.625 -0.075
14.025 -5.625 0.675
14.175 -5.775 0.825
14.175 -5.775 -0.375
14.175 -5.775 1.425
16.875 0.075 -0.375
15.825 0.075 -0.525
13.125 -4.125 2.025
17.475 -0.075 -0.075
13.725 -5.325 1.275
15.675 -6.525 1.125
18.975 -1.125 0.375
18.375 -5.925 2.175
14.325 -5.925 0.525
14.325 -5.925 0.075
14.325 -5.925 0.975
14.325 -5.925 -0.225
14.325 -5.925 0.225
14.325 -5.925 0.825
17.025 0.075 1.575
17.025 0.075 0.825
15.675 0.075 0.975
18.375 -0.525 -0.225
18.375 -0.525 0.225
19.125 -5.175 -0.975
14.775 -6.225 -0.375
14.775 -6.225 0.075
14.775 -6.225 -0.075
14.775 -6.225 -0.975
13.575 -5.175 1.125
13.575 -5.175 4.875
13.575 -5.175 1.875
15.075 -6.375 5.175
17.925 -0.225 0.075
17.925 -0.225 -0.375
17.925 -0.225 -0.675
13.125 -4.275 1.125
15.525 -6.525 3.825
15.525 -6.525 2.025
18.225 -6.075 3.225
17.625 -0.075 -0.225
14.475 -6.075 -0.675
17.175 0.075 -0.225
17.175 0.075 -0.825
17.175 0.075 0.825
17.175 0.075 1.875
17.175 0.075 -0.075
17.175 0.075 1.575
18.225 -0.375 -2.175
19.275 -5.025 1.425
15.375 -6.525 4.125
16.425 -6.675 1.575
16.425 -6.675 0.975
16.425 -6.675 1.275
16.425 -6.675 2.325
16.425 -6.675 1.875
16.275 -6.675 1.875
16.275 -6.675 0.975
16.275 -6.675 0.825
16.275 -6.675 1.425
16.275 -6.675 -1.125
16.275 -6.675 1.275
13.875 -5.625 -0.075
13.875 -5.625 -0.225
17.325 0.075 0.825
17.325 0.075 1.125
17.325 0.075 1.275
14.025 -5.775 -0.225
14.025 -5.775 0.675
14.025 -5.775 0.975
16.575 -6.675 2.475
16.575 -6.675 1.425
16.575 -6.675 0.525
16.575 -6.675 1.125
16.125 -6.675 1.575
16.125 -6.675 1.125
16.125 -6.675 1.275
14.925 -6.375 3.075
13.725 -5.475 0.375
13.725 -5.475 0.675
13.725 -5.475 -0.675
14.625 -6.225 0.675
14.625 -6.225 -0.375
14.625 -6.225 -0.525
14.625 -6.225 0.075
16.425 0.225 0.375
16.425 0.225 -0.675
16.425 0.225 0.075
15.975 -6.675 3.075
15.975 -6.675 2.175
15.975 -6.675 1.275
15.975 -6.675 0.825
15.975 -6.675 0.975
15.975 -6.675 1.425
15.975 -6.675 1.125
17.775 -0.075 0.075
17.775 -0.075 -0.375
14.175 -5.925 1.425
14.175 -5.925 0.825
14.175 -5.925 1.275
18.075 -0.225 0.225
16.575 0.225 0.675
16.575 0.225 0.825
16.575 0.225 0.525
16.575 0.225 1.125
16.575 0.225 0.375
16.575 0.225 -0.375
16.125 0.225 -0.075
18.525 -0.525 -0.225
13.575 -5.325 -0.075
13.575 -5.325 0.675
15.225 -6.525 4.725
15.225 -6.525 5.175
15.825 -6.675 1.125
15.825 -6.675 0.975
15.825 -6.675 0.825
15.825 -6.675 1.425
15.825 -6.675 1.275
15.825 -6.675 3.075
15.825 -6.675 2.925
15.825 -6.675 3.225
14.325 -6.075 -0.525
17.475 0.075 -0.825
17.475 0.075 0.075
16.875 0.225 -0.075
16.875 0.225 0.825
15.825 0.225 -0.825
15.675 -6.675 1.125
15.675 -6.675 3.225
15.675 -6.675 0.825
15.675 -6.675 2.625
15.675 -6.675 1.425
15.675 -6.675 3.375
13.425 -5.175 -1.275
14.775 -6.375 5.775
14.775 -6.375 -0.375
14.775 -6.375 -0.225
17.025 0.225 0.675
17.025 0.225 -0.375
17.025 0.225 0.825
17.925 -0.075 -0.675
17.925 -0.075 -0.375
17.925 -0.075 0.225
17.925 -0.075 0.525
15.075 -6.525 0.525
13.875 -5.775 0.675
13.875 -5.775 1.875
18.675 -5.925 1.875
17.175 0.225 1.575
17.175 0.225 -0.225
17.175 0.225 1.875
13.725 -5.625 -0.375
13.725 -5.625 0.525
15.525 0.225 0.225
14.025 -5.925 1.275
14.025 -5.925 1.575
14.025 -5.925 -0.375
14.025 -5.925 0.675
14.025 -5.925 0.825
18.525 -6.075 1.275
18.525 -6.075 2.325
14.625 -6.375 -1.275
14.625 -6.375 -0.375
14.625 -6.375 1.875
14.625 -6.375 -1.125
14.925 -6.525 0.225
17.325 0.225 0.075
17.325 0.225 -0.375
17.325 0.225 0.825
17.325 0.225 1.125
17.325 0.225 0.375
17.325 0.225 -0.075
17.325 0.225 -0.225
16.425 -6.825 1.125
16.425 -6.825 0.375
16.425 -6.825 1.425
16.425 -6.825 1.275
16.275 -6.825 -0.225
16.275 -6.825 2.175
16.275 -6.825 2.025
16.275 -6.825 -0.075
18.075 -0.075 -0.975
18.075 -0.075 -0.375
16.575 -6.825 0.975
16.575 -6.825 1.125
16.575 -6.825 0.825
16.575 -6.825 0.225
16.125 -6.825 2.925
16.125 -6.825 2.475
16.125 -6.825 2.775
16.125 -6.825 1.125
16.125 -6.825 1.725
16.125 -6.825 1.275
16.125 -6.825 1.425
16.125 -6.825 3.075
17.775 0.075 0.225
17.775 0.075 -0.525
14.925 0.075 0.525
16.425 0.375 0.825
16.725 -6.825 -0.225
16.725 -6.825 0.225
15.975 -6.825 1.125
15.975 -6.825 2.475
15.975 -6.825 1.875
15.975 -6.825 1.425
15.975 -6.825 3.225
15.975 -6.825 1.275
15.975 -6.825 2.025
16.575 0.375 1.275
14.325 -6.225 -0.375
16.725 0.375 1.725
16.725 0.375 0.825
16.875 -6.825 0.825
15.825 -6.825 0.975
15.825 -6.825 3.225
15.825 -6.825 1.575
15.825 -6.825 1.125
15.825 -6.825 0.825
15.825 -6.825 2.925
15.825 -6.825 4.725
15.825 -6.825 1.425
15.825 -6.825 1.875
15.825 -6.825 1.275
15.825 -6.825 2.325
17.475 0.225 0.075
17.475 0.225 0.375
17.475 0.225 -0.075
12.975 -4.575 1.125
15.225 0.225 -0.225
16.875 0.375 0.075
16.875 0.375 0.675
17.925 -6.525 -3.525
15.825 0.375 -1.425
14.775 -6.525 -0.225
18.825 -5.925 1.125
15.675 -6.825 0.825
15.675 -6.825 1.275
15.675 -6.825 0.975
15.675 -6.825 2.325
15.675 -6.825 1.125
13.725 -5.775 0.525
13.725 -5.775 -0.375
13.725 -5.775 0.825
13.875 -5.925 0.825
13.875 -5.925 0.675
13.875 -5.925 1.725
13.875 -5.925 -0.225
13.875 -5.925 -0.375
14.475 -6.375 5.475
14.475 -6.375 -0.525
17.925 0.075 -1.425
17.925 0.075 -0.375
17.925 0.075 0.075
18.825 -0.525 -0.075
13.575 -5.625 -0.675
13.575 -5.625 0.375
18.675 -6.075 2.175
18.675 -6.075 2.325
18.675 -6.075 1.425
17.025 0.375 0.675
17.025 0.375 -0.075
17.025 0.375 0.825
18.225 -0.075 1.875
14.025 -6.075 0.525
14.025 -6.075 0.825
15.525 -6.825 0.825
15.525 -6.825 3.975
13.425 -5.475 -0.375
13.425 -5.475 0.525
18.525 -6.225 4.275
20.025 -2.775 3.225
17.175 0.375 -0.525
17.175 0.375 0.525
17.175 0.375 0.825
17.175 0.375 -0.225
17.175 0.375 1.875
14.175 -6.225 -0.525
14.625 -6.525 -0.825
14.625 -6.525 -0.075
18.075 0.075 -0.825
18.075 0.075 0.225
18.075 0.075 -0.675
18.075 0.075 -0.375
17.325 0.375 0.375
17.325 0.375 0.825
17.325 0.375 -0.075
17.325 0.375 1.575
17.325 0.375 0.225
17.325 0.375 1.275
17.325 0.375 -0.225
17.775 0.225 -0.525
17.775 0.225 -0.075
14.325 -6.375 -0.675
14.325 -6.375 -0.075
14.325 -6.375 -0.525
14.325 -6.375 -0.975
16.425 -6.975 2.325
16.425 -6.975 -0.225
16.275 -6.975 1.125
16.275 -6.975 1.725
16.275 -6.975 1.575
16.275 -6.975 1.875
20.025 -2.475 3.225
16.125 -6.975 1.275
16.125 -6.975 2.175
16.125 -6.975 1.575
16.125 -6.975 2.475
16.125 -6.975 2.325
16.125 -6.975 0.975
16.125 -6.975 1.425
16.425 0.525 -1.575
16.425 0.525 -0.225
16.275 0.525 -0.975
16.275 0.525 0.525
16.725 -6.975 -0.225
16.725 -6.975 0.525
15.975 -6.975 2.925
15.975 -6.975 1.575
15.975 -6.975 1.425
15.975 -6.975 0.975
15.975 -6.975 2.025
15.975 -6.975 -1.425
15.975 -6.975 1.275
15.975 -6.975 1.125
15.975 -6.975 2.325
13.725 -5.925 1.875
13.725 -5.925 -0.525
13.725 -5.925 -1.125
13.725 -5.925 0.675
18.825 -6.075 1.725
18.825 -6.075 -0.375
18.825 -6.075 2.775
18.825 -6.075 1.275
18.825 -6.075 3.525
18.825 -6.075 1.875
18.825 -6.075 2.475
18.825 -6.075 4.275
18.825 -6.075 2.925
16.125 0.525 -0.075
16.125 0.525 -0.375
13.575 -5.775 0.525
19.875 -4.575 2.175
13.875 -6.075 0.675
13.875 -6.075 1.125
13.875 -6.075 1.275
19.275 -5.625 0.525
16.725 0.525 0.825
16.725 0.525 0.075
16.875 -6.975 0.825
17.475 0.375 0.225
17.475 0.375 0.675
15.825 -6.975 2.775
15.825 -6.975 1.125
15.825 -6.975 -1.725
13.425 -5.625 0.375
13.425 -5.625 0.525
18.675 -6.225 1.575
18.675 -6.225 1.275
18.675 -6.225 1.425
18.675 -6.225 2.175
14.475 -6.525 -0.375
14.475 -6.525 5.175
14.025 -6.225 -0.225
16.875 0.525 -0.375
16.875 0.525 -1.275
16.875 0.525 0.675
16.875 0.525 -0.225
17.925 0.225 -0.225
17.925 0.225 0.075
18.225 0.075 -0.525
15.675 -6.975 3.375
15.675 -6.975 2.625
15.675 -6.975 3.525
15.675 -6.975 2.925
17.025 0.525 -0.225
17.025 0.525 -0.375
17.025 0.525 -0.525
18.525 -6.375 2.025
18.525 -6.375 1.575
18.525 -6.375 2.775
14.175 -6.375 -0.975
14.175 -6.375 -0.675
17.625 0.375 -0.375
17.625 0.375 -1.275
17.625 0.375 -0.525
18.525 -0.075 0.975
12.825 -4.725 -3.525
15.525 -6.975 3.825
15.525 -6.975 2.475
17.175 0.525 -0.375
17.175 0.525 -0.225
17.175 0.525 0.825
17.175 0.525 1.725
17.175 0.525 0.675
20.175 -2.775 2.475
13.125 -5.325 1.725
14.625 -6.675 0.075
18.375 -6.525 4.575
18.075 0.225 -0.225
18.075 0.225 0.075
18.075 0.225 -0.375
18.075 0.225 -0.675
18.975 -6.075 1.725
18.975 -6.075 0.825
18.975 -6.075 1.875
18.975 -6.075 2.025
18.975 -6.075 1.125
20.175 -2.625 2.775
13.575 -5.925 -0.375
13.575 -5.925 0.675
13.725 -6.075 0.075
13.725 -6.075 -0.375
13.725 -6.075 0.675
13.725 -6.075 0.825
13.725 -6.075 1.425
13.725 -6.075 1.575
17.775 0.375 0.225
17.775 0.375 -0.225
13.425 -5.775 -0.975
13.425 -5.775 -0.675
13.425 -5.775 -0.375
13.425 -5.775 0.375
13.425 -5.775 0.525
13.425 -5.775 -1.125
18.825 -6.225 1.875
18.825 -6.225 2.325
18.825 -6.225 1.275
18.825 -6.225 1.575
18.825 -6.225 2.175
18.825 -6.225 2.025
18.825 -6.225 0.075
17.325 0.525 -0.225
17.325 0.525 1.275
17.325 0.525 -0.375
17.325 0.525 0.675
19.875 -4.875 1.875
19.875 -4.875 2.175
13.875 -6.225 0.375
13.875 -6.225 2.775
13.875 -6.225 0.075
13.875 -6.225 -0.225
19.725 -5.175 1.425
19.425 -5.625 2.175
19.425 -5.625 1.575
16.425 -7.125 0.225
16.275 -7.125 0.975
16.275 -7.125 0.825
16.275 -7.125 1.425
16.275 -7.125 1.575
16.275 -7.125 2.475
16.575 -7.125 -0.075
16.125 -7.125 1.425
16.125 -7.125 0.975
16.125 -7.125 2.475
16.125 -7.125 -1.275
16.125 -7.125 1.125
16.125 -7.125 2.175
13.275 -5.625 -0.675
13.275 -5.625 0.225
18.675 -6.375 2.925
18.675 -6.375 0.825
18.675 -6.375 1.275
18.675 -6.375 2.475
18.675 -6.375 3.825
18.675 -6.375 4.275
16.425 0.675 0.675
16.425 0.675 -0.825
16.725 -7.125 -0.525
16.725 -7.125 -0.075
16.725 -7.125 0.525
16.275 0.675 -1.125
15.975 -7.125 1.425
15.975 -7.125 2.175
15.975 -7.125 2.025
15.975 -7.125 0.525
14.025 -6.375 -1.575
14.025 -6.375 -0.525
14.025 -6.375 -1.275
16.125 0.675 -1.125
12.675 -4.575 2.325
17.475 0.525 1.125
17.475 0.525 1.275
17.475 0.525 -0.375
16.725 0.675 0.825
16.725 0.675 -0.375
15.825 -7.125 2.025
15.825 -7.125 2.625
15.825 -7.125 0.975
15.825 -7.125 2.175
18.225 0.225 -0.075
17.925 0.375 -0.225
17.925 0.375 -0.675
18.525 -6.525 4.425
16.875 0.675 0.825
14.175 -6.525 -0.825
14.175 -6.525 -0.975
12.825 -5.025 -2.175
