# .PCD v0.7 - Point Cloud Data file format
VERSION 0.7
FIELDS x y z
SIZE 4 4 4
TYPE F F F
COUNT 1 1 1
WIDTH 2048
HEIGHT 1
VIEWPOINT 0 0 0 1 0 0 0
POINTS 2048
DATA ascii
20.325 34.125 1.275
20.325 34.125 1.575
20.325 34.125 0.525
20.025 34.125 0.225
20.325 33.975 1.275
20.325 33.975 1.425
20.025 34.275 -1.125
20.025 34.275 -0.825
20.475 34.125 0.825
20.475 34.125 1.875
20.475 34.125 1.575
20.475 34.275 1.575
20.025 33.975 0.675
20.025 33.975 0.375
20.025 33.975 -0.225
20.025 33.975 -0.075
20.475 33.975 -0.075
20.475 33.975 1.125
20.025 34.425 0.525
20.025 34.425 0.975
20.025 34.425 -1.875
20.175 33.825 2.025
19.875 34.125 -0.075
19.875 34.125 -1.125
19.875 34.125 1.425
20.325 33.825 -0.075
19.875 34.275 0.975
19.875 34.275 1.575
19.875 34.275 1.425
20.625 34.125 1.125
20.625 34.125 1.575
20.625 34.125 1.275
20.625 34.125 0.975
20.175 34.575 -0.225
20.175 34.575 0.975
20.175 34.575 -0.075
20.625 34.275 1.575
20.325 34.575 -2.025
20.325 34.575 2.475
20.025 33.825 -0.225
20.025 33.825 -0.075
20.025 33.825 0.675
20.025 33.825 1.575
20.025 33.825 0.975
19.875 33.975 0.975
19.875 33.975 -0.225
19.875 33.975 0.525
19.875 33.975 1.425
19.875 33.975 0.675
19.875 33.975 -0.075
19.875 33.975 -1.275
19.875 33.975 1.275
19.875 33.975 1.725
19.875 33.975 0.075
19.875 34.425 2.025
20.625 33.975 0.525
20.625 33.975 0.975
20.625 33.975 1.275
20.625 33.975 1.425
20.625 33.975 2.175
20.025 34.575 0.225
20.025 34.575 1.275
20.025 34.575 1.425
20.025 34.575 -0.675
20.025 34.575 -0.525
20.025 34.575 0.975
20.025 34.575 0.075
20.025 34.575 0.525
20.025 34.575 -0.375
20.625 34.425 0.075
19.875 33.825 1.425
19.875 33.825 -0.375
19.875 33.825 0.675
19.875 33.825 -0.225
19.875 33.825 1.575
19.875 33.825 0.075
19.875 33.825 0.225
19.875 33.825 0.975
19.875 33.825 1.275
20.175 33.675 0.825
20.175 33.675 -0.375
19.725 34.125 0.975
19.725 34.125 1.875
19.725 34.275 -2.025
19.725 34.275 2.025
19.725 34.275 0.975
19.725 34.275 -0.375
19.875 34.575 2.325
19.875 34.575 0.975
20.775 34.125 1.275
20.775 34.125 1.125
20.775 34.125 0.975
20.025 33.675 0.975
19.725 33.975 0.525
19.725 33.975 1.875
19.725 33.975 0.975
20.775 34.275 0.225
20.775 34.275 0.975
20.775 34.275 -0.825
20.775 34.275 1.125
20.175 34.725 0.075
20.175 34.725 -0.225
20.325 34.725 5.325
20.475 33.675 0.225
19.725 34.425 -0.375
19.725 34.425 2.175
19.725 34.425 -1.125
19.725 34.425 -1.425
20.775 33.975 1.275
20.025 34.725 0.075
20.025 34.725 0.975
20.025 34.725 -0.225
20.025 34.725 1.275
20.775 34.425 1.125
20.475 34.725 0.975
19.875 33.675 1.275
19.875 33.675 0.525
19.875 33.675 0.675
19.875 33.675 0.975
19.725 33.825 1.875
19.725 33.825 0.525
19.725 33.825 0.825
19.725 33.825 0.975
20.625 33.675 -0.075
19.725 34.575 0.075
19.725 34.575 -0.525
20.175 33.525 -0.825
20.175 33.525 -1.125
20.175 33.525 -1.275
19.875 34.725 1.425
19.875 34.725 0.975
19.575 34.125 0.975
19.575 34.125 2.025
19.575 34.275 0.975
19.575 34.275 2.325
20.775 34.575 0.975
20.025 33.525 -1.275
20.025 33.525 -0.525
20.025 33.525 -0.225
19.575 33.975 0.975
19.575 33.975 2.025
19.575 33.975 0.525
20.925 34.125 1.125
20.925 34.125 1.275
20.925 34.125 1.425
20.475 33.525 0.075
20.925 34.275 1.575
20.925 34.275 0.975
20.925 34.275 1.275
20.925 34.275 1.125
20.175 34.875 -3.525
20.175 34.875 0.225
20.175 34.875 0.825
20.175 34.875 0.525
20.175 34.875 1.125
19.575 34.425 -2.325
19.575 34.425 1.125
19.725 33.675 -0.375
19.725 33.675 0.675
19.725 33.675 -0.525
20.925 33.975 2.025
20.925 33.975 1.425
20.025 34.875 -0.075
20.025 34.875 0.975
20.025 34.875 1.425
20.025 34.875 0.075
20.925 34.425 1.275
19.875 33.525 -0.225
19.875 33.525 0.975
19.875 33.525 1.425
19.875 33.525 -0.075
19.725 34.725 0.975
19.725 34.725 2.025
20.775 34.725 0.975
19.875 34.875 -0.525
19.875 34.875 -0.375
19.875 34.875 1.725
19.875 34.875 1.875
19.875 34.875 0.225
19.875 34.875 0.825
20.925 34.575 -0.225
20.925 34.575 -0.075
20.175 33.375 -1.725
20.325 33.375 -1.425
19.425 34.125 0.825
19.425 34.275 0.825
19.425 34.275 0.975
19.725 33.525 -0.075
19.725 33.525 -1.875
19.725 33.525 -0.225
19.725 33.525 1.575
19.575 33.675 -0.075
19.575 33.675 0.525
19.575 33.675 0.225
19.575 33.675 -0.225
20.025 33.375 -0.375
19.425 33.975 0.075
20.475 33.375 0.375
21.075 34.125 2.025
21.075 34.125 0.975
21.075 34.125 1.575
21.075 34.125 1.125
19.425 34.425 0.975
19.425 34.425 -1.275
19.425 34.425 0.825
21.075 34.275 0.825
21.075 34.275 1.125
21.075 34.275 -4.425
20.175 35.025 -1.425
20.175 35.025 -0.075
20.925 33.675 -1.725
19.725 34.875 -1.125
19.725 34.875 -0.975
19.725 34.875 -0.375
19.725 34.875 0.825
21.075 33.975 2.175
21.075 33.975 2.025
21.075 33.975 1.875
21.075 33.975 -0.675
21.075 33.975 1.575
20.025 35.025 1.425
20.025 35.025 0.825
20.025 35.025 1.275
21.075 34.425 1.275
21.075 34.425 1.125
19.875 33.375 -0.225
19.875 33.375 0.075
19.875 33.375 -0.075
19.875 33.375 1.425
20.475 35.025 -0.075
20.925 34.725 0.825
19.425 33.825 0.075
19.425 33.825 0.825
20.775 34.875 2.625
19.875 35.025 1.575
19.875 35.025 1.875
19.875 35.025 1.725
19.875 35.025 0.825
19.575 33.525 0.375
19.575 33.525 -0.225
19.575 33.525 0.525
19.575 33.525 0.825
19.575 33.525 0.225
19.575 33.525 0.975
19.575 33.525 -0.525
21.075 34.575 0.975
20.625 35.025 -2.325
20.625 35.025 2.475
19.725 33.375 0.075
19.725 33.375 0.825
19.725 33.375 -0.225
19.725 33.375 -0.675
20.925 33.525 0.375
19.425 33.675 0.675
19.575 34.875 0.975
19.575 34.875 0.825
19.275 34.275 0.825
20.775 33.375 -2.025
20.025 33.225 -0.825
19.725 35.025 0.975
19.725 35.025 2.025
19.725 35.025 0.825
19.275 34.425 0.825
21.225 34.125 1.575
21.225 34.125 1.275
21.225 34.125 1.125
21.225 34.125 1.725
21.225 34.275 1.275
21.225 34.275 1.125
20.775 35.025 3.075
19.875 33.225 0.075
19.875 33.225 0.225
19.875 33.225 0.825
19.875 33.225 -0.075
19.875 33.225 1.275
20.025 35.175 0.075
20.025 35.175 -0.375
19.275 33.825 0.825
21.225 34.425 1.125
20.475 35.175 0.375
19.575 33.375 2.025
19.575 33.375 0.525
19.575 33.375 0.225
19.575 33.375 -0.375
19.575 33.375 0.375
19.575 33.375 -0.075
19.575 33.375 -0.225
19.275 34.575 0.975
19.275 34.575 0.825
19.875 35.175 -0.375
19.875 35.175 0.075
19.875 35.175 0.825
21.225 34.575 0.975
21.225 34.575 1.275
19.425 34.875 -0.075
20.625 35.175 -4.875
20.625 35.175 4.125
19.575 35.025 0.825
19.575 35.025 -0.075
19.725 33.225 0.825
19.725 33.225 0.975
19.725 33.225 2.025
19.725 33.225 0.375
19.725 33.225 -0.525
19.725 33.225 -0.225
19.725 33.225 0.075
20.175 33.075 -2.025
19.275 34.725 0.675
19.275 34.725 0.825
19.125 34.275 -0.825
19.725 35.175 1.875
19.725 35.175 0.375
19.725 35.175 0.825
20.475 33.075 0.675
21.225 34.725 -3.075
21.225 34.725 -0.075
21.225 34.725 1.125
19.125 34.425 0.825
19.125 34.425 0.675
21.375 34.125 1.425
21.375 34.125 1.575
21.375 34.125 1.275
21.375 34.275 1.275
21.375 34.275 1.425
21.375 34.275 3.225
20.175 35.325 0.525
20.175 35.325 0.375
20.175 35.325 0.975
20.325 35.325 0.375
20.325 35.325 -0.525
19.575 33.225 0.525
19.575 33.225 0.375
19.575 33.225 -0.525
21.375 33.975 1.575
21.375 33.975 1.725
19.875 33.075 -0.375
19.875 33.075 -0.075
19.875 33.075 -0.225
19.875 33.075 0.825
19.125 33.825 0.975
20.025 35.325 1.575
20.025 35.325 -0.825
20.025 35.325 -0.675
20.025 35.325 0.975
20.025 35.325 0.225
20.025 35.325 -0.375
21.375 34.425 0.075
21.375 34.425 1.425
20.475 35.325 2.625
19.125 34.575 0.975
21.375 33.825 -3.675
19.575 35.175 0.825
19.875 35.325 0.375
19.875 35.325 -0.525
21.225 34.875 2.025
21.225 34.875 0.975
19.725 33.075 0.975
19.725 33.075 -0.075
19.725 33.075 0.075
19.425 33.225 -0.375
19.275 33.375 0.525
19.275 33.375 1.275
20.175 32.925 1.425
20.175 32.925 3.375
20.325 32.925 -0.225
20.325 32.925 -0.075
20.325 32.925 0.525
19.725 35.325 -0.075
19.725 35.325 0.975
18.975 34.125 0.525
18.975 34.275 -0.675
20.025 32.925 -2.025
20.025 32.925 -0.525
20.775 35.325 3.825
20.475 32.925 1.875
20.475 32.925 -2.325
18.975 33.975 0.525
18.975 34.425 3.525
19.575 33.075 0.075
19.575 33.075 -0.075
19.425 35.175 0.825
19.125 33.525 0.975
19.125 33.525 -0.225
21.525 34.125 1.575
21.525 34.125 1.725
21.525 34.275 1.275
21.525 34.275 1.425
21.525 34.275 1.725
21.525 34.275 1.575
20.175 35.475 0.825
20.175 35.475 1.275
20.325 35.475 0.225
19.875 32.925 0.225
19.875 32.925 -0.225
19.875 32.925 -0.375
19.875 32.925 -0.825
21.225 35.025 0.825
21.525 33.975 1.575
21.525 33.975 1.875
20.625 32.925 -0.075
21.525 34.425 2.025
20.025 35.475 0.075
20.025 35.475 -0.225
20.025 35.475 0.525
20.025 35.475 1.425
20.025 35.475 0.225
20.025 35.475 -0.375
20.025 35.475 0.375
20.025 35.475 0.825
20.475 35.475 -0.375
19.575 35.325 -0.825
20.925 35.325 -0.225
19.875 35.475 2.025
19.875 35.475 0.225
19.875 35.475 -0.525
21.525 34.575 0.975
19.725 32.925 -0.225
19.725 32.925 -0.075
19.725 32.925 0.075
20.625 35.475 -3.075
19.425 33.075 -0.075
19.125 33.375 0.225
19.275 35.175 0.075
19.275 35.175 0.975
21.525 33.675 -3.225
21.525 33.675 2.025
19.725 35.475 -0.825
19.725 35.475 0.075
20.175 32.775 0.225
20.175 32.775 -1.125
19.425 35.325 0.825
20.775 35.475 -0.375
21.225 35.175 -2.625
19.575 32.925 1.725
20.025 32.775 -0.375
21.375 35.025 1.725
20.475 32.775 0.375
20.475 32.775 0.075
20.475 32.775 -0.225
18.825 33.975 -1.275
21.675 34.125 1.725
21.675 34.125 1.275
21.675 34.125 1.575
21.675 34.275 1.425
21.675 34.275 1.125
21.675 34.275 1.275
21.675 34.275 1.725
19.875 32.775 -0.375
19.875 32.775 -0.075
20.175 35.625 1.425
20.175 35.625 0.975
20.175 35.625 0.525
20.325 35.625 0.225
20.325 35.625 0.825
20.625 32.775 -0.525
19.575 35.475 1.275
19.275 33.075 0.675
19.125 33.225 0.825
20.025 35.625 -0.075
20.025 35.625 0.225
20.025 35.625 -0.225
20.025 35.625 0.825
21.525 34.875 2.625
20.475 35.625 0.225
21.675 33.825 2.175
19.425 32.925 0.375
19.725 32.775 -0.075
19.725 32.775 1.425
19.725 32.775 0.225
19.725 32.775 0.675
19.875 35.625 -0.375
19.875 35.625 -0.225
19.275 35.325 0.825
21.375 35.175 -3.525
19.425 35.475 0.825
19.425 35.475 0.075
19.725 35.625 -0.075
21.675 34.725 1.125
21.675 34.725 0.675
21.675 34.725 2.025
20.775 35.625 -0.375
19.575 32.775 1.875
19.575 32.775 1.575
19.575 32.775 3.825
19.575 32.775 0.075
20.175 32.625 0.225
20.325 32.625 -0.525
20.325 32.625 -0.075
20.325 32.625 0.075
19.125 33.075 0.825
20.025 32.625 1.125
20.475 32.625 -0.375
20.475 32.625 0.675
21.825 34.125 1.875
21.825 34.125 1.575
21.825 34.125 3.075
19.875 32.625 0.525
19.875 32.625 -1.425
19.875 32.625 -0.075
19.875 32.625 -0.225
19.875 32.625 -0.525
19.875 32.625 -1.125
21.825 34.275 1.575
21.825 34.275 -3.525
21.825 34.275 1.125
21.825 34.275 1.725
21.825 34.275 2.325
18.675 33.825 0.675
20.175 35.775 1.275
20.175 35.775 0.825
21.825 33.975 1.575
21.825 33.975 1.425
18.975 35.175 1.425
21.825 34.425 1.425
21.825 34.425 -4.725
21.825 34.425 0.975
21.825 34.425 1.275
20.025 35.775 -0.075
20.025 35.775 -0.525
20.025 35.775 1.425
20.025 35.775 -0.675
20.025 35.775 -0.375
20.025 35.775 0.825
19.425 32.775 -0.525
19.425 32.775 -0.375
19.425 32.775 3.225
19.425 32.775 -0.225
19.425 32.775 0.825
21.525 35.175 1.875
19.725 32.625 0.075
19.725 32.625 -0.075
19.725 32.625 -0.375
19.725 32.625 -0.225
19.725 32.625 0.675
21.075 32.775 3.525
19.875 35.775 -0.075
19.875 35.775 0.825
20.625 35.775 0.075
21.675 35.025 -2.775
21.675 35.025 1.725
18.975 33.075 -0.225
21.825 34.725 -3.225
19.575 32.625 -0.375
19.575 32.625 0.825
19.575 32.625 0.075
20.775 35.775 -0.225
19.275 32.775 0.675
20.925 32.625 -0.075
20.175 32.475 -0.675
20.175 32.475 -0.225
20.325 32.475 -0.225
20.325 32.475 -0.825
18.525 34.125 -1.425
20.025 32.475 -0.075
20.025 32.475 3.975
20.025 32.475 -0.225
19.575 35.775 -1.575
19.275 35.625 0.825
19.875 32.475 0.225
19.875 32.475 -0.825
19.875 32.475 -0.975
19.875 32.475 0.075
19.875 32.475 1.875
20.925 35.775 0.075
20.925 35.775 2.475
21.975 34.125 1.875
21.975 34.125 1.575
21.975 34.125 1.275
21.975 34.125 1.425
21.975 34.275 1.725
21.975 34.275 1.575
21.975 34.275 0.975
21.975 34.275 1.875
20.175 35.925 -0.225
20.175 35.925 1.425
20.175 35.925 -0.075
19.425 32.625 0.825
19.425 32.625 4.875
19.425 32.625 1.725
20.325 35.925 -0.225
20.325 35.925 0.375
20.325 35.925 -1.875
21.975 33.975 1.875
21.975 33.975 1.425
18.525 34.575 0.225
18.525 34.575 -2.175
21.975 34.425 1.125
21.975 34.425 0.975
21.975 34.425 1.425
20.025 35.925 -0.525
20.025 35.925 1.725
20.025 35.925 -0.225
20.025 35.925 0.825
19.725 32.475 0.075
19.725 32.475 0.825
19.725 32.475 0.675
19.725 32.475 1.275
19.725 32.475 -0.525
19.725 32.475 -0.225
19.875 35.925 0.225
19.875 35.925 0.825
20.775 32.475 2.775
19.125 32.775 0.225
18.825 33.075 2.325
21.075 35.775 -3.525
21.075 35.775 0.075
19.725 35.925 0.675
19.275 32.625 -0.075
19.275 32.625 1.275
19.575 32.475 0.825
19.575 32.475 0.675
19.575 32.475 -0.075
21.975 34.725 -3.225
21.975 34.725 1.125
20.925 32.475 -5.775
21.225 32.625 -0.675
18.525 34.875 -1.875
20.475 32.325 2.025
21.975 34.875 -3.225
21.975 34.875 -3.525
19.425 32.475 2.925
19.425 32.475 1.275
19.425 32.475 1.425
18.825 32.925 0.375
19.875 32.325 0.075
19.875 32.325 -0.225
19.875 32.325 -0.675
22.125 34.125 1.275
22.125 34.125 2.475
20.625 32.325 -0.075
22.125 34.275 1.275
22.125 34.275 2.025
22.125 34.275 2.625
22.125 34.275 1.725
20.175 36.075 1.425
20.175 36.075 -4.425
20.175 36.075 0.975
20.175 36.075 0.225
22.125 33.975 1.725
22.125 34.425 1.275
19.125 32.625 0.225
20.025 36.075 -0.375
20.025 36.075 1.875
20.025 36.075 0.225
20.025 36.075 -0.075
19.725 32.325 0.225
19.725 32.325 -0.225
19.725 32.325 0.075
19.725 32.325 0.825
19.725 32.325 0.525
19.875 36.075 -0.675
19.875 36.075 -0.075
19.875 36.075 0.225
19.875 36.075 0.825
19.875 36.075 -0.225
19.875 36.075 -0.975
22.125 34.575 0.825
22.125 34.575 1.425
22.125 34.575 1.275
19.275 32.475 0.675
19.725 36.075 0.825
19.575 32.325 -0.375
19.575 32.325 1.425
19.575 32.325 1.275
19.575 32.325 0.675
19.575 32.325 0.525
19.575 32.325 0.975
20.775 36.075 1.275
20.775 36.075 -0.525
18.975 32.625 0.375
18.975 32.625 0.675
20.175 32.175 1.875
20.175 32.175 -0.225
20.325 32.175 4.425
19.575 36.075 -1.125
19.575 36.075 0.825
20.925 36.075 0.825
19.425 32.325 -0.825
19.425 32.325 0.825
19.125 32.475 0.675
18.525 33.075 -1.575
18.525 33.075 -1.875
19.875 32.175 -0.075
19.875 32.175 1.725
19.875 32.175 0.075
18.975 35.775 -1.875
22.275 34.125 1.725
22.275 34.125 1.875
22.275 34.125 1.575
22.275 34.275 1.875
22.275 34.275 1.125
22.275 34.275 1.725
20.175 36.225 0.975
20.175 36.225 -1.575
20.325 36.225 0.975
20.325 36.225 0.375
20.325 36.225 0.525
22.275 33.975 1.575
22.275 33.975 2.175
22.275 33.975 1.275
21.825 35.475 -2.775
22.275 34.425 1.425
22.275 34.425 0.975
22.275 34.425 0.375
22.275 34.425 1.275
19.725 32.175 0.075
19.725 32.175 0.975
19.725 32.175 -0.225
19.725 32.175 3.225
19.725 32.175 -0.075
19.725 32.175 0.675
19.875 36.225 1.725
19.875 36.225 0.225
19.875 36.225 0.675
19.875 36.225 -0.375
20.625 36.225 0.825
20.625 36.225 2.325
19.275 32.325 0.825
19.275 32.325 -0.075
18.825 32.625 0.675
18.675 32.775 -2.025
18.675 32.775 1.125
19.575 32.175 0.675
19.575 32.175 1.275
19.575 32.175 0.525
19.725 36.225 0.525
18.975 32.475 0.675
20.775 36.225 1.125
18.675 35.625 2.025
20.175 32.025 0.825
18.975 35.925 1.875
19.425 32.175 -0.075
19.425 32.175 0.825
19.425 32.175 1.875
18.375 33.075 -1.875
20.925 36.225 1.125
20.925 36.225 0.975
20.925 36.225 1.275
20.025 32.025 0.375
20.025 32.025 0.675
20.025 32.025 -0.075
20.475 32.025 -0.825
21.075 32.175 5.325
19.875 32.025 1.275
19.875 32.025 -0.075
18.375 35.325 1.725
20.625 32.025 0.975
20.625 32.025 -0.075
20.625 32.025 0.375
22.425 34.125 1.725
22.425 34.125 1.425
22.425 34.275 1.725
20.175 36.375 0.825
20.175 36.375 1.275
20.175 36.375 -0.525
20.175 36.375 -0.225
20.175 36.375 1.425
20.175 36.375 0.225
20.325 36.375 0.375
20.325 36.375 -1.425
19.425 36.225 0.825
22.425 34.425 1.275
20.025 36.375 -0.075
20.025 36.375 0.825
20.025 36.375 0.075
20.025 36.375 -0.225
18.825 32.475 0.975
18.525 32.775 3.825
19.725 32.025 0.525
19.725 32.025 -0.675
19.725 32.025 -0.975
19.725 32.025 -0.225
19.725 32.025 0.825
19.725 32.025 0.075
19.725 32.025 1.275
20.475 36.375 1.125
22.125 35.325 4.875
21.075 36.225 2.325
21.075 36.225 0.825
21.375 36.075 2.925
19.275 32.175 -2.925
19.275 32.175 0.525
19.275 32.175 -0.525
22.425 34.575 1.575
18.675 35.775 1.725
20.625 36.375 1.275
20.625 36.375 0.675
21.225 32.175 5.325
18.975 32.325 0.225
18.975 32.325 0.675
18.525 35.625 1.425
19.575 32.025 1.575
19.575 32.025 -0.525
19.575 32.025 0.825
19.575 32.025 -0.075
19.575 32.025 -0.975
19.575 32.025 0.975
19.575 32.025 1.275
19.725 36.375 0.825
19.275 36.225 0.975
20.775 36.375 0.975
20.775 36.375 1.275
21.225 36.225 0.675
21.225 36.225 1.575
19.125 32.175 0.675
18.225 33.075 4.275
22.125 35.475 -2.775
19.575 36.375 0.825
19.575 36.375 -0.225
19.425 32.025 0.675
19.425 32.025 0.525
19.425 32.025 0.825
20.325 31.875 0.075
20.925 36.375 -0.525
20.925 36.375 1.125
20.925 36.375 0.975
18.225 35.325 -1.575
18.225 35.325 3.075
18.075 35.025 2.175
18.825 32.325 0.675
20.625 31.875 -0.525
20.625 31.875 0.075
20.625 31.875 -0.075
18.525 35.775 2.025
22.575 34.125 2.025
22.575 34.125 1.575
22.575 34.125 1.725
22.575 34.125 1.875
22.575 34.125 2.325
19.425 36.375 -2.025
18.675 35.925 -1.575
22.575 34.275 0.975
22.575 34.275 1.875
22.575 34.275 1.725
21.375 36.225 0.825
21.375 36.225 0.975
20.175 36.525 0.975
20.175 36.525 -0.075
22.575 33.975 1.875
20.325 36.525 0.975
20.325 36.525 0.225
20.325 36.525 0.525
21.075 36.375 1.425
21.075 36.375 1.275
21.075 36.375 1.125
21.075 36.375 0.825
21.075 36.375 0.975
22.575 34.425 1.575
22.575 34.425 0.825
22.575 34.425 2.175
22.575 34.425 1.425
22.575 34.425 1.125
19.275 32.025 0.675
19.275 32.025 0.825
19.275 32.025 0.525
20.025 36.525 -0.675
20.025 36.525 1.725
20.025 36.525 -0.375
20.025 36.525 0.825
20.025 36.525 -0.525
19.725 31.875 0.075
19.725 31.875 0.825
20.475 36.525 -0.225
20.475 36.525 -0.525
18.975 32.175 0.675
21.525 32.175 -4.725
19.575 31.875 0.825
19.575 31.875 1.275
19.575 31.875 -0.675
20.925 31.875 3.525
20.925 31.875 -0.075
18.975 36.225 0.975
18.975 36.225 -3.675
21.225 36.375 0.825
21.225 36.375 0.975
21.225 36.375 1.725
21.225 36.375 -0.375
21.525 36.225 2.475
21.525 36.225 4.125
21.525 36.225 1.575
21.525 36.225 1.275
18.075 33.075 -0.975
19.575 36.525 0.975
19.575 36.525 1.125
19.425 31.875 0.225
19.425 31.875 1.575
19.425 31.875 -0.225
19.425 31.875 0.825
20.925 36.525 1.125
21.075 31.875 0.075
21.075 31.875 5.625
21.075 31.875 0.975
18.375 35.775 1.125
18.375 35.775 3.075
20.325 31.725 -0.225
20.325 31.725 -0.075
20.325 31.725 2.325
18.675 36.075 1.125
20.475 31.725 -0.075
20.475 31.725 0.675
21.375 36.375 0.825
21.375 36.375 1.125
21.375 36.375 1.425
19.875 31.725 -0.375
19.875 31.725 -0.075
20.625 31.725 -0.525
20.625 31.725 0.075
19.425 36.525 0.975
18.825 36.225 1.275
22.725 34.125 1.875
22.725 34.125 2.175
22.725 34.125 -0.075
22.725 34.125 1.725
22.725 34.275 0.975
22.725 34.275 1.275
22.725 34.275 2.175
22.725 34.275 1.725
22.725 34.275 2.025
22.725 34.275 1.575
18.975 32.025 0.225
18.975 32.025 0.675
19.275 31.875 0.825
21.075 36.525 1.575
21.075 36.525 3.225
21.075 36.525 -0.225
18.075 32.925 -1.275
20.175 36.675 0.825
20.175 36.675 -0.825
20.175 36.675 -0.225
20.175 36.675 -1.575
22.725 33.975 1.725
22.725 33.975 2.025
20.325 36.675 1.275
20.325 36.675 0.975
20.325 36.675 -0.225
20.325 36.675 0.075
22.275 35.625 4.275
22.725 34.425 1.875
19.725 31.725 -0.075
19.725 31.725 0.675
19.725 31.725 0.525
19.725 31.725 -0.825
19.725 31.725 -0.375
19.725 31.725 -0.225
19.725 31.725 0.825
21.675 36.225 1.575
21.675 36.225 1.425
20.025 36.675 1.725
17.775 33.675 0.525
20.475 36.675 -0.075
20.775 31.725 -0.075
22.725 34.575 1.125
22.725 34.575 2.025
22.725 34.575 0.975
19.875 36.675 0.975
19.875 36.675 -0.675
19.875 36.675 -4.425
22.575 33.225 3.675
20.625 36.675 2.175
18.975 36.375 0.675
18.975 36.375 -0.075
18.225 32.625 -1.425
19.575 31.725 0.825
19.575 31.725 1.575
22.575 35.175 5.625
20.925 31.725 1.125
20.925 31.725 -0.225
21.225 36.525 1.575
21.225 36.525 0.675
21.225 36.525 1.125
21.225 36.525 0.225
21.225 36.525 1.425
21.525 36.375 1.575
21.525 36.375 0.975
21.525 36.375 0.825
19.725 36.675 0.825
22.725 34.725 0.675
18.375 35.925 1.425
18.375 35.925 1.275
18.375 35.925 0.975
18.525 36.075 1.275
19.125 31.875 0.375
17.925 33.075 -0.225
18.225 35.775 2.475
18.225 35.775 -2.475
18.225 35.775 3.675
18.675 36.225 0.975
18.675 36.225 0.375
18.675 36.225 4.425
22.125 35.925 2.775
21.975 36.075 1.575
21.975 36.075 4.125
19.425 31.725 1.875
19.425 31.725 0.825
17.775 33.375 -0.225
17.775 33.375 -0.375
22.725 34.875 0.675
21.825 36.225 1.425
21.825 36.225 1.575
21.825 36.225 1.725
21.825 36.225 1.275
19.125 36.525 -1.275
19.125 36.525 -0.075
18.075 35.625 1.425
20.175 31.575 2.325
20.175 31.575 2.475
20.325 31.575 0.075
20.025 31.575 0.375
21.375 36.525 0.975
21.375 36.525 6.675
21.375 36.525 1.425
21.375 36.525 1.125
18.825 36.375 -1.425
20.475 31.575 -0.975
20.475 31.575 -0.375
20.475 31.575 -0.075
20.475 31.575 0.225
22.425 35.625 2.475
19.875 31.575 -0.075
19.875 31.575 -0.375
17.925 32.925 -1.275
21.675 36.375 1.425
21.675 36.375 1.575
20.625 31.575 -0.075
20.625 31.575 -3.075
19.275 31.725 -0.075
19.275 31.725 2.175
19.275 31.725 0.825
22.875 34.125 2.025
22.875 34.125 1.575
22.875 33.975 2.175
22.875 33.975 0.375
20.175 36.825 -1.425
20.175 36.825 -0.375
20.325 36.825 -0.675
20.325 36.825 0.225
20.325 36.825 1.425
20.325 36.825 -1.425
19.725 31.575 -0.375
19.725 31.575 -0.075
19.725 31.575 0.675
22.875 34.425 1.125
22.875 34.425 0.525
22.875 34.425 0.825
20.025 36.825 0.825
20.025 36.825 -0.075
20.025 36.825 1.725
18.375 36.075 1.275
20.775 31.575 -0.225
20.475 36.825 -0.225
18.225 35.925 1.125
18.225 35.925 1.425
18.225 35.925 0.975
18.225 35.925 0.825
18.975 36.525 0.825
18.975 36.525 0.375
22.875 34.575 1.125
22.125 36.075 2.025
21.525 36.525 0.825
21.525 36.525 0.525
19.575 31.575 -0.375
19.575 31.575 -0.225
19.575 31.575 0.825
18.075 35.775 3.975
18.075 35.775 1.425
18.075 35.775 4.275
18.075 35.775 0.675
18.075 35.775 1.725
18.075 35.775 1.275
21.975 36.225 3.975
21.975 36.225 1.425
17.625 33.525 5.625
19.125 31.725 2.325
19.125 31.725 0.675
17.775 33.075 -0.375
18.675 36.375 1.275
18.675 36.375 0.975
18.675 36.375 0.225
19.725 36.825 -0.225
19.725 36.825 0.825
22.875 34.725 0.825
18.825 31.875 0.825
18.825 31.875 -1.275
17.925 32.775 4.725
21.825 36.375 1.575
21.825 36.375 2.475
21.825 36.375 1.425
21.825 36.375 0.525
17.775 35.325 2.775
19.425 31.575 1.575
19.425 31.575 0.975
19.425 31.575 0.675
19.575 36.825 0.825
19.575 36.825 0.225
18.375 32.175 3.825
21.075 31.575 3.825
21.075 31.575 -0.525
21.075 31.575 0.075
18.825 36.525 1.425
18.825 36.525 0.975
21.375 36.675 1.125
21.375 36.675 0.825
18.525 32.025 -0.825
18.075 32.475 -2.475
20.175 31.425 0.075
20.325 31.425 0.225
22.125 32.175 0.975
21.675 36.525 1.425
21.675 36.525 0.675
18.975 31.725 1.425
18.975 31.725 0.825
18.975 31.725 0.525
18.975 31.725 0.675
20.475 31.425 -0.225
18.225 36.075 1.875
18.225 36.075 1.425
18.225 36.075 1.575
18.375 36.225 2.925
18.375 36.225 1.125
19.275 31.575 0.525
19.275 31.575 0.825
19.875 31.425 1.275
19.875 31.425 -0.225
19.875 31.425 -0.525
19.875 31.425 -0.075
17.625 33.225 -0.375
18.075 35.925 1.125
18.075 35.925 2.625
18.075 35.925 0.825
18.075 35.925 1.425
21.075 36.825 0.975
20.625 31.425 7.425
20.625 31.425 -0.375
20.625 31.425 0.075
18.525 36.375 -0.075
18.525 36.375 0.975
18.525 36.375 -0.525
18.525 36.375 1.275
18.525 36.375 1.875
18.525 36.375 1.725
22.275 36.075 2.475
22.275 36.075 2.025
22.125 36.225 1.575
23.025 34.125 1.875
23.025 34.275 1.575
23.025 34.275 0.675
23.025 34.275 1.275
23.025 34.275 1.425
23.025 34.275 1.725
23.025 33.975 2.175
19.725 31.425 0.375
19.725 31.425 -0.225
19.725 31.425 0.825
20.175 36.975 1.425
20.325 36.975 0.225
20.325 36.975 -0.825
20.325 36.975 0.975
20.325 36.975 0.525
23.025 34.425 1.125
23.025 34.425 1.575
21.975 36.375 1.725
21.975 36.375 1.575
21.975 36.375 0.975
21.975 36.375 1.875
21.975 36.375 1.425
20.775 31.425 1.125
20.025 36.975 0.825
20.025 36.975 -0.975
20.025 36.975 0.075
17.925 35.775 0.525
17.925 35.775 1.275
17.925 35.775 0.675
20.475 36.975 0.225
20.475 36.975 0.975
20.475 36.975 0.825
21.525 36.675 0.975
21.525 36.675 0.825
18.675 36.525 0.525
18.675 36.525 0.825
18.675 36.525 1.125
18.675 36.525 0.375
23.025 34.575 1.575
23.025 34.575 0.975
20.625 36.975 -0.375
20.625 36.975 1.125
21.225 36.825 1.275
18.825 31.725 0.825
18.825 31.725 0.525
19.575 31.425 -0.375
19.575 31.425 1.425
19.575 31.425 0.675
19.575 31.425 1.125
19.575 31.425 -0.075
19.575 31.425 1.275
19.575 31.425 1.575
17.775 32.775 4.275
21.825 36.525 1.575
20.775 36.975 2.475
20.775 36.975 -0.525
17.775 35.625 1.575
17.775 35.625 3.525
22.275 32.175 -4.125
18.525 31.875 1.575
18.825 36.675 -0.825
19.425 31.425 1.875
19.425 31.425 0.825
18.225 36.225 1.575
18.225 36.225 3.075
18.225 36.225 1.425
18.225 36.225 4.125
19.125 36.825 0.675
19.575 36.975 0.825
18.075 36.075 2.175
18.075 36.075 2.325
18.075 36.075 1.125
18.075 36.075 1.425
21.075 31.425 0.075
18.375 36.375 2.325
18.375 36.375 1.575
18.375 36.375 2.025
20.925 36.975 -1.875
21.675 36.675 1.125
18.975 31.575 0.825
18.975 31.575 -0.225
18.975 31.575 1.875
22.275 36.225 1.725
17.625 32.925 -0.225
17.925 35.925 1.425
17.925 35.925 1.725
17.925 35.925 2.625
17.925 35.925 3.675
17.925 35.925 0.825
22.125 36.375 1.125
22.125 36.375 2.025
22.125 36.375 1.575
22.125 36.375 1.425
22.125 36.375 1.725
20.325 31.275 0.075
20.325 31.275 0.225
20.325 31.275 -1.125
18.525 36.525 -0.075
18.525 36.525 1.725
18.525 36.525 0.975
21.525 31.575 -4.725
21.525 31.575 0.375
18.675 31.725 1.425
20.025 31.275 -0.225
20.475 31.275 0.225
19.275 31.425 1.575
21.075 36.975 0.225
21.975 36.525 1.575
21.975 36.525 0.825
21.975 36.525 2.025
21.975 36.525 1.425
21.225 31.425 0.375
17.775 35.775 -0.225
17.775 35.775 1.125
17.775 35.775 1.575
19.725 31.275 -0.375
19.725 31.275 -0.225
19.725 31.275 0.375
19.725 31.275 0.825
20.175 37.125 0.825
20.175 37.125 1.725
20.325 37.125 0.225
20.325 37.125 0.075
20.325 37.125 1.275
20.325 37.125 1.425
20.325 37.125 -0.075
20.775 31.275 -0.225
20.025 37.125 -0.075
19.275 36.975 -0.075
20.475 37.125 -1.875
20.475 37.125 -0.225
20.475 37.125 -0.075
18.825 31.575 1.425
23.175 33.825 2.025
23.175 33.825 2.325
22.275 32.025 1.275
19.125 31.425 0.825
19.125 31.425 2.175
19.875 37.125 0.675
19.575 31.275 1.275
19.575 31.275 2.025
19.575 31.275 0.825
19.575 31.275 -1.275
18.075 36.225 1.125
18.075 36.225 1.275
18.075 36.225 2.025
18.075 36.225 2.325
18.075 36.225 1.575
20.925 31.275 0.375
20.925 31.275 0.525
17.625 35.625 4.725
17.625 35.625 0.975
17.625 35.625 1.275
18.525 31.725 3.825
17.925 36.075 2.475
17.925 36.075 1.275
17.925 36.075 0.675
17.925 36.075 0.825
17.925 36.075 2.325
17.925 36.075 1.425
17.925 36.075 1.725
19.725 37.125 -0.225
19.725 37.125 0.825
18.375 36.525 2.475
18.375 36.525 1.575
18.375 36.525 1.725
18.375 36.525 1.125
18.375 36.525 -0.525
18.375 36.525 0.975
22.275 36.375 1.725
22.275 36.375 2.025
22.275 36.375 1.575
22.275 36.375 2.475
22.275 36.375 2.325
22.275 36.375 2.175
18.825 36.825 -0.675
18.825 36.825 1.275
19.425 31.275 1.575
19.425 31.275 0.825
19.425 31.275 -0.675
22.575 36.075 2.475
22.125 36.525 1.275
22.125 36.525 1.425
17.775 35.925 -0.075
17.775 35.925 1.725
17.775 35.925 1.875
17.775 35.925 1.575
17.775 35.925 -0.225
17.775 35.925 1.425
17.775 35.925 2.025
23.025 35.325 2.025
21.075 31.275 0.525
21.075 31.275 0.825
21.075 31.275 5.475
18.975 31.425 4.575
18.975 31.425 0.825
18.525 36.675 0.975
18.675 31.575 0.525
18.075 32.025 4.275
23.175 33.375 1.275
17.475 35.475 -4.275
20.175 31.125 0.075
20.325 31.125 -0.075
19.425 37.125 1.125
19.425 37.125 1.275
17.625 35.775 5.025
17.625 35.775 0.975
17.625 35.775 1.275
17.625 35.775 1.125
17.625 35.775 1.725
17.625 35.775 1.425
21.075 37.125 -0.375
21.225 31.275 0.675
21.225 31.275 0.525
21.225 31.275 0.375
19.875 31.125 -0.375
20.625 31.125 0.675
20.625 31.125 2.625
18.375 31.725 3.375
18.375 31.725 0.075
22.575 32.175 -2.025
18.075 36.375 3.225
18.075 36.375 0.675
17.925 36.225 0.825
17.925 36.225 2.325
17.925 36.225 4.125
17.925 36.225 1.575
17.925 36.225 2.625
18.225 36.525 1.575
18.225 36.525 2.475
18.225 36.525 1.875
18.225 36.525 0.975
18.225 36.525 0.675
18.225 36.525 2.025
18.225 36.525 2.625
23.325 34.125 1.575
23.325 34.275 0.975
19.725 31.125 -0.225
23.325 33.975 1.875
20.175 37.275 -0.525
20.175 37.275 0.825
20.775 31.125 1.275
20.775 31.125 0.525
20.775 31.125 -0.375
19.275 37.125 0.375
23.325 34.425 1.425
22.425 36.375 1.125
22.425 36.375 2.025
22.425 36.375 1.875
22.425 36.375 1.575
22.425 36.375 1.425
20.025 37.275 1.725
20.025 37.275 -0.225
20.025 37.275 -0.375
20.025 37.275 0.525
20.025 37.275 0.075
21.675 31.425 0.525
17.775 36.075 0.075
17.775 36.075 2.475
17.775 36.075 1.575
19.125 31.275 -2.025
20.475 37.275 -0.075
20.475 37.275 -0.225
21.225 37.125 -0.225
22.575 36.225 2.175
23.325 33.825 1.725
22.275 36.525 1.725
22.275 36.525 1.275
22.275 36.525 0.825
22.275 36.525 1.425
18.525 31.575 0.675
18.525 31.575 4.575
18.375 36.675 2.925
18.375 36.675 1.725
18.375 36.675 2.475
18.375 36.675 0.825
18.375 36.675 2.025
18.375 36.675 -3.825
18.375 36.675 2.175
17.475 35.625 1.575
21.375 31.275 6.225
21.375 31.275 0.975
19.875 37.275 0.825
19.575 31.125 0.825
19.575 31.125 -0.375
19.575 31.125 1.275
19.575 31.125 1.425
20.925 31.125 -0.225
22.725 36.075 1.425
22.725 36.075 2.475
22.125 36.675 0.975
19.725 37.275 0.825
17.625 35.925 1.575
17.625 35.925 0.675
17.625 35.925 0.375
18.525 36.825 1.125
19.425 31.125 2.325
19.425 31.125 3.225
19.425 31.125 1.575
21.375 37.125 -0.525
21.375 37.125 0.375
18.975 31.275 -0.525
18.975 31.275 0.675
18.975 31.275 0.975
18.975 31.275 0.225
21.075 31.125 0.825
21.075 31.125 0.975
21.075 31.125 -0.525
21.075 31.125 0.675
21.075 31.125 0.525
17.775 32.175 3.375
21.525 31.275 0.525
22.425 31.875 2.175
17.925 36.375 1.725
17.925 36.375 4.125
18.075 36.525 3.375
18.075 36.525 1.425
18.075 36.525 3.225
18.075 36.525 2.325
18.075 36.525 3.525
18.375 31.575 -0.375
18.375 31.575 2.925
18.375 31.575 1.725
18.375 31.575 0.225
19.275 31.125 0.825
19.275 31.125 -0.825
17.775 36.225 1.425
17.775 36.225 1.575
17.775 36.225 0.675
18.675 36.975 1.425
20.325 30.975 -4.575
18.225 36.675 3.525
18.225 36.675 2.775
18.225 36.675 2.025
18.225 36.675 1.275
18.225 36.675 2.625
18.225 36.675 2.925
20.025 30.975 2.925
20.025 30.975 1.425
21.225 31.125 0.525
21.225 31.125 -0.075
21.225 31.125 0.825
22.575 36.375 1.875
22.575 36.375 1.725
22.575 36.375 1.425
22.425 36.525 1.275
22.425 36.525 1.425
22.425 36.525 1.125
22.725 36.225 2.175
22.725 36.225 2.025
22.725 36.225 1.875
22.725 36.225 1.425
20.625 30.975 -0.225
18.825 31.275 1.275
22.275 36.675 1.575
17.625 36.075 1.425
17.625 36.075 0.375
18.375 36.825 1.125
18.375 36.825 0.975
18.375 36.825 2.325
18.375 36.825 1.725
18.525 31.425 0.975
18.525 31.425 0.225
21.675 31.275 0.675
21.675 31.275 0.975
23.475 34.125 1.125
19.725 30.975 0.525
19.725 30.975 0.825
23.475 34.275 1.575
20.775 30.975 -0.375
20.775 30.975 0.675
23.475 33.975 1.575
23.475 33.975 2.325
23.475 33.975 0.825
23.475 33.975 1.875
20.175 37.425 -0.225
20.325 37.425 0.975
17.325 35.625 0.375
23.475 34.425 0.675
21.225 37.275 -0.375
20.025 37.425 0.525
20.025 37.425 0.975
20.025 37.425 -0.375
20.025 37.425 -0.675
20.025 37.425 -0.225
20.025 37.425 -1.575
20.025 37.425 -0.825
17.025 34.725 -0.975
20.475 37.425 -0.825
20.475 37.425 0.525
20.475 37.425 -0.225
20.475 37.425 0.975
21.375 31.125 1.125
21.375 31.125 -0.075
21.375 31.125 0.825
21.375 31.125 0.675
23.475 33.825 2.025
23.475 33.825 2.175
18.825 37.125 0.075
18.825 37.125 0.825
19.875 37.425 -0.225
19.575 30.975 -0.225
19.575 30.975 1.275
19.575 30.975 0.825
19.575 30.975 1.425
20.625 37.425 -0.225
17.025 33.525 -1.425
20.925 30.975 1.125
20.925 30.975 0.075
18.525 36.975 1.425
23.475 33.675 2.175
23.475 33.675 1.425
18.225 31.575 1.875
19.725 37.425 -0.675
19.725 37.425 -0.075
17.925 36.525 2.175
18.675 31.275 2.475
17.775 36.375 1.125
17.775 36.375 1.875
18.975 31.125 0.825
18.075 36.675 2.625
18.075 36.675 2.775
18.075 36.675 2.025
18.075 36.675 3.975
18.075 36.675 2.475
18.075 36.675 3.075
18.075 36.675 2.925
18.075 36.675 1.125
19.425 30.975 0.825
21.075 30.975 0.075
21.075 30.975 0.825
21.075 30.975 -0.075
21.075 30.975 0.975
21.075 30.975 0.375
21.075 30.975 0.225
21.075 30.975 0.525
21.525 31.125 0.375
21.525 31.125 0.525
23.475 34.875 2.025
22.575 36.525 1.125
22.575 36.525 0.975
22.575 36.525 1.275
20.925 37.425 -0.375
20.925 37.425 1.875
18.375 31.425 2.325
22.725 36.375 2.325
22.725 36.375 1.875
22.725 36.375 1.425
22.725 36.375 2.175
22.725 36.375 1.575
22.425 36.675 1.275
18.225 36.825 2.025
18.225 36.825 1.875
18.225 36.825 2.625
18.225 36.825 2.325
18.225 36.825 2.925
18.225 36.825 2.775
23.175 32.625 1.575
23.175 32.625 3.675
23.325 32.925 2.175
18.675 37.125 1.725
23.475 33.375 0.675
22.875 36.225 2.175
22.875 36.225 1.875
19.275 30.975 0.825
19.425 37.425 1.725
19.425 37.425 1.425
17.475 36.075 5.325
21.225 30.975 0.825
21.225 30.975 1.275
21.225 30.975 0.075
21.225 30.975 1.125
21.525 37.275 -0.075
18.375 36.975 1.875
18.375 36.975 2.175
18.825 31.125 0.825
18.525 31.275 2.775
18.525 31.275 2.025
18.525 31.275 1.275
20.625 30.825 0.975
21.675 31.125 -0.375
21.675 31.125 0.225
21.675 31.125 0.675
18.075 31.575 -2.025
19.125 30.975 0.825
19.125 30.975 0.675
19.725 30.825 0.525
19.725 30.825 -0.525
23.625 34.125 1.875
23.625 34.125 0.675
23.625 34.125 2.025
23.625 34.275 2.025
20.775 30.825 0.975
21.225 37.425 -2.025
20.175 37.575 0.225
21.375 30.975 1.125
21.375 30.975 0.675
21.375 30.975 0.525
21.375 30.975 1.425
21.375 30.975 0.225
21.375 30.975 0.825
20.325 37.575 0.975
17.775 36.525 3.975
17.775 36.525 2.775
23.625 34.425 0.975
23.625 34.425 1.425
23.625 34.425 2.325
17.925 36.675 3.975
17.925 36.675 2.175
17.925 36.675 2.625
18.825 37.275 1.875
18.825 37.275 0.975
20.025 37.575 2.325
20.025 37.575 0.825
20.475 37.575 0.975
20.475 37.575 0.525
20.475 37.575 1.275
20.475 37.575 -0.075
20.475 37.575 1.425
18.225 31.425 0.825
18.225 31.425 0.675
18.225 31.425 3.225
18.525 37.125 1.875
23.625 33.825 2.025
23.625 33.825 1.125
23.625 33.825 1.725
23.625 33.825 1.275
23.625 34.575 2.025
23.625 34.575 0.975
19.575 30.825 -0.225
19.575 30.825 1.425
19.575 30.825 0.825
19.575 30.825 1.275
19.575 30.825 -0.375
18.075 36.825 2.925
18.075 36.825 0.675
18.075 36.825 2.625
19.875 37.575 0.825
20.925 30.825 0.225
20.925 30.825 1.275
23.475 33.075 3.375
22.725 36.525 1.125
22.725 36.525 1.275
22.575 36.675 1.125
18.675 31.125 1.125
23.625 33.675 0.825
19.725 37.575 0.225
19.725 37.575 -0.075
19.725 37.575 0.525
22.875 36.375 2.025
22.875 36.375 0.375
22.875 36.375 0.975
17.475 36.225 5.475
21.825 31.125 0.375
18.225 36.975 2.475
18.375 31.275 4.575
18.375 31.275 2.475
19.425 30.825 0.825
19.425 30.825 3.225
21.525 30.975 0.675
21.525 30.975 0.975
21.525 30.975 1.125
23.625 33.525 1.275
21.075 30.825 1.725
21.075 30.825 0.825
23.325 32.625 2.175
23.325 32.625 4.575
23.025 36.225 1.875
18.675 37.275 1.275
17.775 31.725 0.675
17.775 31.725 0.225
23.475 32.925 1.575
23.475 32.925 2.325
23.175 32.325 2.475
17.925 31.575 0.225
18.975 37.425 3.375
19.275 30.825 1.575
19.275 30.825 0.825
21.225 30.825 1.125
21.225 30.825 0.675
21.225 30.825 1.575
21.225 30.825 0.825
18.525 31.125 1.125
18.525 31.125 -0.375
18.525 31.125 2.325
18.525 31.125 1.425
18.825 30.975 0.675
22.575 31.575 2.025
21.075 37.575 -0.075
20.175 30.675 -0.375
20.325 30.675 -1.425
21.675 30.975 0.525
21.975 31.125 0.225
16.725 33.975 -1.875
22.425 31.425 -1.425
22.425 31.425 1.875
20.625 30.675 1.725
20.625 30.675 -0.225
23.025 32.025 2.625
23.025 32.025 3.225
22.725 36.675 0.675
22.725 36.675 1.425
23.325 32.475 1.725
18.225 31.275 1.875
23.475 32.775 1.425
23.475 32.775 2.325
23.475 32.775 0.825
22.875 36.525 2.325
22.875 36.525 1.425
22.875 36.525 1.575
22.875 36.525 1.725
22.875 36.525 1.875
22.875 36.525 0.975
18.075 36.975 2.325
22.575 36.825 1.125
19.725 30.675 0.825
19.725 30.675 1.275
21.375 30.825 0.825
21.375 30.825 1.275
21.375 30.825 2.025
21.375 30.825 0.525
21.375 30.825 0.675
23.775 34.275 2.175
23.775 34.275 0.975
23.775 34.275 5.475
20.775 30.675 0.225
23.775 33.975 2.175
23.775 33.975 2.025
23.775 33.975 1.875
20.175 37.725 -0.225
20.325 37.725 1.875
20.325 37.725 -0.075
20.325 37.725 0.975
23.775 34.425 2.175
23.025 36.375 2.175
23.025 36.375 1.875
23.025 36.375 1.575
20.025 37.725 0.825
20.475 37.725 0.975
20.475 37.725 1.425
20.475 37.725 -0.225
20.475 37.725 0.375
23.775 33.825 2.025
23.775 33.825 2.175
23.775 33.825 1.875
19.575 30.675 0.825
19.575 30.675 -0.375
19.575 30.675 0.525
19.575 30.675 1.275
23.775 34.575 0.975
17.025 32.625 3.075
18.225 37.125 2.175
20.925 30.675 0.375
20.925 30.675 2.025
20.625 37.725 0.375
20.625 37.725 -0.825
20.625 37.725 0.075
20.625 37.725 0.975
18.375 31.125 1.125
18.375 31.125 1.275
19.125 37.575 1.275
21.825 30.975 0.675
17.775 31.575 -0.075
18.975 30.825 0.825
18.975 30.825 0.675
19.725 37.725 0.375
19.725 37.725 0.975
22.275 37.125 -0.225
20.775 37.725 -1.125
21.525 30.825 0.675
21.525 30.825 0.525
17.925 31.425 -0.825
23.475 32.625 2.175
19.425 30.675 0.825
19.425 30.675 1.725
19.425 30.675 1.425
23.775 33.525 2.025
23.775 33.525 1.725
23.775 33.525 1.875
21.075 30.675 0.675
21.075 30.675 -0.075
18.675 37.425 2.325
18.675 37.425 2.025
23.775 34.875 0.825
17.775 36.825 2.325
23.625 32.925 2.775
23.025 31.875 3.375
17.925 36.975 2.475
18.525 30.975 0.975
18.525 30.975 2.175
19.275 30.675 1.875
21.525 37.575 -1.725
18.825 30.825 0.675
21.225 30.675 1.725
21.225 30.675 1.875
21.225 30.675 0.825
21.975 30.975 0.975
21.975 30.975 1.425
21.975 30.975 0.825
21.975 30.975 0.375
23.025 36.525 1.425
23.025 36.525 2.475
23.025 36.525 1.575
23.025 36.525 1.275
21.675 30.825 0.975
20.175 30.525 -0.225
20.325 30.525 -0.375
20.325 30.525 0.375
20.325 30.525 0.075
18.225 31.125 1.125
18.225 31.125 1.575
18.225 31.125 1.275
18.075 37.125 2.475
20.475 30.525 0.075
20.475 30.525 -0.225
23.475 32.475 0.525
23.775 33.225 0.825
16.575 34.425 -2.325
23.625 32.775 2.925
23.625 32.775 3.525
18.525 37.425 3.375
23.175 36.375 1.425
20.625 30.525 -0.075
19.125 30.675 0.825
19.125 30.675 1.425
19.275 37.725 1.725
16.575 33.825 0.825
18.825 37.575 0.825
23.475 35.925 5.325
21.375 30.675 0.525
21.375 30.675 0.975
21.375 30.675 1.125
21.225 37.725 -0.225
21.225 37.725 -0.525
23.625 35.625 5.025
17.775 31.425 0.075
23.925 34.125 1.275
20.775 30.525 1.425
20.775 30.525 0.825
23.925 34.275 1.275
23.925 34.275 1.125
23.925 33.975 1.875
23.925 33.975 2.325
18.675 30.825 4.425
18.675 30.825 2.175
20.175 37.875 0.975
20.175 37.875 2.025
20.175 37.875 -0.225
20.325 37.875 1.575
20.325 37.875 0.975
20.325 37.875 0.825
23.925 34.425 2.025
18.375 30.975 0.825
20.025 37.875 0.375
20.475 37.875 -0.075
20.475 37.875 1.275
20.475 37.875 0.975
20.475 37.875 0.375
20.475 37.875 1.425
20.475 37.875 -0.525
23.925 33.825 4.125
23.325 36.225 2.325
23.325 36.225 1.725
23.325 36.225 2.175
17.925 31.275 -0.525
23.775 33.075 4.425
19.575 30.525 0.825
19.575 30.525 1.275
19.575 30.525 0.525
19.575 30.525 -2.475
19.575 30.525 3.225
23.925 34.575 1.875
19.875 37.875 0.525
19.875 37.875 -0.075
20.925 30.525 0.975
19.125 37.725 1.125
22.125 30.975 1.275
20.625 37.875 0.075
20.625 37.875 -0.075
20.625 37.875 1.275
20.625 37.875 -0.225
23.925 33.675 2.025
23.925 33.675 1.725
23.925 33.675 3.075
23.925 33.675 2.175
16.575 34.875 2.175
17.775 36.975 2.625
21.375 37.725 -0.675
21.375 37.725 0.225
23.625 32.625 2.475
23.925 34.725 5.475
21.525 30.675 0.975
21.525 30.675 0.825
21.525 30.675 0.525
21.525 30.675 0.675
19.725 37.875 0.825
19.725 37.875 0.675
20.775 37.875 0.375
18.075 31.125 0.075
18.675 37.575 2.325
18.675 37.575 0.525
18.675 37.575 1.425
18.675 37.575 2.475
19.425 30.525 0.375
19.425 30.525 1.875
16.725 35.475 -2.475
18.375 37.425 0.825
17.925 37.125 0.375
17.925 37.125 3.525
23.025 36.675 1.125
23.025 36.675 0.825
23.025 36.675 1.275
23.025 36.675 0.975
21.075 30.525 0.675
23.925 33.525 2.025
23.475 36.075 2.175
19.575 37.875 1.125
20.925 37.875 -0.525
20.925 37.875 -0.225
23.175 36.525 1.425
18.975 37.725 1.125
23.325 32.025 1.425
23.775 35.475 3.525
23.775 35.475 5.325
19.275 30.525 0.825
21.525 37.725 0.675
21.525 37.725 3.225
18.075 37.275 0.825
21.975 30.825 0.075
23.925 33.375 1.425
21.225 30.525 1.125
21.225 30.525 0.825
21.225 30.525 0.675
21.675 30.675 0.825
21.675 30.675 0.675
17.475 31.575 0.525
23.325 36.375 1.725
23.325 36.375 1.275
23.625 32.475 3.075
23.625 32.475 2.625
20.175 30.375 0.225
20.175 30.375 0.075
20.175 30.375 0.825
20.175 30.375 0.375
20.175 30.375 -0.075
20.175 30.375 -0.375
20.325 30.375 -0.075
20.325 30.375 -0.225
17.775 31.275 0.825
17.775 31.275 0.375
17.775 31.275 -0.225
20.025 30.375 0.525
23.775 32.775 0.975
23.475 32.175 2.475
23.475 32.175 1.875
20.475 30.375 -0.225
23.925 33.225 2.025
23.625 35.925 2.775
18.825 37.725 1.275
18.225 37.425 3.675
20.625 30.375 3.075
20.625 30.375 -0.375
20.625 30.375 -0.525
17.625 36.975 3.675
21.375 30.525 0.675
21.375 30.525 1.125
21.375 30.525 1.575
17.925 31.125 0.675
21.225 37.875 -0.225
21.675 37.725 5.175
18.375 30.825 -0.675
18.375 30.825 2.775
20.775 30.375 0.825
24.075 34.125 1.725
24.075 34.125 1.125
21.825 30.675 2.025
21.825 30.675 0.675
23.025 36.825 1.275
23.025 36.825 1.725
23.025 36.825 1.875
22.125 30.825 1.125
22.125 30.825 1.425
22.125 30.825 0.225
20.175 38.025 -1.275
24.075 34.425 2.025
20.325 38.025 0.825
20.325 38.025 -0.525
20.325 38.025 0.975
20.325 38.025 1.875
20.025 38.025 0.675
20.475 38.025 -0.525
20.475 38.025 -0.075
20.475 38.025 1.425
20.475 38.025 0.825
24.075 33.825 2.775
24.075 33.825 2.025
19.575 30.375 -0.375
19.575 30.375 -0.675
19.575 30.375 1.275
19.575 30.375 -0.075
19.125 37.875 2.325
18.075 30.975 0.525
17.025 32.025 0.675
17.025 32.025 0.825
17.925 37.275 0.225
