# .PCD v0.7 - Point Cloud Data file format
VERSION 0.7
FIELDS x y z
SIZE 4 4 4
TYPE F F F
COUNT 1 1 1
WIDTH 2048
HEIGHT 1
VIEWPOINT 0 0 0 1 0 0 0
POINTS 2048
DATA ascii
31.125 2.475 0.225
31.125 2.325 -0.225
30.975 2.325 0.375
31.275 2.325 0.225
31.125 2.175 -0.825
31.125 2.175 -1.125
30.975 2.775 -0.525
30.975 2.775 -0.075
30.975 2.175 -0.075
30.975 2.175 -0.225
31.425 2.325 0.075
31.425 2.775 0.225
31.425 2.175 0.075
30.825 2.175 0.975
30.825 2.175 0.825
30.825 2.175 -0.225
31.125 2.025 0.825
31.125 2.025 -0.825
30.975 2.925 -2.475
30.975 2.025 0.675
31.275 2.025 0.975
30.675 2.775 -0.225
30.675 2.775 0.375
30.675 2.775 0.525
30.825 2.925 -0.075
30.825 2.025 0.075
30.825 2.025 0.675
31.125 1.875 0.825
31.725 2.475 1.575
31.275 1.875 0.825
30.975 1.875 0.375
30.525 2.625 -0.675
31.725 2.625 -0.075
30.675 2.925 0.225
31.575 2.025 -0.225
30.825 1.875 0.675
31.425 1.875 0.225
30.825 1.875 0.975
30.825 1.875 -1.575
31.425 1.875 -0.225
30.825 1.875 -0.225
31.725 2.175 1.875
31.575 1.875 0.075
30.675 1.875 -0.075
30.675 1.875 0.825
31.125 1.725 -0.525
30.525 2.025 2.775
31.725 2.025 0.225
30.525 2.025 -0.525
30.525 2.025 -0.825
30.975 1.725 -0.075
31.275 1.725 -0.075
30.975 1.725 -0.225
31.275 1.725 1.125
30.375 2.325 0.825
30.375 2.625 -1.125
30.375 2.625 0.375
31.875 2.175 -0.225
31.425 1.725 0.075
30.825 1.725 0.075
30.825 1.725 -1.425
30.525 1.875 -0.525
30.525 1.875 0.975
30.675 1.725 0.825
30.675 1.725 -0.825
30.375 2.025 -0.075
30.225 2.475 0.825
31.125 1.575 0.375
31.125 1.575 -0.225
30.225 2.325 -0.525
30.225 2.325 0.825
30.225 2.325 -0.225
30.225 2.325 -0.675
30.225 2.325 -0.825
30.225 2.625 0.525
30.975 1.575 0.825
30.225 2.775 0.825
32.025 2.775 -2.775
32.025 2.775 1.275
30.225 2.175 -0.225
30.225 2.175 -0.375
32.025 2.175 -0.375
31.425 1.575 0.375
31.425 1.575 -0.075
30.825 1.575 -0.825
30.825 1.575 -0.075
30.375 1.875 0.225
30.375 1.875 -0.075
30.375 1.875 3.075
30.375 1.875 -0.225
30.375 1.875 -0.375
30.375 1.875 0.075
30.525 1.725 0.825
31.725 1.725 0.225
31.725 3.225 -0.075
30.225 2.025 0.675
31.575 1.575 -0.075
30.675 1.575 -0.075
30.675 1.575 1.725
31.125 3.525 4.575
31.125 1.425 -0.075
32.175 2.325 5.025
30.975 1.425 0.825
30.975 1.425 -0.225
31.275 1.425 -0.225
30.975 1.425 -0.375
31.275 1.425 -0.075
31.875 3.225 0.375
30.375 1.725 -0.375
31.875 3.225 -0.525
30.075 2.325 0.975
30.225 1.875 -1.425
30.225 1.875 -0.225
30.525 1.575 -0.075
31.725 1.575 -0.075
30.525 1.575 1.125
30.525 1.575 0.825
32.175 2.775 0.225
30.825 3.525 -0.075
30.825 1.425 0.825
31.425 1.425 0.825
30.825 1.425 -0.075
30.825 1.425 0.525
31.425 1.425 -0.675
30.075 2.175 0.075
30.075 2.175 0.825
30.075 2.175 -0.075
30.075 2.175 -0.225
32.175 2.925 -0.225
31.575 1.425 -0.225
30.675 1.425 1.875
31.575 1.425 -0.075
31.575 1.425 0.675
31.575 1.425 -0.975
30.675 1.425 -0.225
30.675 1.425 1.275
30.075 2.025 -0.075
30.075 2.025 0.825
32.025 1.725 -0.975
30.225 1.725 -0.075
30.375 1.575 1.875
30.375 1.575 -0.225
31.875 1.575 0.975
31.875 1.575 -0.375
31.875 1.575 -0.225
31.125 1.275 -0.675
32.175 1.875 2.175
29.925 2.325 0.675
29.925 2.625 0.375
31.275 1.275 0.075
31.275 1.275 -1.275
30.975 1.275 1.275
30.975 1.275 1.575
30.525 1.425 -0.225
30.075 1.875 -0.075
30.525 1.425 0.375
30.525 1.425 1.125
30.075 1.875 0.375
30.075 1.875 -4.725
30.075 1.875 0.825
31.725 1.425 -0.375
29.925 2.175 -0.675
29.925 2.175 0.675
29.925 2.175 0.825
30.825 3.675 5.025
30.825 1.275 0.675
31.425 1.275 1.875
30.225 1.575 -0.525
29.925 2.025 0.525
29.925 2.025 0.825
29.925 2.025 -0.375
29.925 2.025 0.675
30.675 1.275 -0.225
30.675 1.275 0.825
31.575 1.275 0.075
30.675 1.275 1.425
30.675 1.275 1.275
31.575 1.275 2.175
31.875 1.425 -0.525
30.375 1.425 0.225
30.375 1.425 0.825
30.075 1.725 0.825
30.075 1.725 -0.075
30.075 1.725 0.225
29.925 1.875 -0.225
29.925 1.875 0.225
29.925 1.875 0.825
31.725 1.275 -0.525
30.525 1.275 0.825
30.525 1.275 1.275
31.125 1.125 -0.375
30.975 1.125 -0.525
30.975 1.125 -0.375
31.275 1.125 -0.525
29.775 2.325 0.675
32.025 1.425 -0.825
32.025 1.425 -0.675
32.025 1.425 0.075
30.225 1.425 0.825
30.225 1.425 -2.025
32.025 1.425 0.375
30.225 1.425 -0.675
31.425 1.125 0.825
31.425 1.125 -1.125
31.425 1.125 -0.225
30.075 1.575 -0.225
30.075 1.575 0.825
30.075 1.575 1.425
29.775 2.175 -0.075
29.925 1.725 0.825
29.925 1.725 -0.225
29.925 1.725 -0.375
30.375 1.275 1.125
30.375 1.275 0.825
31.575 1.125 0.825
30.675 1.125 0.525
31.575 1.125 -0.075
31.575 1.125 1.875
31.725 3.825 4.875
30.525 1.125 -0.375
30.525 1.125 1.875
31.725 1.125 -0.075
31.725 1.125 0.825
30.525 1.125 0.825
30.525 1.125 -1.275
31.725 1.125 1.725
29.775 1.875 -1.275
29.775 1.875 0.825
29.775 1.875 0.675
32.175 1.425 -0.075
32.175 1.425 0.825
30.075 1.425 -0.225
32.025 1.275 0.675
30.225 1.275 -0.525
30.225 1.275 0.825
30.225 1.275 -0.675
29.925 1.575 0.375
29.925 1.575 1.275
29.925 1.575 0.825
29.925 1.575 1.875
29.925 1.575 -1.125
32.625 2.475 -2.625
30.975 0.975 -0.525
31.275 0.975 -0.375
29.625 2.325 0.675
29.625 2.625 -0.375
29.625 2.775 0.075
29.625 2.175 0.675
31.425 0.975 0.825
31.425 0.975 0.375
31.425 0.975 -0.225
31.875 3.825 0.825
31.875 1.125 -0.375
31.875 1.125 0.825
30.375 1.125 -0.225
29.775 1.725 1.725
29.775 1.725 1.875
29.775 1.725 0.675
31.575 0.975 1.125
31.575 0.975 1.275
31.575 0.975 -0.075
30.675 0.975 -0.525
29.625 2.925 -0.375
29.625 2.025 0.525
29.625 2.025 -0.075
29.625 2.025 -0.225
29.625 2.025 0.675
29.625 2.025 -0.525
32.175 1.275 0.825
29.925 1.425 0.825
29.925 1.425 1.275
29.925 1.425 -0.225
29.925 1.425 -0.375
30.075 1.275 -0.375
30.075 1.275 -0.525
30.075 1.275 0.225
32.325 1.425 0.675
32.325 1.425 -0.225
32.325 1.425 -0.375
29.625 1.875 -0.075
29.625 1.875 -0.225
31.725 0.975 0.825
31.725 3.975 0.525
30.525 0.975 2.025
31.725 0.975 1.275
30.225 1.125 -0.825
30.225 1.125 -0.225
32.025 3.825 0.225
32.025 1.125 -0.075
32.025 1.125 0.825
29.775 1.575 1.275
29.775 1.575 -0.075
29.775 1.575 1.575
29.775 1.575 1.725
31.125 0.825 -0.375
29.475 2.175 0.675
31.875 0.975 1.575
31.875 0.975 -0.525
30.375 0.975 0.075
31.875 0.975 0.825
31.875 0.975 -0.075
29.625 1.725 1.875
29.625 1.725 -0.075
30.375 0.975 0.525
31.875 0.975 1.125
29.625 1.725 -0.375
29.625 1.725 0.975
30.375 0.975 0.225
29.625 1.725 0.675
31.875 0.975 1.275
29.625 3.225 0.075
32.625 1.725 -0.525
31.425 0.825 1.875
31.425 0.825 1.575
31.425 0.825 1.725
30.825 0.825 -0.675
29.925 1.275 -0.075
29.925 1.275 -0.225
29.925 1.275 0.225
29.925 1.275 0.375
32.325 1.275 0.825
32.325 1.275 0.675
32.175 1.125 0.825
32.175 1.125 1.725
29.475 2.025 0.525
31.575 4.125 1.125
31.575 0.825 -0.225
31.575 0.825 2.175
30.075 1.125 0.075
30.075 1.125 0.225
29.775 1.425 1.275
32.475 1.425 0.375
32.475 1.425 -0.075
32.475 1.425 0.825
29.775 1.425 -0.375
29.775 1.425 0.825
32.025 0.975 1.725
32.025 0.975 -0.525
32.025 3.975 1.725
29.625 3.375 0.225
32.625 1.575 0.975
29.625 1.575 1.425
29.625 1.575 2.325
32.625 1.575 0.675
32.625 1.575 0.075
29.625 1.575 0.675
32.775 1.875 1.425
29.475 1.875 0.675
29.475 1.875 -0.825
29.475 1.875 1.425
30.525 0.825 2.025
31.725 0.825 -0.225
31.725 0.825 0.825
31.725 0.825 0.525
31.125 0.675 -0.675
31.125 0.675 -0.825
29.925 1.125 -0.675
29.925 1.125 -0.075
29.925 1.125 0.075
31.275 0.675 -0.225
29.325 2.325 0.675
29.775 1.275 0.225
32.475 1.275 0.825
32.325 1.125 -0.075
32.325 1.125 -0.375
29.475 1.725 -0.375
31.875 4.125 5.325
30.375 0.825 -0.375
30.375 0.825 -0.975
30.825 0.675 -5.625
29.325 2.175 0.675
32.175 0.975 0.825
32.175 0.975 1.275
29.625 1.425 -0.075
29.625 1.425 1.275
29.625 1.425 0.225
29.625 1.425 0.675
29.625 1.425 0.375
29.625 1.425 -0.225
32.625 1.425 0.225
29.625 1.425 1.125
32.625 1.425 0.825
30.075 0.975 -0.225
30.075 0.975 -0.075
30.675 0.675 2.325
31.575 0.675 1.725
29.325 2.025 0.675
29.325 2.025 0.975
29.325 2.025 0.525
29.325 2.025 -0.525
29.475 1.575 0.675
29.475 1.575 1.425
29.475 1.575 1.725
29.475 3.375 -0.075
32.025 0.825 -0.225
30.225 0.825 -0.375
30.525 0.675 -0.825
29.325 1.875 0.525
29.325 1.875 -0.225
29.775 1.125 0.225
32.475 1.125 0.675
29.925 0.975 -0.375
29.925 0.975 -0.075
29.625 1.275 0.075
29.625 1.275 -0.075
32.325 0.975 0.675
32.325 0.975 1.275
32.325 0.975 1.125
31.875 0.675 -0.225
29.325 1.725 0.675
29.325 1.725 1.575
29.325 1.725 1.725
32.175 0.825 0.375
32.175 0.825 0.675
29.475 1.425 0.375
32.775 1.425 -0.525
29.475 1.425 0.675
29.475 1.425 0.825
29.475 1.425 1.125
29.175 2.325 -0.375
31.275 0.525 0.075
30.075 0.825 -0.675
30.825 0.525 -0.825
29.175 2.025 0.975
29.175 2.025 0.675
29.175 2.025 0.825
29.175 2.925 -0.975
29.175 2.025 0.225
31.575 4.425 0.975
31.575 4.425 1.575
30.675 0.525 -0.825
30.675 0.525 -0.675
29.325 3.375 0.375
29.325 1.575 1.275
29.325 1.575 -0.075
32.625 1.125 0.675
29.625 1.125 0.675
32.625 1.125 1.725
29.775 0.975 0.675
29.775 0.975 -0.525
32.475 0.975 -0.075
32.475 0.975 0.825
29.775 0.975 0.075
29.475 3.675 0.225
29.475 3.675 0.675
29.475 1.275 0.375
29.475 1.275 0.225
32.775 1.275 0.525
29.175 1.875 0.675
29.175 1.875 0.825
29.175 1.875 0.525
29.925 0.825 -0.525
29.925 0.825 2.325
29.925 0.825 0.075
29.925 0.825 -0.225
29.925 0.825 -0.375
30.525 0.525 -0.525
32.325 0.825 -0.075
32.325 0.825 0.075
32.175 0.675 0.075
30.075 0.675 0.525
30.075 0.675 1.575
29.325 1.425 0.825
29.325 1.425 0.675
29.175 1.725 -0.075
29.175 1.725 0.675
29.175 3.225 -1.425
30.375 0.525 -0.975
31.125 0.375 -0.375
29.025 2.325 0.525
32.625 0.975 1.275
32.625 0.975 -0.375
32.625 0.975 0.675
32.625 0.975 1.125
29.025 2.175 0.075
29.025 2.175 1.125
29.475 3.825 -0.225
32.775 1.125 0.675
29.775 0.825 -0.075
29.775 0.825 -0.525
32.475 0.825 0.375
32.475 0.825 0.225
32.475 0.825 0.675
29.175 1.575 1.875
29.175 1.575 1.125
29.175 1.575 1.425
29.175 3.375 -0.075
29.175 1.575 3.375
29.175 1.575 0.675
30.225 0.525 2.175
30.675 4.575 4.875
29.025 2.025 0.825
29.025 2.025 0.075
33.075 1.575 0.825
32.925 1.275 0.675
32.925 1.275 0.075
29.925 0.675 2.775
29.925 0.675 0.075
29.925 0.675 -0.825
29.925 4.275 1.125
29.325 1.275 0.375
29.325 1.275 -0.075
32.325 0.675 -0.225
31.725 4.575 1.575
29.025 1.875 0.675
29.025 1.875 0.525
29.025 1.875 -0.375
29.175 1.425 1.125
29.175 1.425 0.975
29.175 1.425 0.675
29.175 1.425 2.025
29.175 1.425 -0.075
30.075 0.525 0.975
33.075 1.425 0.675
32.775 0.975 1.275
29.475 3.975 1.125
29.475 3.975 0.075
29.475 0.975 -0.375
32.775 0.975 0.675
31.875 0.375 -0.675
29.025 1.725 0.525
29.025 1.725 0.675
29.025 1.725 1.575
29.025 1.725 2.325
29.025 1.725 1.725
32.925 1.125 0.675
31.125 4.725 -0.225
29.325 3.825 1.125
32.475 0.675 -0.075
32.475 0.675 -0.225
29.775 4.275 1.725
32.025 0.375 2.325
30.225 0.375 0.225
29.025 1.575 1.275
33.225 1.575 0.675
29.025 1.575 0.675
29.025 1.575 1.725
29.925 4.425 3.675
29.175 1.275 -0.375
29.925 0.525 -0.225
33.075 1.275 0.675
33.075 1.275 0.525
31.575 4.725 0.975
28.875 1.875 0.675
28.875 1.875 -0.525
31.725 0.225 -0.975
29.475 4.125 0.825
32.775 0.825 0.675
32.775 0.825 -0.075
29.475 0.825 -0.375
32.925 0.975 -0.525
32.925 0.975 0.825
29.625 0.675 -0.525
29.625 0.675 -0.825
29.625 4.275 1.575
29.625 4.275 1.275
29.325 0.975 -0.225
29.325 0.975 -0.525
30.075 4.575 4.125
29.025 1.425 1.125
29.025 1.425 0.675
29.025 1.425 0.225
29.175 3.825 -0.225
29.175 3.825 -0.375
29.175 1.125 0.675
28.875 1.725 -0.375
28.875 1.725 0.675
29.775 0.525 -0.075
29.775 0.525 -0.375
32.475 0.525 1.275
32.475 0.525 0.525
33.075 1.125 1.725
33.075 1.125 0.675
33.075 1.125 0.375
33.075 1.125 -4.725
28.725 2.325 3.075
30.975 0.075 3.525
28.725 2.175 -0.225
29.925 0.375 -0.525
33.225 1.275 0.675
29.025 1.275 -0.075
29.025 1.275 0.675
32.025 0.225 -5.025
28.875 3.375 -0.825
28.875 1.575 0.675
28.875 1.575 1.725
32.925 0.825 0.525
32.925 0.825 -0.075
32.925 0.825 0.375
32.925 0.825 0.675
28.725 2.025 -0.675
29.475 4.275 0.375
29.325 4.125 1.425
29.325 4.125 1.125
29.175 3.975 -0.075
32.625 0.525 -0.525
29.625 0.525 0.075
33.075 0.975 0.675
33.075 0.975 0.825
28.725 1.875 0.675
30.525 0.075 -1.575
31.725 0.075 2.775
32.175 0.225 -0.375
28.875 3.525 -0.675
28.875 1.425 0.675
28.875 1.425 0.225
28.875 1.425 -0.225
28.875 1.425 1.125
28.875 1.425 0.975
33.375 1.425 0.525
28.875 1.425 1.425
30.075 0.225 -2.475
30.075 0.225 0.225
33.225 1.125 0.675
28.725 1.725 0.675
30.375 0.075 0.975
30.375 0.075 0.675
32.925 0.675 0.525
29.325 0.675 -0.375
29.325 4.275 -0.825
29.925 4.725 3.975
29.925 0.225 -0.525
33.375 1.275 0.225
28.875 1.275 -0.375
28.875 1.275 -0.075
28.875 1.275 0.675
28.875 1.275 0.225
32.325 0.225 -0.225
29.475 4.425 0.225
29.475 0.525 -0.675
29.175 4.125 -0.225
29.175 4.125 1.425
33.075 0.825 1.125
33.075 0.825 0.375
33.075 0.825 0.225
33.075 0.825 0.675
28.725 1.575 0.675
28.725 1.575 1.575
28.725 1.575 -0.075
32.025 0.075 -0.525
32.025 0.075 -0.225
32.025 0.075 -0.075
32.025 0.075 0.225
29.625 0.375 0.075
29.625 0.375 -0.375
29.625 4.575 0.375
32.625 0.375 -0.375
33.225 0.975 0.675
33.225 0.975 1.725
33.225 0.975 0.075
33.225 0.975 1.425
29.025 0.975 -0.375
29.025 0.975 -0.975
33.225 0.975 -0.225
29.025 0.975 -0.225
29.025 0.975 -0.525
31.575 -0.075 -2.475
30.675 -0.075 0.375
28.575 2.025 1.725
28.575 2.025 1.875
28.575 2.025 0.825
28.575 2.025 0.525
28.725 1.425 1.575
28.725 1.425 0.225
28.725 1.425 1.725
28.725 1.425 3.525
28.725 1.425 0.675
28.725 1.425 -0.375
32.175 0.075 -2.175
30.525 -0.075 -2.325
28.575 1.875 -0.375
28.875 1.125 0.225
33.375 1.125 -0.225
33.375 1.125 1.725
33.375 1.125 0.675
29.775 0.225 2.625
32.925 0.525 -2.625
29.175 0.675 0.375
29.175 0.675 -0.075
29.175 0.675 -3.225
29.175 0.675 -0.525
29.175 4.275 1.125
29.325 0.525 0.225
33.075 0.675 -0.225
30.375 -0.075 0.825
30.375 -0.075 2.625
28.575 1.725 -0.825
28.575 1.725 0.675
29.475 4.575 1.275
29.475 0.375 0.075
33.225 0.825 1.275
33.225 0.825 1.125
29.025 0.825 -0.075
29.025 0.825 0.375
33.225 0.825 0.075
28.725 1.275 0.675
28.725 1.275 -0.075
28.725 1.275 0.225
28.725 1.275 1.125
33.525 1.275 0.525
29.925 0.075 -0.075
29.925 0.075 2.925
32.325 0.075 0.225
32.325 0.075 -2.925
30.225 -0.075 0.675
30.225 -0.075 1.125
33.375 0.975 1.725
33.375 0.975 1.425
28.875 0.975 -0.225
32.625 0.225 -3.075
32.625 0.225 -0.525
28.875 3.975 -0.675
28.575 3.375 1.125
28.575 1.575 -0.375
28.575 1.575 -0.225
31.425 -0.225 4.275
28.425 2.025 0.675
28.425 2.025 0.825
28.425 2.025 -0.375
31.575 -0.225 2.475
30.675 -0.225 1.275
28.725 1.125 -0.375
28.725 1.125 -0.825
28.725 1.125 -0.225
33.525 1.125 0.675
29.775 0.075 -0.225
29.775 0.075 2.025
29.775 0.075 1.875
32.475 0.075 4.725
32.475 0.075 -0.675
29.775 4.875 0.825
32.175 -0.075 -0.225
29.175 0.525 -0.675
30.075 -0.075 1.275
28.575 1.425 -0.525
28.575 1.425 0.675
33.075 0.525 -2.625
32.925 0.375 -0.375
28.425 1.875 -4.425
28.425 1.875 0.825
28.425 1.875 0.975
31.725 5.175 -0.375
29.325 4.575 1.725
29.325 0.375 0.075
30.525 -0.225 3.375
29.025 0.675 -0.525
29.025 0.675 0.075
29.025 0.675 0.375
29.475 0.225 0.075
29.475 0.225 0.675
33.375 0.825 1.275
28.875 0.825 1.875
28.875 0.825 0.375
28.875 0.825 -0.525
28.425 1.725 0.675
30.375 -0.225 0.975
30.375 -0.225 1.275
30.375 -0.225 0.825
30.375 -0.225 0.675
33.675 1.275 0.675
29.925 -0.075 -2.775
29.925 -0.075 1.425
29.925 -0.075 1.275
28.575 1.275 1.275
28.575 1.275 0.975
28.575 1.275 0.075
28.575 1.275 0.675
28.575 1.275 0.225
28.575 1.275 -0.075
32.325 5.025 1.425
32.325 -0.075 0.225
33.525 0.975 0.825
28.725 0.975 -0.675
32.625 0.075 -2.025
29.625 4.875 0.825
28.425 1.575 1.725
28.425 1.575 0.675
28.425 1.575 1.875
30.225 -0.225 1.275
30.225 -0.225 1.125
32.025 -0.225 -2.325
30.225 -0.225 0.975
30.975 -0.375 -1.575
33.225 0.525 -0.675
33.225 0.525 -0.225
32.925 0.225 2.025
32.925 0.225 0.525
32.925 0.225 1.575
28.875 0.675 1.575
29.325 4.725 1.125
29.325 4.725 0.075
29.325 0.225 -0.375
33.675 3.825 -0.225
29.775 5.025 0.225
29.775 -0.075 2.475
29.775 -0.075 1.875
28.575 1.125 -0.375
28.575 1.125 -0.225
29.775 -0.075 1.425
29.775 -0.075 2.925
29.775 -0.075 1.725
33.975 2.925 3.225
32.175 5.175 -1.275
32.175 -0.225 -0.375
28.425 1.425 1.875
28.425 1.425 0.675
28.425 1.425 1.575
28.425 1.425 1.725
30.075 -0.225 1.425
30.075 -0.225 1.275
30.075 -0.225 1.125
33.825 1.425 0.675
32.775 0.075 -0.225
33.525 0.825 -0.525
29.475 4.875 1.125
28.725 0.825 -0.375
33.525 0.825 0.675
33.525 0.825 0.225
31.725 -0.375 -2.625
30.525 -0.375 0.975
30.375 -0.375 1.275
30.375 -0.375 1.125
30.375 -0.375 1.575
30.375 -0.375 0.825
28.425 1.275 -0.225
28.425 1.275 1.125
29.925 5.175 3.225
29.925 -0.225 -2.475
29.925 -0.225 1.425
29.925 -0.225 1.275
29.925 -0.225 1.875
33.825 1.275 0.675
33.675 0.975 1.425
33.675 0.975 0.675
33.675 0.975 0.375
29.625 5.025 1.425
29.625 5.025 0.675
29.625 5.025 1.575
29.625 5.025 -0.225
29.625 -0.075 -3.075
29.625 -0.075 -0.375
28.575 0.975 -0.225
29.025 0.375 0.225
33.225 0.375 -0.375
29.025 0.375 -0.375
29.025 0.375 -0.525
29.175 0.225 -3.075
29.175 0.225 0.075
29.175 0.225 0.225
33.375 0.525 -0.075
28.875 0.525 0.975
30.225 -0.375 1.575
30.225 -0.375 1.425
30.225 -0.375 1.275
30.225 5.325 -0.225
28.275 1.575 2.025
28.275 1.575 -0.975
28.725 0.675 -0.375
28.725 0.675 -0.225
28.125 2.175 1.725
28.125 2.775 0.075
28.425 1.125 -0.225
29.775 -0.225 2.025
33.825 1.125 -0.075
33.825 1.125 0.675
30.675 -0.525 -1.275
28.125 2.025 0.825
34.125 2.025 -1.125
34.125 2.025 -1.275
33.675 0.825 0.375
33.675 0.825 -4.275
33.675 0.825 1.125
33.675 4.125 -0.225
32.175 -0.375 -2.175
32.175 -0.375 -2.325
32.775 -0.075 2.025
32.775 -0.075 3.675
29.475 -0.075 -2.925
29.475 5.025 1.725
29.475 5.025 1.425
30.075 -0.375 3.675
30.075 -0.375 1.275
30.075 -0.375 1.425
30.075 -0.375 3.075
30.075 -0.375 1.575
28.275 1.425 1.725
33.975 1.425 1.575
33.975 1.425 0.675
33.975 1.425 0.225
28.275 1.425 0.675
28.125 1.875 0.675
33.375 0.375 -0.075
33.375 0.375 -0.225
29.025 0.225 -0.525
28.425 0.975 -0.375
28.425 0.975 -1.275
28.425 0.975 -0.225
29.625 5.175 1.725
33.825 0.975 -0.375
33.825 0.975 1.275
33.825 0.975 0.225
33.825 0.975 0.825
33.525 4.425 1.875
33.525 0.525 0.225
29.925 -0.375 2.025
29.925 -0.375 1.425
30.375 -0.525 1.425
28.125 1.725 0.675
32.325 -0.375 3.675
32.325 -0.375 4.425
28.275 1.275 0.675
28.275 1.275 1.275
33.975 1.275 -0.075
28.275 1.275 0.375
33.075 0.075 1.125
33.075 0.075 0.075
33.075 0.075 -0.825
33.075 0.075 1.425
32.925 -0.075 0.525
32.925 -0.075 -0.225
32.925 -0.075 2.625
32.925 -0.075 1.425
28.575 0.675 -0.075
28.575 0.675 -0.675
28.575 0.675 -0.225
28.575 0.675 -0.525
30.225 -0.525 0.825
30.225 -0.525 1.125
30.225 -0.525 1.575
30.225 -0.525 0.975
28.125 1.575 -0.225
28.125 1.575 1.725
28.125 1.575 -0.525
28.125 1.575 0.675
28.125 1.575 -0.375
28.125 1.575 2.325
32.475 -0.375 3.675
32.475 -0.375 -0.225
29.775 -0.375 0.675
29.775 -0.375 1.725
29.775 5.325 0.375
33.975 1.125 0.675
33.975 1.125 1.725
33.975 1.125 1.875
33.975 1.125 -0.375
33.975 1.125 -0.225
28.275 1.125 0.675
28.275 1.125 -0.375
32.775 -0.225 1.875
32.775 -0.225 1.575
28.425 0.825 0.075
28.425 0.825 -0.675
28.425 0.825 -0.375
28.425 0.825 -0.525
28.425 0.825 -0.225
28.425 0.825 -0.075
33.825 0.825 0.825
33.825 0.825 -0.825
33.825 0.825 2.775
33.825 0.825 -0.225
33.825 0.825 -0.525
28.125 1.425 -0.375
28.125 1.425 -0.225
28.125 1.425 1.575
28.125 1.425 -0.675
28.125 1.425 0.675
34.125 1.425 0.075
30.075 -0.525 1.425
30.075 -0.525 1.125
30.075 -0.525 1.275
30.075 -0.525 1.575
30.075 -0.525 1.725
27.975 2.025 0.825
34.275 2.025 -2.175
34.275 2.925 -0.975
28.875 0.225 -0.225
28.875 0.225 0.525
33.375 0.225 -0.075
30.675 -0.675 0.675
30.675 -0.675 0.825
28.725 0.375 -0.075
33.525 0.375 -0.375
33.525 0.375 -0.225
33.225 0.075 1.725
33.225 0.075 0.675
33.225 0.075 1.575
33.225 0.075 1.875
27.975 1.875 0.675
27.975 1.875 -0.075
30.525 -0.675 1.125
30.525 -0.675 0.975
29.175 -0.075 0.975
29.175 5.025 1.275
28.575 0.525 -0.075
29.625 5.325 4.125
32.625 -0.375 0.225
32.625 -0.375 2.475
33.975 0.975 1.575
33.975 0.975 0.825
33.975 0.975 1.425
33.975 0.975 0.675
33.975 0.975 -0.525
33.975 0.975 -0.375
33.975 0.975 1.275
28.275 0.975 -0.225
29.925 -0.525 2.325
28.125 1.275 0.675
34.125 1.275 0.825
34.125 1.275 0.525
28.125 1.275 1.275
28.125 1.275 1.125
27.975 1.725 0.675
32.925 5.175 1.725
32.925 -0.225 2.025
32.925 -0.225 2.325
32.925 -0.225 0.975
28.425 0.675 1.425
28.425 0.675 -0.675
28.425 0.675 0.075
28.425 0.675 2.325
33.825 0.675 0.075
33.825 4.275 1.875
27.975 1.575 -0.225
34.275 1.575 -0.525
30.225 -0.675 1.425
30.225 -0.675 1.275
30.225 -0.675 0.825
28.125 1.125 -0.075
28.125 1.125 -0.225
28.125 1.125 -0.375
28.125 1.125 -0.525
33.375 0.075 1.725
34.125 1.125 -1.425
29.775 5.475 3.375
32.475 -0.525 1.725
32.475 -0.525 4.725
29.775 -0.525 2.175
32.775 -0.375 1.575
32.775 -0.375 1.725
28.275 4.125 1.875
33.975 0.825 0.225
33.975 0.825 1.125
33.975 0.825 -0.525
33.975 0.825 0.375
33.975 0.825 -0.375
33.975 0.825 -0.075
33.975 0.825 1.275
33.975 0.825 0.825
31.125 -0.825 2.325
31.275 -0.825 0.825
28.575 0.375 0.225
33.225 -0.075 2.325
33.225 5.025 1.425
29.025 5.025 0.825
34.425 2.175 1.275
30.825 -0.825 -1.125
27.825 2.175 0.075
27.975 1.425 0.675
27.975 1.425 1.725
27.975 1.425 1.425
34.275 1.425 1.275
34.275 1.425 -0.375
32.175 -0.675 -2.325
30.075 -0.675 2.175
30.075 -0.675 1.575
30.075 -0.675 1.275
30.075 -0.675 1.725
30.075 -0.675 1.875
29.175 5.175 1.125
29.175 -0.225 -0.075
30.675 -0.825 -0.825
28.425 0.525 -3.525
28.425 0.525 -3.675
28.425 0.525 -0.225
28.425 0.525 0.075
33.075 -0.225 2.625
33.075 -0.225 2.475
33.075 -0.225 0.825
33.075 -0.225 0.975
33.825 4.425 1.275
33.825 0.525 -0.225
29.625 5.475 0.975
29.625 5.475 0.525
30.525 -0.825 -1.575
29.625 -0.525 4.725
28.125 0.975 0.375
34.125 0.975 1.575
34.125 0.975 0.675
34.125 0.975 0.825
32.625 -0.525 -2.325
27.825 1.875 -0.375
27.975 1.275 1.275
27.975 1.275 0.825
32.925 -0.375 1.275
34.275 1.275 0.675
32.925 -0.375 3.825
32.925 -0.375 0.975
32.925 -0.375 1.875
30.375 -0.825 0.975
30.375 -0.825 2.325
27.825 1.725 0.675
33.525 0.075 -0.075
33.525 0.075 0.075
28.575 0.225 -0.225
28.575 0.225 -0.375
34.425 1.575 0.825
32.025 -0.825 5.775
30.225 -0.825 0.825
30.225 -0.825 -1.875
30.225 -0.825 1.275
30.225 -0.825 1.425
28.425 0.375 -0.225
28.425 0.375 0.075
27.825 1.575 0.675
27.825 1.575 -0.225
27.825 1.575 2.775
27.825 1.575 0.825
33.225 5.175 0.225
29.025 5.175 0.825
33.225 -0.225 1.275
33.825 0.375 -0.525
33.825 0.375 1.875
33.825 0.375 -4.125
33.825 0.375 -0.375
29.475 5.475 0.825
29.475 -0.525 2.325
32.775 -0.525 1.125
32.775 -0.525 0.975
32.775 -0.525 1.275
34.125 0.825 0.825
34.125 0.825 1.125
34.125 0.825 1.275
28.125 0.825 -0.225
28.125 0.825 0.075
28.125 0.825 2.025
28.125 0.825 -0.525
34.275 1.125 0.225
34.275 1.125 0.825
27.975 1.125 0.675
27.975 1.125 -0.525
27.975 1.125 0.375
27.975 1.125 -0.225
27.975 1.125 -0.375
27.975 1.125 -0.075
29.775 -0.675 4.275
29.775 -0.675 2.475
34.575 2.475 0.525
29.175 5.325 1.125
29.175 5.325 0.525
29.175 5.325 1.725
29.175 5.325 0.825
31.275 -0.975 1.125
33.075 -0.375 2.625
33.075 -0.375 2.325
33.075 -0.375 1.875
33.075 -0.375 1.275
33.075 -0.375 0.975
34.425 1.425 0.675
34.425 1.425 -0.375
34.425 1.425 -0.675
27.675 2.175 2.025
30.075 -0.825 -1.875
30.075 -0.825 -2.025
30.075 -0.825 3.525
30.075 -0.825 1.425
30.075 -0.825 0.525
30.075 -0.825 1.575
30.075 -0.825 1.875
27.825 1.425 1.575
27.825 1.425 1.425
27.825 1.425 0.675
34.575 2.175 0.975
27.675 2.025 0.675
30.675 -0.975 0.375
30.675 -0.975 2.625
34.275 0.975 1.875
34.275 0.975 0.825
34.275 0.975 -1.425
34.275 0.975 1.725
27.975 0.975 1.875
27.975 0.975 -0.675
32.625 5.625 1.725
29.625 5.625 1.275
32.625 -0.675 2.175
32.625 -0.675 2.475
32.925 -0.525 1.875
32.925 -0.525 2.925
32.925 -0.525 1.425
32.925 -0.525 1.575
32.925 -0.525 2.325
28.125 0.675 -0.675
29.325 5.475 1.575
34.125 0.675 2.175
33.675 0.075 -0.975
33.675 0.075 -0.525
33.675 4.875 0.975
27.675 1.875 0.675
28.725 -0.075 1.275
28.725 -0.075 -0.225
30.525 -0.975 -0.975
28.575 0.075 -0.225
28.575 0.075 -0.375
34.425 1.275 0.825
34.425 1.275 4.575
29.925 -0.825 3.225
29.925 -0.825 -4.275
27.825 1.275 0.675
27.825 1.275 1.125
27.825 1.275 1.275
28.425 0.225 0.825
33.375 -0.225 2.325
28.875 -0.225 -0.075
28.875 -0.225 1.275
27.675 1.725 -0.675
31.875 -0.975 0.825
29.025 5.325 1.875
33.225 -0.375 1.275
33.225 -0.375 1.575
33.975 0.375 -0.525
33.975 0.375 -1.125
28.275 0.375 -0.675
28.275 0.375 -0.525
34.275 0.825 -0.675
34.275 0.825 0.825
34.275 0.825 1.575
34.275 0.825 -0.225
34.275 0.825 1.725
29.475 5.625 0.975
32.775 -0.675 4.575
32.775 -0.675 1.875
32.775 -0.675 1.275
32.775 -0.675 2.025
29.475 -0.675 2.475
29.475 -0.675 -0.375
34.425 1.125 0.375
34.425 1.125 0.825
27.675 1.575 0.225
27.675 1.575 0.825
27.675 1.575 0.675
30.225 -0.975 1.275
30.225 -0.975 1.125
30.225 -0.975 1.425
30.225 -0.975 2.775
32.475 -0.825 1.425
32.475 -0.825 3.825
29.775 -0.825 2.175
27.825 1.125 -0.075
34.575 1.575 1.275
34.575 1.575 -0.675
29.175 -0.525 2.925
28.125 0.525 0.825
34.125 0.525 -1.575
33.075 -0.525 2.925
33.075 -0.525 3.075
33.075 -0.525 0.675
33.075 -0.525 2.025
34.725 2.475 -1.875
31.275 -1.125 1.875
30.975 -1.125 2.625
27.525 2.325 0.225
34.725 2.325 -2.625
32.175 -0.975 0.975
32.175 -0.975 0.525
27.675 1.425 0.675
27.675 1.425 0.825
27.675 1.425 1.425
30.075 -0.975 1.425
30.075 -0.975 1.125
30.075 -0.975 1.725
30.075 -0.975 1.575
34.575 1.425 -0.375
28.725 -0.225 1.575
28.725 -0.225 2.325
31.425 -1.125 0.825
27.525 2.775 0.075
34.725 2.175 -3.825
34.725 2.175 1.275
33.825 0.075 -0.525
33.825 0.075 -0.825
34.425 0.975 0.825
34.425 0.975 1.575
34.425 0.975 -0.225
32.625 -0.825 1.125
32.625 -0.825 1.725
29.625 -0.825 1.875
29.625 5.775 0.975
27.825 0.975 -0.225
34.275 0.675 2.025
34.275 0.675 0.675
34.275 0.675 -0.675
32.925 -0.675 2.325
32.925 -0.675 -0.525
32.925 -0.675 1.725
32.925 -0.675 0.675
32.925 -0.675 1.275
32.925 -0.675 1.425
29.325 5.625 -0.525
29.325 5.625 0.525
29.325 -0.675 3.075
27.525 2.025 0.675
33.375 -0.375 3.825
28.875 -0.375 -2.775
33.375 5.325 1.425
33.975 0.225 -0.825
28.275 0.225 -0.975
28.275 0.225 -0.225
27.525 1.875 0.825
34.725 1.875 0.675
27.675 1.275 0.375
27.675 1.275 1.275
29.925 -0.975 1.725
32.325 -0.975 2.625
32.325 -0.975 4.275
34.575 1.275 0.375
34.575 1.275 0.675
34.575 1.275 -0.375
34.575 1.275 2.775
28.125 0.375 -0.525
28.125 0.375 -0.225
28.125 0.375 -0.375
28.125 0.375 -0.075
34.125 0.375 -0.375
34.125 0.375 -0.675
29.025 5.475 0.825
33.225 5.475 1.425
31.875 -1.125 1.275
30.375 -1.125 2.325
27.525 1.725 -0.225
34.425 0.825 0.675
34.425 0.825 -0.075
34.425 0.825 -0.375
34.425 0.825 1.125
34.425 0.825 0.825
34.425 0.825 1.275
32.775 -0.825 2.625
32.775 -0.825 2.025
32.775 -0.825 2.175
29.475 5.775 3.075
27.825 0.825 -0.225
27.975 0.525 0.375
27.675 1.125 0.675
27.675 1.125 0.525
27.675 1.125 -0.675
32.475 -0.975 1.425
32.475 -0.975 4.275
29.775 -0.975 0.675
29.775 -0.975 4.725
33.075 -0.675 1.275
33.075 -0.675 2.025
33.075 -0.675 1.575
33.075 -0.675 1.125
33.075 -0.675 1.425
34.575 1.125 0.825
32.025 -1.125 1.875
30.225 -1.125 1.575
27.525 1.575 -0.375
27.525 1.575 -0.225
27.525 1.575 2.775
27.525 1.575 1.875
27.525 1.575 -0.675
28.425 -0.075 -0.375
28.425 -0.075 -0.525
28.575 -0.225 1.875
33.825 -0.075 -0.975
33.525 -0.375 2.925
33.975 0.075 -0.525
32.175 -1.125 1.725
32.175 -1.125 4.125
28.875 5.475 1.875
28.125 0.225 -0.525
27.375 2.475 -3.075
33.375 -0.525 2.925
28.875 -0.525 1.125
30.075 -1.125 1.275
30.075 -1.125 1.425
30.075 -1.125 1.725
30.075 -1.125 2.175
30.075 -1.125 3.075
34.725 1.425 0.975
34.725 1.425 1.125
34.725 1.425 0.825
27.525 1.425 0.675
31.275 -1.275 1.725
30.975 -1.275 1.425
34.425 0.675 -0.225
32.925 -0.825 1.275
32.925 -0.825 2.625
32.925 -0.825 1.875
32.925 -0.825 1.725
32.925 -0.825 1.125
32.925 5.775 1.125
27.825 0.675 0.225
29.325 5.775 -0.525
29.325 5.775 1.425
27.675 0.975 1.425
27.675 0.975 -0.075
29.625 5.925 0.975
31.425 -1.275 1.725
30.825 -1.275 1.725
30.825 -1.275 0.825
27.375 2.175 -0.375
34.875 2.175 -0.225
32.625 -0.975 3.975
32.625 -0.975 1.425
32.625 -0.975 1.875
29.625 -0.975 4.725
34.575 0.975 0.675
34.575 0.975 1.725
34.575 0.975 -0.375
34.575 0.975 0.225
31.575 -1.275 1.875
30.675 -1.275 1.875
30.675 -1.275 0.675
30.675 -1.275 2.625
30.675 -1.275 2.175
30.675 -1.275 0.825
30.675 -1.275 1.425
34.875 2.025 0.525
29.925 -1.125 1.875
29.925 -1.125 1.575
34.725 1.275 0.675
27.525 1.275 1.425
27.525 1.275 1.125
27.525 1.275 -0.375
27.525 1.275 0.675
27.525 1.275 1.275
27.375 1.875 0.075
30.525 -1.275 1.725
31.725 -1.275 0.825
29.475 5.925 2.325
32.775 -0.975 0.975
32.775 -0.975 2.475
32.775 -0.975 1.875
32.775 -0.975 4.425
32.775 -0.975 2.325
27.375 1.725 0.675
31.875 -1.275 0.975
30.375 -1.275 0.975
30.375 -1.275 -4.275
30.375 -1.275 1.875
28.575 -0.375 2.925
33.975 -0.075 -0.825
34.575 0.825 -0.375
34.575 0.825 0.825
34.575 0.825 -0.075
34.575 0.825 -0.225
34.575 0.825 1.275
34.575 0.825 -0.675
27.825 0.525 1.125
33.075 -0.825 1.275
33.075 -0.825 1.875
33.075 -0.825 0.675
33.075 -0.825 0.825
28.725 5.475 1.125
33.525 -0.525 -2.925
34.125 0.075 0.075
32.475 -1.125 2.625
32.475 -1.125 1.875
29.775 -1.125 1.125
27.525 1.125 -0.825
27.525 1.125 -0.225
34.725 1.125 0.675
32.025 -1.275 3.075
32.025 -1.275 1.125
32.025 -1.275 4.725
32.025 -1.275 4.275
30.225 -1.275 1.125
30.225 -1.275 1.725
30.225 -1.275 1.425
30.225 -1.275 1.275
27.375 1.575 -0.675
27.375 1.575 0.525
34.875 1.575 -0.525
34.875 1.575 -1.275
27.975 0.225 -0.225
28.875 5.625 0.825
32.925 -0.975 3.525
32.925 -0.975 0.975
32.925 -0.975 1.875
32.925 -0.975 5.025
32.925 -0.975 4.125
32.925 -0.975 1.425
27.675 0.675 0.225
27.675 0.675 2.175
29.325 5.925 0.075
29.325 -0.975 1.125
34.575 0.675 -0.375
34.575 0.675 2.025
34.575 0.675 0.375
34.575 0.675 1.125
34.575 0.675 0.675
32.175 -1.275 0.375
27.375 1.425 1.725
27.375 1.425 0.675
34.875 1.425 0.975
30.075 -1.275 1.575
30.075 -1.275 1.425
30.075 -1.275 3.375
30.075 -1.275 2.925
32.625 -1.125 5.025
32.625 -1.125 1.575
32.625 -1.125 3.975
29.625 -1.125 3.975
34.725 0.975 0.825
34.725 0.975 0.675
30.975 -1.425 1.875
30.975 -1.425 1.275
30.975 -1.425 2.175
34.425 0.375 0.225
31.425 -1.425 1.875
30.825 -1.425 0.675
30.825 -1.425 1.875
33.225 -0.825 1.725
33.225 -0.825 0.225
33.225 -0.825 2.175
33.225 -0.825 1.275
33.225 -0.825 2.475
29.025 5.775 0.675
27.225 2.025 -0.075
31.575 6.375 3.825
31.575 -1.425 1.425
31.575 -1.425 4.875
33.825 -0.375 2.775
29.925 -1.275 1.425
29.925 -1.275 2.925
29.925 -1.275 1.725
27.375 1.275 0.375
27.375 1.275 0.825
27.375 1.275 -0.525
27.375 1.275 1.275
27.375 1.275 -0.225
27.375 1.275 1.125
34.875 1.275 -0.225
34.875 1.275 0.675
34.875 1.275 -0.525
27.375 1.275 0.675
28.125 -0.075 -4.275
32.325 -1.275 4.425
32.325 -1.275 2.025
27.225 1.875 0.975
31.725 6.375 0.375
30.525 -1.425 1.875
30.525 -1.425 1.725
30.525 -1.425 0.825
30.525 -1.425 3.075
34.275 0.075 -0.675
32.775 -1.125 3.075
32.775 -1.125 3.375
32.775 -1.125 3.675
29.475 6.075 0.975
32.775 -1.125 2.175
34.725 0.825 0.675
34.725 0.825 -0.075
34.725 0.825 -0.525
27.525 0.825 1.725
34.725 4.125 -0.675
27.675 0.525 -0.825
33.075 -0.975 3.525
33.075 -0.975 1.875
33.075 -0.975 4.425
33.075 -0.975 3.075
35.025 1.725 -0.375
30.375 -1.425 1.575
30.375 -1.425 0.975
30.375 -1.425 1.125
31.875 -1.425 4.575
31.875 -1.425 4.425
34.875 1.125 0.075
34.875 1.125 0.975
34.875 1.125 0.675
27.375 1.125 -0.075
27.375 1.125 0.675
32.475 -1.275 4.125
32.475 -1.275 1.875
32.475 -1.275 4.425
32.475 -1.275 4.275
29.775 -1.275 1.425
29.775 -1.275 2.025
29.775 -1.275 1.725
34.425 0.225 -0.525
27.825 0.225 -0.375
27.825 0.225 2.025
35.025 1.575 0.825
35.025 1.575 0.075
27.225 1.575 -0.825
27.225 1.575 0.675
27.225 1.575 1.725
27.225 3.375 0.975
30.225 6.375 1.425
30.225 -1.425 3.075
30.225 -1.425 1.725
30.225 -1.425 2.325
30.225 -1.425 1.575
32.025 -1.425 2.775
32.925 -1.125 2.925
32.925 -1.125 1.425
32.925 -1.125 2.775
32.925 -1.125 0.825
32.925 -1.125 0.975
32.925 -1.125 1.275
29.325 -1.125 1.575
29.325 -1.125 1.425
29.325 6.075 -0.075
34.725 0.675 -1.275
34.725 0.675 1.125
34.725 0.675 0.825
34.725 0.675 1.275
27.525 0.675 -4.275
28.275 -0.375 0.825
34.125 -0.225 -0.675
33.825 -0.525 2.325
35.025 1.425 0.675
35.025 1.425 -3.225
35.025 1.425 0.825
27.225 1.425 -0.525
27.225 1.425 -0.375
27.225 1.425 0.225
32.175 -1.425 4.125
32.625 -1.275 3.975
32.625 -1.275 1.725
32.625 -1.275 4.575
32.625 -1.275 1.425
32.625 -1.275 3.525
32.625 -1.275 2.175
34.875 0.975 0.825
34.875 0.975 2.025
29.625 -1.275 3.675
29.625 -1.275 2.025
27.375 0.975 -0.225
27.375 0.975 -0.375
30.075 -1.425 2.775
30.075 -1.425 1.725
30.075 -1.425 1.125
30.075 -1.425 1.575
33.225 -0.975 3.375
33.225 -0.975 2.925
33.225 -0.975 2.325
34.575 0.375 -0.075
34.575 0.375 2.775
31.125 -1.575 5.175
28.575 -0.675 2.775
27.075 2.625 0.525
35.175 2.175 0.675
31.425 -1.575 1.575
31.575 -1.575 1.725
27.075 2.025 -0.075
27.075 2.025 0.825
35.025 1.275 -0.375
27.225 1.275 1.125
27.225 1.275 -0.075
27.225 1.275 0.825
27.225 1.275 0.675
27.225 1.275 0.375
27.225 1.275 1.425
27.225 1.275 -0.525
33.525 -0.825 -2.925
28.725 -0.825 4.125
28.725 -0.825 -1.575
29.925 -1.425 1.875
29.925 -1.425 1.725
32.325 6.375 1.725
32.325 -1.425 3.825
32.325 -1.425 1.575
29.175 -1.125 1.725
29.175 -1.125 1.875
31.725 -1.575 1.875
30.525 -1.575 0.825
27.075 1.875 -0.375
27.075 1.875 0.825
34.725 0.525 -0.375
34.725 0.525 -0.225
34.725 0.525 -0.075
33.075 -1.125 0.975
32.775 -1.275 5.025
32.775 -1.275 2.475
32.775 -1.275 4.425
32.775 -1.275 2.025
29.475 -1.275 1.575
29.475 -1.275 1.275
29.475 -1.275 1.425
34.875 0.825 0.075
34.875 0.825 -0.225
34.875 0.825 0.675
34.875 0.825 1.725
27.675 0.225 -1.575
30.375 -1.575 0.975
30.375 -1.575 0.825
30.375 -1.575 1.125
28.875 -0.975 3.675
35.025 1.125 -0.225
35.025 1.125 0.525
27.225 1.125 -0.075
27.225 1.125 -0.225
27.225 1.125 0.075
27.225 1.125 1.125
27.225 1.125 -0.525
27.225 1.125 0.675
29.775 -1.425 0.975
29.775 -1.425 0.825
29.775 -1.425 1.725
32.475 -1.425 3.675
32.475 -1.425 1.575
28.275 -0.525 2.625
35.175 1.575 -0.075
35.175 1.575 0.675
34.275 5.175 -0.225
30.225 -1.575 2.025
30.225 -1.575 2.475
30.225 -1.575 1.425
27.075 1.575 -0.075
27.075 1.575 1.575
27.075 1.575 -0.375
27.075 1.575 0.675
27.075 1.575 -1.575
32.925 -1.275 1.125
32.925 -1.275 2.475
32.925 -1.275 3.375
32.925 -1.275 3.975
32.925 -1.275 1.425
32.925 -1.275 1.725
34.875 0.675 -0.975
34.875 0.675 1.275
34.875 0.675 0.075
27.375 0.675 2.025
27.375 0.675 1.125
29.325 -1.275 2.175
29.325 -1.275 3.825
29.325 -1.275 2.775
29.325 -1.275 1.425
27.375 0.675 -0.225
33.225 -1.125 1.125
29.025 -1.125 3.225
29.025 -1.125 2.625
29.025 -1.125 2.175
29.025 6.075 2.025
34.725 0.375 -0.225
34.725 0.375 0.225
34.725 0.375 -3.675
27.825 -0.075 0.375
35.025 0.975 -0.075
35.025 0.975 -0.225
35.025 0.975 0.375
35.025 0.975 0.225
27.225 0.975 -0.675
27.225 0.975 0.375
35.025 0.975 0.825
29.625 -1.425 1.575
29.625 -1.425 1.275
32.625 -1.425 3.825
32.625 -1.425 3.975
32.625 -1.425 1.725
29.625 -1.425 1.875
35.175 1.425 -0.075
35.175 1.425 0.525
32.175 -1.575 4.725
32.175 -1.575 -2.325
30.075 -1.575 1.125
30.075 -1.575 1.575
30.075 -1.575 0.825
30.075 -1.575 1.275
30.075 -1.575 2.775
30.075 -1.575 2.925
27.075 1.425 0.525
27.075 1.425 0.225
27.075 1.425 0.675
31.125 6.675 4.125
33.525 -0.975 -4.275
31.275 -1.725 1.575
34.575 0.075 0.075
26.925 2.175 -0.825
35.175 1.275 0.825
35.175 1.275 0.375
35.175 1.275 -0.075
35.175 1.275 0.525
35.175 1.275 -0.525
26.925 2.025 -0.225
26.925 2.025 0.825
26.925 2.925 0.375
29.925 -1.575 2.475
32.325 -1.575 3.825
32.325 -1.575 -2.625
32.325 -1.575 3.975
27.075 1.275 -0.525
27.075 1.275 0.825
27.075 1.275 1.425
35.325 2.025 1.125
29.175 6.225 0.375
29.175 -1.275 4.425
29.175 -1.275 0.975
34.875 0.525 -0.225
27.375 0.525 0.075
33.075 -1.275 3.975
33.075 -1.275 1.725
33.075 -1.275 1.575
35.025 0.825 0.225
35.025 0.825 0.825
35.025 0.825 0.375
35.025 0.825 -0.225
35.025 0.825 1.575
35.025 0.825 -0.075
35.025 0.825 2.025
27.225 0.825 0.075
27.225 0.825 -0.375
27.225 0.825 -0.225
27.225 0.825 0.675
29.475 6.375 1.575
29.475 -1.425 4.125
29.475 -1.425 1.425
29.475 -1.425 1.725
29.475 -1.425 1.125
32.775 -1.425 3.975
32.775 -1.425 4.125
32.775 -1.425 2.325
32.775 -1.425 -2.025
29.475 -1.425 3.675
26.925 1.875 -0.675
26.925 1.875 0.825
26.925 1.875 -0.075
31.725 6.675 3.825
28.125 -0.525 1.275
31.725 -1.725 2.475
33.375 -1.125 -2.775
28.875 -1.125 0.975
34.725 0.225 -0.675
27.975 -0.375 0.525
27.975 -0.375 4.125
28.275 -0.675 3.525
33.825 5.775 0.375
26.925 1.725 -0.375
26.925 1.725 0.675
26.925 1.725 0.825
26.925 1.725 -0.075
35.325 3.225 -0.675
35.325 1.725 1.125
35.175 1.125 0.675
35.175 1.125 0.225
29.775 -1.575 2.175
27.075 1.125 0.675
27.675 -0.075 1.125
28.575 -0.975 -1.875
34.575 -0.075 2.025
34.575 5.025 0.075
34.575 -0.075 -0.075
35.025 0.675 -0.375
35.025 0.675 1.425
35.025 0.675 0.225
35.025 0.675 -0.225
35.025 0.675 1.275
32.025 6.675 -0.225
32.925 -1.425 1.575
32.925 -1.425 1.425
26.925 1.575 -2.175
32.925 -1.425 1.125
30.225 -1.725 0.975
30.225 -1.725 1.725
30.225 -1.725 2.025
30.225 -1.725 2.475
32.025 -1.725 2.025
29.325 -1.425 1.125
29.325 -1.425 1.425
29.325 -1.425 1.875
29.325 -1.425 1.725
29.325 -1.425 3.825
29.325 -1.425 1.275
35.325 1.575 0.075
35.325 1.575 -0.375
35.325 1.575 0.525
27.375 0.375 2.175
27.375 0.375 -0.675
29.025 6.225 -0.075
33.225 -1.275 2.325
33.225 -1.275 1.575
29.025 -1.275 3.075
35.175 0.975 -0.075
35.175 0.975 0.825
29.625 -1.575 3.825
32.625 -1.575 1.725
32.625 -1.575 4.125
29.625 -1.575 0.825
29.625 -1.575 3.075
29.625 -1.575 1.725
32.625 -1.575 3.975
27.075 0.975 -0.075
27.075 0.975 -0.525
33.525 -1.125 -2.925
28.725 -1.125 2.475
34.725 0.075 -0.525
26.925 1.425 1.725
26.925 1.425 0.675
26.925 1.425 0.825
30.075 -1.725 2.925
35.325 1.425 0.525
35.325 3.525 0.675
26.775 2.475 0.825
26.775 2.325 1.725
34.425 5.325 0.225
27.225 0.525 -0.825
30.825 6.825 4.125
29.175 -1.425 3.675
29.175 -1.425 2.175
29.175 -1.425 2.325
27.825 -0.375 1.875
28.275 -0.825 1.425
28.275 -0.825 -2.025
33.075 -1.425 -2.925
33.075 -1.425 1.575
33.075 -1.425 3.975
33.075 -1.425 4.125
33.075 -1.425 2.175
26.775 2.175 0.825
26.925 1.275 1.125
26.925 1.275 1.275
26.925 1.275 0.675
26.925 1.275 -0.075
29.925 -1.725 1.575
29.925 -1.725 1.725
29.925 -1.725 2.475
32.325 -1.725 1.725
32.325 -1.725 5.025
32.325 -1.725 3.225
35.325 1.275 0.825
35.325 1.275 0.375
35.325 1.275 -0.225
35.175 0.825 0.225
35.175 0.825 0.075
35.175 0.825 -0.375
35.175 0.825 -0.075
30.675 -1.875 5.625
31.575 6.825 3.375
32.775 -1.575 4.275
32.775 -1.575 0.675
32.775 -1.575 4.125
32.775 -1.575 1.725
32.775 -1.575 2.325
29.475 -1.575 1.575
29.475 -1.575 1.725
29.475 -1.575 1.275
29.475 -1.575 2.175
29.475 -1.575 1.875
33.375 -1.275 3.375
34.875 0.225 0.375
34.875 0.225 -3.675
28.875 -1.275 1.275
28.875 -1.275 0.975
28.875 -1.275 2.175
27.075 0.825 0.975
27.075 0.825 -0.375
26.775 2.025 0.675
26.775 2.025 0.975
26.775 2.025 0.225
33.825 -0.975 -2.925
33.675 -1.125 3.525
26.925 1.125 -0.225
28.575 -1.125 1.575
32.475 -1.725 3.975
32.475 -1.725 4.575
29.775 -1.725 1.875
29.775 -1.725 0.825
29.775 -1.725 2.025
34.725 5.025 0.975
27.525 -0.075 0.225
35.325 1.125 0.675
35.325 1.125 2.325
35.325 3.825 0.375
35.325 1.125 0.825
26.775 1.725 -1.425
26.775 1.725 0.075
35.475 1.725 -2.775
26.775 1.725 0.825
26.775 1.725 -0.075
35.475 3.225 -0.675
26.775 3.225 0.225
35.025 0.375 -3.675
35.025 0.375 -0.525
29.025 -1.425 2.925
29.025 -1.425 1.275
29.025 -1.425 1.575
33.225 -1.425 2.325
33.225 -1.425 -2.325
33.225 -1.425 4.125
35.175 0.675 -0.225
35.175 0.675 0.825
32.925 -1.575 1.575
32.925 -1.575 1.875
32.925 -1.575 2.325
32.925 -1.575 1.275
29.325 -1.575 3.675
29.325 -1.575 1.725
29.325 -1.575 1.425
27.075 0.675 -0.825
27.075 4.275 -0.225
32.025 -1.875 4.575
35.475 1.575 0.675
26.775 1.575 0.225
28.725 -1.275 2.325
34.875 0.075 -0.825
34.875 0.075 -0.975
34.875 0.075 -0.075
34.875 4.875 1.125
27.975 -0.675 0.675
34.425 5.475 0.525
34.425 5.475 2.175
29.625 -1.725 2.475
32.625 -1.725 0.975
29.625 -1.725 2.025
34.125 5.775 1.575
28.125 -0.825 2.625
34.125 -0.825 -4.575
35.325 0.975 0.675
35.325 0.975 -0.075
32.175 -1.875 1.575
30.075 -1.875 1.875
33.975 -0.975 2.625
35.475 1.425 0.675
26.775 1.425 1.275
26.775 1.425 -0.375
26.775 1.425 -0.525
35.475 3.525 0.675
34.575 -0.375 -0.075
34.575 5.325 1.125
35.175 0.525 -0.075
35.175 0.525 -0.525
35.175 0.525 0.675
35.175 0.525 0.375
35.175 0.525 -0.225
29.175 -1.575 1.425
29.175 -1.575 1.275
27.075 0.525 -0.375
27.075 0.525 -1.275
27.075 0.525 -0.975
33.075 -1.575 1.875
33.075 -1.575 1.725
31.125 -2.025 4.275
35.625 2.475 0.675
26.625 2.475 0.225
34.725 5.175 1.425
34.725 -0.225 -0.975
33.825 -1.125 -4.275
27.225 0.225 -0.675
35.025 0.225 -0.075
33.375 -1.425 3.675
33.375 -1.425 2.625
33.375 -1.425 -2.775
26.625 2.625 1.275
30.975 6.975 3.075
28.875 -1.425 1.575
28.875 -1.425 2.025
28.875 -1.425 1.125
