# .PCD v0.7 - Point Cloud Data file format
VERSION 0.7
FIELDS x y z
SIZE 4 4 4
TYPE F F F
COUNT 1 1 1
WIDTH 2048
HEIGHT 1
VIEWPOINT 0 0 0 1 0 0 0
POINTS 2048
DATA ascii
19.725 29.025 -0.225
19.725 29.025 -0.525
19.725 29.025 0.975
19.575 29.025 0.375
19.575 29.025 0.675
19.575 29.025 -0.975
19.575 29.025 -0.225
19.575 29.175 -0.525
19.575 29.175 -0.375
19.425 28.875 1.125
19.425 28.875 1.275
19.425 28.875 0.825
19.425 28.875 -0.225
19.425 29.025 1.275
19.425 29.025 0.075
19.425 29.025 0.675
20.025 28.875 -1.275
20.025 28.875 -0.225
20.025 28.875 -0.675
19.425 28.725 1.275
19.425 28.725 1.725
19.425 29.175 0.525
19.425 29.175 1.275
19.425 29.175 1.125
19.425 29.175 0.825
19.425 29.175 -0.825
19.425 29.175 0.225
19.575 28.575 -0.075
19.575 28.575 1.125
19.575 28.575 -0.375
19.875 28.575 2.625
19.725 29.325 -0.825
19.725 29.325 -1.125
20.025 29.175 0.225
20.025 29.175 -0.525
19.575 29.325 -0.525
19.575 29.325 -0.375
19.575 29.325 0.525
19.575 29.325 0.825
19.575 29.325 -0.825
19.575 29.325 0.375
19.275 28.875 2.925
19.275 28.875 -0.675
19.275 28.875 -0.375
19.275 28.875 0.525
19.275 29.025 -0.225
19.275 29.025 -3.825
19.425 28.575 0.675
19.425 28.575 1.125
19.425 28.575 1.425
19.425 28.575 0.825
19.425 28.575 1.275
19.275 28.725 1.575
19.275 28.725 0.675
19.275 28.725 1.725
20.175 28.875 -0.225
20.175 28.875 0.075
20.025 28.575 3.825
20.025 28.575 0.975
19.425 29.325 2.925
19.425 29.325 1.275
19.425 29.325 0.825
20.175 29.025 -0.075
19.275 29.175 0.675
19.275 29.175 1.725
19.275 29.175 2.175
19.725 28.425 -0.375
20.025 29.325 0.075
19.575 28.425 0.525
19.575 28.425 0.375
19.575 28.425 0.825
19.575 28.425 0.075
19.575 28.425 -0.525
19.575 28.425 -0.375
19.875 28.425 1.125
20.175 29.175 0.225
20.175 29.175 -0.525
19.725 29.475 -0.225
19.275 28.575 0.675
19.275 28.575 1.725
19.575 29.475 0.375
19.575 29.475 -0.075
19.425 28.425 1.275
19.425 28.425 -0.375
19.425 28.425 0.825
19.425 28.425 1.125
19.425 28.425 0.675
19.875 29.475 0.825
19.875 29.475 -0.225
19.125 28.875 0.675
19.125 28.875 1.725
19.125 28.875 0.825
19.275 29.325 0.675
19.275 29.325 -0.075
19.275 29.325 4.125
19.275 29.325 -0.525
20.175 28.575 -0.975
20.175 28.575 0.375
20.175 28.575 0.225
20.175 28.575 0.075
20.025 28.425 0.225
19.125 28.725 0.825
19.125 28.725 -0.975
19.125 28.725 0.675
19.425 29.475 1.275
19.425 29.475 1.575
19.425 29.475 0.825
19.425 29.475 0.675
19.425 29.475 0.375
19.425 29.475 1.125
20.175 29.325 0.375
20.175 29.325 0.075
19.125 29.175 -0.375
19.125 29.175 0.225
20.325 28.875 -0.825
20.325 28.875 0.075
20.325 29.025 0.225
20.325 29.025 0.075
20.025 29.475 0.225
20.025 29.475 -0.225
20.325 28.725 -0.825
20.325 28.725 0.075
20.325 28.725 -0.075
19.275 28.425 1.875
19.275 28.425 1.725
19.275 28.425 0.675
19.575 28.275 0.675
20.325 29.175 -0.825
19.125 28.575 1.875
19.125 28.575 0.825
19.125 28.575 0.675
19.875 28.275 2.775
19.275 29.475 0.675
19.275 29.475 1.725
20.175 28.425 -0.825
20.175 28.425 0.075
20.175 28.425 -0.075
19.125 29.325 0.675
19.575 29.625 -0.825
19.425 28.275 0.825
19.425 28.275 0.675
19.425 28.275 1.125
19.425 28.275 1.275
19.875 29.625 2.025
19.875 29.625 -0.675
20.325 28.575 0.525
20.325 28.575 -0.525
20.175 29.475 0.375
20.175 29.475 -0.825
18.975 28.875 0.675
18.975 28.875 0.975
18.975 29.025 0.675
20.325 29.325 0.375
20.325 29.325 -0.525
19.425 29.625 1.425
19.425 29.625 1.125
19.425 29.625 1.275
18.975 28.725 0.525
18.975 28.725 0.675
18.975 29.175 0.825
20.025 29.625 0.525
20.475 28.875 -0.075
20.475 28.875 -0.225
20.475 28.875 0.225
19.275 28.275 0.675
19.275 28.275 1.725
19.275 28.275 1.575
20.475 29.025 -0.375
19.125 29.475 0.675
20.475 28.725 -0.675
20.475 28.725 0.375
20.325 28.425 -0.525
20.325 28.425 -0.675
19.725 28.125 -0.675
18.975 28.575 0.675
20.175 28.275 -1.275
20.175 28.275 -0.525
19.575 28.125 0.675
19.575 28.125 -0.375
19.575 28.125 0.375
19.575 28.125 -0.225
20.475 29.175 -0.825
19.275 29.625 1.875
19.275 29.625 -0.825
19.275 29.625 0.675
19.275 29.625 -0.225
20.325 29.475 0.075
20.325 29.475 -0.375
20.175 29.625 -0.075
20.175 29.625 -0.525
19.425 28.125 1.275
19.425 28.125 -0.225
19.425 28.125 0.825
19.425 28.125 1.125
19.425 28.125 0.675
19.425 28.125 1.425
20.475 28.575 -0.525
20.475 28.575 -0.825
20.475 28.575 0.525
19.575 29.775 -0.375
19.575 29.775 -0.075
19.575 29.775 -0.825
19.575 29.775 -0.225
19.125 28.275 0.825
19.125 28.275 0.375
20.475 29.325 -0.075
18.825 28.875 0.825
18.825 28.875 0.675
18.825 29.025 0.675
18.825 29.025 2.475
18.825 29.025 0.525
18.975 28.425 0.675
19.425 29.775 1.425
19.425 29.775 -0.525
18.825 28.725 0.675
20.325 28.275 -0.075
18.975 29.475 0.375
18.975 29.475 -0.225
18.975 29.475 0.675
18.825 29.175 0.675
19.275 28.125 0.075
19.275 28.125 1.725
19.275 28.125 -0.075
20.475 28.425 0.225
20.625 28.875 -0.225
20.625 28.875 -0.375
20.175 28.125 -0.375
20.175 28.125 -0.225
18.825 28.575 0.675
19.275 29.775 0.675
19.275 29.775 1.725
19.275 29.775 1.575
19.725 27.975 0.225
18.825 29.325 -0.375
19.575 27.975 -0.225
19.575 27.975 0.675
19.575 27.975 -0.075
19.575 27.975 -0.525
19.875 27.975 0.075
20.175 29.775 0.375
19.125 28.125 0.225
19.125 28.125 0.675
19.425 27.975 1.275
19.425 27.975 1.425
19.425 27.975 1.125
19.425 27.975 0.825
19.725 29.925 0.225
19.725 29.925 -2.775
19.575 29.925 -0.525
19.575 29.925 -0.225
19.575 29.925 0.075
19.575 29.925 -0.375
18.975 29.625 0.675
18.975 29.625 0.825
18.975 29.625 1.275
20.625 29.325 2.475
20.025 27.975 -0.075
19.875 29.925 0.225
20.325 28.125 -1.275
20.325 28.125 0.675
20.325 28.125 -0.675
19.125 29.775 0.825
18.675 28.875 0.675
18.825 29.475 1.875
19.425 29.925 1.275
19.425 29.925 1.575
19.425 29.925 2.325
20.475 29.625 0.075
19.275 27.975 0.675
18.675 28.725 1.275
20.025 29.925 0.675
20.025 29.925 0.225
20.025 29.925 0.375
20.325 29.775 -0.075
20.325 29.775 0.225
18.675 29.175 0.675
20.175 27.975 0.675
20.175 27.975 -0.525
20.175 27.975 2.175
20.175 27.975 -0.675
20.625 29.475 0.075
20.625 29.475 -0.825
20.625 29.475 6.225
18.975 28.125 0.825
19.275 29.925 1.725
19.275 29.925 2.775
18.825 28.275 0.675
18.675 29.325 0.975
20.775 29.175 -0.075
19.725 27.825 0.525
20.175 29.925 -0.225
20.175 29.925 0.225
20.175 29.925 0.375
19.575 27.825 -0.225
19.575 27.825 0.075
19.575 27.825 0.525
19.575 27.825 0.825
19.125 27.975 0.825
18.975 29.775 2.175
20.475 28.125 0.075
19.875 27.825 -0.075
20.625 28.275 1.125
19.425 27.825 0.825
19.425 27.825 1.275
20.325 27.975 0.225
20.325 27.975 -0.675
20.325 27.975 -0.375
20.775 29.325 6.525
19.725 30.075 -0.525
20.475 29.775 0.075
20.475 29.775 -0.525
20.475 29.775 0.225
20.475 29.775 0.375
20.475 29.775 -0.225
20.475 29.775 -2.325
19.125 29.925 0.825
19.575 30.075 0.975
19.575 30.075 -0.675
20.625 29.625 0.375
20.625 29.625 -0.975
20.325 29.925 -0.075
20.325 29.925 0.225
20.325 29.925 -0.225
20.325 29.925 -0.375
20.325 29.925 0.075
18.525 29.025 1.875
19.425 30.075 -0.375
19.425 30.075 0.075
19.275 27.825 0.825
20.775 28.425 -0.225
20.025 30.075 0.525
20.775 29.475 0.075
18.675 28.275 0.975
18.675 28.275 0.825
18.825 29.775 0.825
18.825 29.775 0.675
19.275 30.075 -0.075
20.625 28.125 2.775
20.625 28.125 -0.075
20.625 28.125 -0.675
20.625 28.125 0.975
20.475 27.975 0.225
20.475 27.975 0.525
20.925 29.025 0.375
20.925 29.025 0.075
18.975 29.925 0.675
20.175 30.075 -0.525
20.175 30.075 0.075
20.925 28.725 -0.075
19.125 27.825 0.825
19.125 27.825 1.875
19.725 27.675 0.225
19.725 27.675 2.475
20.625 29.775 1.125
20.775 28.275 0.975
19.575 27.675 1.875
19.575 27.675 0.075
19.575 27.675 -0.225
20.475 29.925 -0.375
20.475 29.925 -0.525
20.325 27.825 0.075
20.325 27.825 0.525
20.325 27.825 -0.375
20.325 27.825 -0.075
20.325 27.825 0.375
20.925 28.575 -0.075
19.425 27.675 1.125
19.425 27.675 0.825
19.425 27.675 1.275
20.025 27.675 -0.075
20.025 27.675 -1.425
19.725 30.225 -0.375
19.725 30.225 1.575
19.725 30.225 -0.225
19.575 30.225 0.825
19.575 30.225 0.525
20.325 30.075 -0.225
20.325 30.075 -0.525
20.325 30.075 -0.075
20.325 30.075 0.075
18.975 27.825 0.675
19.275 27.675 -4.275
19.275 27.675 1.725
19.275 27.675 -0.225
19.275 27.675 0.825
19.275 27.675 1.575
20.925 28.425 0.075
19.425 30.225 0.825
18.825 29.925 0.675
20.625 27.975 -0.075
20.025 30.225 -0.375
20.775 28.125 -0.075
18.375 29.175 -0.675
18.975 30.075 0.675
18.975 30.075 2.325
18.975 30.075 0.975
20.625 29.925 -0.675
20.625 29.925 -0.075
19.275 30.225 -0.075
21.075 29.025 -0.075
19.125 27.675 0.825
20.175 30.225 0.375
20.175 30.225 -0.375
20.175 30.225 -0.225
20.475 30.075 0.075
21.075 29.175 3.825
18.675 27.975 0.825
20.325 27.675 -0.375
20.325 27.675 0.675
20.325 27.675 -0.825
18.825 27.825 0.825
19.575 27.525 0.675
19.575 27.525 0.825
19.575 27.525 0.375
19.125 30.225 1.875
21.075 28.575 0.375
18.675 29.925 0.675
19.425 27.525 1.275
19.425 27.525 0.825
19.425 27.525 0.375
20.775 27.975 0.075
20.775 27.975 0.225
20.325 30.225 -0.075
20.325 30.225 -0.225
20.625 27.825 0.675
20.625 27.825 -0.075
20.625 27.825 0.075
20.625 27.825 0.225
20.025 27.525 -0.075
18.825 30.075 0.675
18.525 29.775 -1.575
18.975 27.675 2.175
18.975 27.675 0.675
19.575 30.375 1.275
19.575 30.375 -0.375
19.575 30.375 -0.675
19.575 30.375 -0.075
21.075 28.425 0.825
20.925 28.125 0.375
19.275 27.525 1.725
19.275 27.525 0.825
19.275 27.525 -0.525
19.425 30.375 0.825
19.425 30.375 -0.525
19.425 30.375 -0.375
20.625 30.075 -0.375
20.625 30.075 0.375
20.625 30.075 0.225
20.625 30.075 7.275
20.475 27.675 -0.225
20.475 27.675 0.075
20.475 27.675 -0.075
18.225 29.025 0.225
20.025 30.375 0.525
20.925 29.775 0.675
20.475 30.225 0.075
20.475 30.225 -2.025
20.475 30.225 -0.075
20.475 30.225 0.225
19.125 27.525 0.825
19.125 27.525 3.075
19.125 27.525 1.875
20.175 30.375 0.225
20.175 30.375 -0.075
20.175 30.375 0.075
20.175 30.375 0.825
20.175 30.375 -0.375
20.175 30.375 0.375
21.075 28.275 1.275
21.225 28.875 0.675
21.225 28.875 0.525
21.225 29.025 0.225
18.825 27.675 -0.675
18.825 27.675 0.825
20.325 27.525 0.075
20.325 27.525 -0.075
20.325 27.525 -0.225
18.675 30.075 1.275
21.225 28.725 0.075
21.225 28.725 0.225
21.225 28.725 0.675
20.775 27.825 1.125
21.075 29.625 1.575
21.225 29.175 4.425
19.725 27.375 -0.225
20.625 27.675 0.975
20.625 27.675 -0.975
20.625 27.675 0.375
19.575 27.375 -0.225
18.825 30.225 0.825
18.825 30.225 0.975
21.225 28.575 0.975
21.225 28.575 0.675
20.775 30.075 -0.075
18.225 29.475 0.525
20.325 30.375 -0.225
20.325 30.375 -0.075
19.425 27.375 -0.525
19.425 27.375 0.825
19.425 27.375 1.125
19.425 27.375 1.275
19.425 27.375 0.075
20.925 29.925 0.075
20.925 29.925 1.275
18.975 27.525 0.825
20.625 30.225 -0.075
20.625 30.225 0.225
20.625 30.225 -0.225
21.075 28.125 0.675
21.075 28.125 0.825
21.075 28.125 0.525
21.075 28.125 0.225
19.575 30.525 1.275
19.575 30.525 -2.475
19.575 30.525 0.525
19.575 30.525 0.825
19.575 30.525 3.225
20.475 27.525 0.075
20.475 27.525 -0.075
21.225 28.425 0.825
19.275 27.375 1.575
19.275 27.375 0.825
19.275 27.375 1.425
21.075 29.775 1.125
18.675 27.675 0.825
19.425 30.525 1.875
19.425 30.525 0.375
21.225 29.475 0.075
20.175 27.375 -0.525
18.225 29.625 0.825
20.475 30.375 -0.225
20.925 27.825 0.675
20.925 27.825 0.225
20.925 27.825 -0.075
20.775 27.675 -0.225
19.275 30.525 0.825
19.125 27.375 1.725
19.125 27.375 0.825
21.225 28.275 0.825
21.225 28.275 0.675
21.225 28.275 0.525
20.175 30.525 -0.225
21.075 27.975 -0.375
20.325 27.375 -0.075
20.325 27.375 -0.375
21.375 28.875 0.525
21.225 29.625 0.225
21.225 29.625 0.075
20.925 30.075 -0.525
20.925 30.075 0.675
20.925 30.075 -0.225
20.625 27.525 -0.075
20.625 27.525 3.825
20.625 27.525 0.075
20.775 30.225 0.375
20.775 30.225 1.575
20.775 30.225 0.225
21.075 29.925 0.075
18.225 29.775 0.675
19.575 27.225 -0.075
19.575 27.225 0.825
19.575 27.225 -0.225
19.575 27.225 -0.525
21.375 28.575 0.225
18.075 29.475 1.425
18.975 27.375 0.825
20.325 30.525 0.075
20.325 30.525 -0.375
20.325 30.525 0.375
20.625 30.375 -0.375
20.625 30.375 -0.525
20.625 30.375 3.075
18.525 27.675 0.525
21.375 29.325 -0.225
21.225 28.125 0.225
21.225 28.125 -0.225
19.425 27.225 0.075
19.425 27.225 -0.675
19.425 27.225 0.825
19.425 27.225 1.425
19.425 27.225 0.375
20.025 27.225 -0.375
20.025 27.225 -0.525
20.475 27.375 -0.375
20.475 27.375 0.525
18.675 27.525 0.825
21.225 29.775 0.375
19.725 30.675 0.825
19.725 30.675 1.275
18.525 30.225 0.075
21.375 28.425 0.375
21.375 28.425 0.525
21.375 28.425 0.975
19.575 30.675 0.525
19.575 30.675 0.825
19.575 30.675 1.275
19.575 30.675 -0.375
18.375 30.075 1.275
18.375 30.075 0.525
19.275 27.225 0.825
19.275 27.225 -0.375
18.225 27.975 0.075
21.075 27.825 -0.525
21.075 27.825 -0.075
18.075 29.625 0.525
18.075 29.625 0.375
19.425 30.675 0.825
19.425 30.675 1.425
19.425 30.675 1.725
20.775 27.525 -0.825
20.175 27.225 -0.375
20.475 30.525 0.075
20.475 30.525 -0.225
17.925 29.025 0.825
18.225 29.925 0.825
18.225 29.925 -0.375
18.825 27.375 0.825
20.925 30.225 1.875
20.925 30.225 0.525
21.075 30.075 1.725
21.075 30.075 -0.375
19.275 30.675 1.875
19.125 27.225 1.875
19.125 27.225 0.825
21.375 28.275 -0.075
20.775 30.375 0.825
20.625 27.375 -0.075
20.625 27.375 0.075
20.175 30.675 -0.375
21.375 29.625 0.375
20.325 27.225 -0.375
20.325 27.225 0.225
20.325 27.225 -0.675
17.925 29.325 0.075
17.925 29.325 5.025
18.825 30.525 0.375
21.225 29.925 0.975
21.225 29.925 0.825
21.225 29.925 1.125
21.225 29.925 0.225
21.225 29.925 1.275
21.525 28.725 0.825
19.125 30.675 1.425
19.125 30.675 0.825
21.525 29.175 0.975
20.625 30.525 -0.075
18.975 27.225 0.825
18.375 30.225 1.425
20.325 30.675 -1.425
17.925 29.475 6.525
17.925 29.475 -0.225
17.925 29.475 0.225
17.925 29.475 0.075
19.575 27.075 -0.525
21.375 28.125 0.225
21.525 28.575 -0.375
21.525 28.575 0.225
21.075 27.675 0.075
19.875 27.075 -1.125
18.525 30.375 0.825
20.925 27.525 0.525
18.225 30.075 0.075
20.475 27.225 -0.375
19.425 27.075 0.825
19.425 27.075 0.075
19.425 27.075 1.275
21.375 29.775 0.675
21.375 29.775 0.525
21.375 29.775 0.975
20.025 27.075 0.375
21.225 27.825 0.225
21.075 30.225 1.425
21.075 30.225 0.075
21.075 30.225 1.125
21.525 28.425 0.225
21.525 28.425 0.375
20.925 30.375 0.825
19.725 30.825 -0.525
19.725 30.825 0.525
19.575 30.825 1.425
19.575 30.825 -0.225
19.575 30.825 1.275
19.575 30.825 0.825
19.575 30.825 -0.375
19.275 27.075 0.825
18.075 29.925 1.425
17.925 29.625 0.975
17.925 29.625 4.875
17.925 29.625 -0.825
17.925 29.625 0.825
17.925 29.625 0.075
21.225 30.075 0.825
21.225 30.075 0.225
18.825 27.225 0.825
19.425 30.825 0.825
19.425 30.825 3.225
20.775 30.525 1.425
20.775 30.525 0.825
17.775 29.025 -0.075
21.375 27.975 7.275
21.375 27.975 0.225
17.775 28.725 0.825
21.525 28.275 0.075
21.525 28.275 0.375
21.525 28.275 0.525
19.125 27.075 0.825
19.275 30.825 0.825
19.275 30.825 1.575
17.925 28.125 0.675
21.375 29.925 0.375
21.375 29.925 1.725
21.375 29.925 0.525
21.375 29.925 2.175
20.325 27.075 -0.675
20.325 27.075 0.375
17.925 29.775 0.825
17.925 29.775 0.975
17.925 29.775 1.125
21.225 27.675 -0.075
20.625 30.675 1.725
20.625 30.675 -0.225
20.925 27.375 -0.225
18.075 30.075 0.525
18.975 27.075 0.225
21.525 28.125 0.075
17.775 29.475 3.525
21.225 30.225 1.125
21.225 30.225 0.075
21.225 30.225 0.675
21.225 30.225 6.375
21.225 30.225 0.375
19.725 26.925 -0.675
21.375 27.825 -0.225
21.375 27.825 0.225
19.575 26.925 0.825
20.475 27.075 1.125
20.475 27.075 0.375
19.875 26.925 -0.375
21.525 29.775 0.825
21.525 29.775 0.525
21.525 29.775 0.675
20.925 30.525 0.975
20.775 27.225 0.525
20.775 27.225 -0.075
21.675 29.325 0.075
19.425 26.925 0.825
19.425 26.925 0.525
19.425 26.925 -0.825
19.425 26.925 1.425
21.375 30.075 1.425
18.975 30.825 0.825
18.975 30.825 0.675
17.925 29.925 -0.525
17.925 29.925 1.125
18.225 27.525 0.225
18.225 27.525 -0.525
21.675 28.425 0.525
19.725 30.975 0.525
19.725 30.975 0.825
17.775 29.625 0.825
17.775 29.625 0.075
17.775 29.625 -0.075
17.775 29.625 -1.275
17.775 29.625 1.575
19.275 26.925 -0.675
19.275 26.925 0.825
18.825 27.075 2.775
19.575 30.975 1.425
19.575 30.975 1.275
19.575 30.975 -0.225
19.575 30.975 0.825
20.775 30.675 0.225
20.175 26.925 1.125
19.425 30.975 0.825
18.225 30.375 0.675
20.025 30.975 2.925
20.025 30.975 1.425
21.225 27.525 0.225
21.225 27.525 -0.075
18.375 30.525 1.575
18.375 30.525 2.025
18.375 30.525 0.975
21.075 27.375 0.075
17.625 29.025 0.225
18.075 30.225 0.675
18.075 30.225 1.125
18.075 30.225 1.275
21.525 29.925 0.675
21.525 29.925 0.825
18.825 30.825 0.675
17.625 29.175 0.375
19.275 30.975 0.825
20.325 26.925 0.225
21.225 30.375 0.825
21.225 30.375 -4.575
21.225 30.375 0.375
17.775 29.775 0.075
17.775 29.775 1.425
21.075 30.525 0.675
20.625 30.825 0.975
17.625 29.325 0.375
17.625 29.325 0.075
17.925 30.075 1.275
21.375 30.225 2.175
21.375 30.225 0.525
21.375 30.225 0.375
19.125 30.975 0.675
19.125 30.975 0.825
21.675 28.125 0.525
20.925 30.675 2.025
20.925 30.675 0.375
21.825 28.725 0.375
21.825 29.175 0.375
21.825 29.175 -0.075
20.325 30.975 -4.575
20.775 27.075 0.525
20.475 26.925 0.375
20.475 26.925 0.225
21.825 28.575 -1.125
18.675 30.825 2.175
18.675 30.825 4.425
21.525 30.075 1.125
21.525 30.075 0.525
21.525 30.075 1.575
19.575 26.775 -0.675
19.575 26.775 -0.225
21.825 29.325 -0.075
17.775 29.925 0.675
17.775 29.925 1.575
17.775 29.925 0.375
17.775 29.925 2.475
17.775 29.925 0.825
17.775 29.925 1.425
19.425 26.775 -0.675
19.425 26.775 1.275
19.425 26.775 0.825
17.925 27.675 0.825
18.225 30.525 0.525
18.075 30.375 1.125
18.075 30.375 1.275
18.075 30.375 0.375
18.075 30.375 0.975
20.025 26.775 2.025
20.775 30.825 0.975
21.825 28.425 0.525
21.825 28.425 1.275
17.625 29.625 3.525
17.625 29.625 1.275
21.075 27.225 0.375
18.375 30.675 2.175
18.375 30.675 0.225
18.375 30.675 -1.725
18.375 30.675 0.675
19.275 26.775 0.825
19.725 31.125 -0.225
17.925 30.225 1.575
17.925 30.225 -0.525
19.575 31.125 0.825
19.575 31.125 1.275
19.575 31.125 -0.375
19.575 31.125 1.425
19.875 31.125 -0.375
20.175 26.775 1.275
21.225 30.525 0.825
21.225 30.525 1.125
21.225 30.525 0.675
21.675 29.925 0.375
21.675 29.925 0.825
21.375 30.375 0.975
21.375 30.375 0.825
21.375 30.375 1.125
21.375 30.375 1.275
21.375 30.375 2.025
19.425 31.125 2.325
19.425 31.125 3.225
19.425 31.125 1.575
21.075 30.675 -0.075
21.075 30.675 0.675
17.475 28.875 0.825
18.825 30.975 0.675
17.475 29.025 -2.175
19.125 26.775 0.525
19.125 26.775 1.875
19.275 31.125 0.825
19.275 31.125 -0.825
17.475 29.175 -0.525
17.775 30.075 1.575
17.775 30.075 1.425
17.775 30.075 0.225
17.625 29.775 3.375
17.625 29.775 0.375
17.625 29.775 0.825
17.625 29.775 0.675
17.625 29.775 6.375
20.325 26.775 0.825
20.325 26.775 0.675
20.625 30.975 -0.225
20.175 31.125 0.075
18.675 26.925 0.675
17.475 28.575 0.825
20.925 30.825 0.225
20.925 30.825 1.275
17.475 29.325 -2.625
21.675 27.825 0.675
18.975 26.775 0.825
21.825 28.125 0.675
20.775 26.925 0.075
20.775 26.925 0.675
20.775 26.925 0.975
21.975 28.875 0.075
18.075 30.525 1.125
18.075 30.525 0.675
18.075 30.525 0.825
17.625 27.975 0.975
20.325 31.125 -0.075
18.225 30.675 1.575
21.225 27.225 0.525
20.475 26.775 0.075
20.475 26.775 -0.375
20.475 26.775 0.225
20.475 26.775 1.275
17.925 30.375 1.125
17.925 30.375 0.975
17.625 29.925 0.975
17.625 29.925 1.275
17.625 29.925 3.225
17.625 29.925 1.125
17.625 29.925 0.225
17.625 29.925 0.675
19.725 26.625 -0.375
19.575 26.625 -0.825
21.075 27.075 0.375
20.775 30.975 0.675
20.775 30.975 -0.375
18.975 31.125 0.825
18.375 30.825 -0.675
18.375 30.825 2.775
21.375 30.525 1.125
21.375 30.525 1.575
21.375 30.525 0.675
21.225 30.675 0.825
21.225 30.675 1.875
21.225 30.675 1.725
19.425 26.625 2.475
19.425 26.625 0.825
17.775 30.225 1.425
17.775 30.225 1.575
17.775 30.225 1.275
17.775 30.225 0.975
18.825 26.775 0.825
21.525 30.375 0.675
21.525 30.375 0.825
21.975 28.425 0.825
17.475 29.625 1.725
17.475 29.625 0.825
19.275 26.625 1.875
19.275 26.625 0.825
21.075 30.825 0.825
21.075 30.825 1.725
20.625 26.775 1.125
20.625 26.775 0.375
19.725 31.275 0.825
19.725 31.275 -0.225
19.725 31.275 0.375
19.725 31.275 -0.375
19.575 31.275 0.825
19.575 31.275 1.275
19.575 31.275 2.025
19.575 31.275 -1.275
20.175 26.625 0.225
20.175 26.625 1.725
18.525 30.975 0.975
18.525 30.975 2.175
19.425 31.275 1.575
19.425 31.275 -0.675
19.425 31.275 0.825
21.675 30.225 1.125
18.825 31.125 0.825
20.025 31.275 -0.225
17.625 30.075 1.275
17.625 30.075 1.725
17.625 30.075 1.125
17.625 30.075 2.175
17.625 30.075 0.975
17.625 30.075 1.875
17.475 29.775 1.125
17.475 29.775 2.175
17.475 29.775 2.025
17.475 29.775 1.425
17.325 28.725 -0.975
20.625 31.125 0.675
20.625 31.125 2.625
18.075 30.675 2.025
18.075 30.675 0.825
20.925 30.975 1.125
20.925 30.975 0.075
17.925 30.525 1.275
17.925 30.525 1.875
17.925 30.525 0.975
17.925 30.525 1.125
20.325 26.625 0.825
20.325 26.625 0.975
18.225 30.825 1.125
18.225 30.825 0.675
20.775 26.775 1.125
17.775 30.375 1.425
17.775 30.375 1.575
17.775 30.375 1.725
17.775 30.375 1.275
21.975 28.125 0.075
21.825 30.075 0.225
18.975 26.625 2.325
18.975 26.625 0.075
18.975 26.625 0.675
19.125 31.275 -2.025
21.375 30.675 1.125
21.375 30.675 0.525
21.375 30.675 0.975
17.475 27.975 -0.375
18.675 31.125 1.125
21.525 30.525 0.825
21.525 30.525 0.675
22.125 28.875 0.375
20.325 31.275 0.225
20.325 31.275 -1.125
20.325 31.275 0.075
20.475 26.625 1.275
20.475 26.625 0.075
20.475 26.625 0.525
20.475 26.625 1.425
20.475 26.625 0.675
21.225 30.825 0.825
21.225 30.825 0.675
21.225 30.825 1.575
21.225 30.825 1.125
17.325 29.475 0.675
17.325 29.475 1.125
17.475 29.925 1.875
17.475 29.925 0.975
17.475 29.925 2.175
17.475 29.925 1.275
17.475 29.925 1.125
17.475 29.925 1.725
17.475 29.925 2.025
17.475 29.925 3.225
17.475 29.925 0.675
18.375 30.975 0.825
22.125 29.175 0.675
22.125 29.175 0.975
20.775 31.125 1.275
20.775 31.125 0.525
20.775 31.125 -0.375
17.625 30.225 1.875
17.625 30.225 1.425
17.625 30.225 2.325
17.625 30.225 2.925
17.625 30.225 2.175
17.625 30.225 2.025
17.625 30.225 1.275
21.675 30.375 0.975
19.725 26.475 2.025
19.725 26.475 -0.225
19.725 26.475 2.925
18.975 31.275 -0.525
18.975 31.275 0.975
18.975 31.275 0.675
18.975 31.275 0.225
19.575 26.475 -0.075
19.575 26.475 -0.375
19.575 26.475 -0.225
19.575 26.475 0.075
18.825 26.625 -0.975
18.825 26.625 -2.325
21.075 30.975 -0.075
21.075 30.975 0.825
21.075 30.975 0.075
21.075 30.975 0.375
21.075 30.975 0.225
21.075 30.975 0.525
21.075 30.975 0.975
19.425 26.475 -0.675
20.475 31.275 0.225
17.325 29.625 0.825
17.325 29.625 3.375
22.125 28.425 0.225
20.925 26.775 0.825
20.925 26.775 0.225
20.625 26.625 0.975
17.925 30.675 1.275
17.925 30.675 1.125
17.925 30.675 1.425
19.275 26.475 1.575
18.525 31.125 -0.375
18.525 31.125 1.125
18.525 31.125 2.325
18.525 31.125 1.425
19.725 31.425 -0.225
19.725 31.425 0.375
19.725 31.425 0.825
18.075 30.825 0.975
19.575 31.425 0.675
19.575 31.425 1.575
19.575 31.425 1.125
19.575 31.425 -0.375
19.575 31.425 1.425
19.575 31.425 -0.075
19.575 31.425 1.275
17.775 30.525 1.725
17.775 30.525 1.425
17.775 30.525 2.175
17.775 30.525 0.825
19.875 31.425 -0.225
19.875 31.425 1.275
19.875 31.425 -0.525
19.875 31.425 -0.075
17.475 30.075 1.425
17.475 30.075 1.125
17.475 30.075 0.825
17.475 30.075 2.325
17.475 30.075 1.725
17.475 30.075 1.275
18.825 31.275 1.275
19.425 31.425 1.875
19.425 31.425 0.825
22.125 28.275 0.225
20.925 31.125 -0.225
21.225 26.925 0.825
19.125 26.475 0.375
19.125 26.475 0.825
17.325 29.775 0.825
18.675 26.625 0.675
17.175 28.875 0.675
21.525 30.675 0.675
21.525 30.675 0.525
21.525 30.675 0.825
21.525 30.675 0.975
17.625 30.375 1.425
17.625 30.375 1.275
17.625 30.375 3.675
21.375 30.825 0.825
21.375 30.825 1.275
21.375 30.825 2.025
21.375 30.825 0.525
21.375 30.825 0.675
20.325 26.475 0.375
19.275 31.425 1.575
17.175 28.725 -0.675
21.675 30.525 0.975
20.175 31.425 0.075
20.775 26.625 -0.075
17.175 28.575 -0.825
21.225 30.975 1.275
21.225 30.975 0.075
21.225 30.975 1.125
21.225 30.975 0.825
22.125 28.125 0.525
22.125 28.125 1.125
22.125 28.125 0.225
21.075 26.775 0.675
21.075 26.775 1.125
21.075 26.775 0.525
21.075 26.775 1.275
17.175 29.325 0.375
18.975 26.475 0.825
18.675 31.275 2.475
19.125 31.425 0.825
19.125 31.425 2.175
18.375 31.125 1.125
18.375 31.125 1.275
20.475 26.475 -0.525
20.325 31.425 0.225
17.475 30.225 2.475
17.475 30.225 1.125
17.475 30.225 2.025
17.475 30.225 1.425
17.475 30.225 3.375
17.475 30.225 0.975
17.475 30.225 2.925
20.775 31.275 -0.225
17.175 29.475 3.375
17.175 29.475 2.925
21.075 31.125 0.825
21.075 31.125 0.975
21.075 31.125 -0.525
21.075 31.125 0.675
21.075 31.125 0.525
17.925 30.825 -0.525
17.925 30.825 1.275
17.775 30.675 -0.825
17.775 30.675 0.975
18.975 31.425 4.575
18.975 31.425 0.825
21.525 27.075 1.125
19.725 26.325 0.075
18.825 26.475 0.825
18.825 26.475 0.675
19.575 26.325 -0.375
19.575 26.325 -1.275
21.675 27.225 0.525
20.925 26.625 0.975
20.925 26.625 0.825
19.875 26.325 2.175
21.375 26.925 0.675
18.075 30.975 0.525
20.475 31.425 -0.225
17.625 30.525 1.275
17.625 30.525 0.675
17.625 30.525 1.125
17.625 30.525 1.425
19.425 26.325 0.225
19.425 26.325 1.275
17.325 27.825 -0.525
17.175 29.625 3.525
17.175 29.625 0.825
17.175 29.625 -0.225
22.125 29.925 0.225
20.625 26.475 -0.525
20.625 26.475 1.575
18.525 31.275 2.025
18.525 31.275 1.275
18.525 31.275 2.775
21.525 30.825 0.675
21.525 30.825 0.525
21.675 30.675 0.675
21.675 30.675 0.825
17.325 30.075 1.875
17.325 30.075 0.525
19.275 26.325 0.825
21.225 26.775 0.375
21.225 26.775 1.425
21.375 30.975 0.825
21.375 30.975 0.525
21.375 30.975 1.125
21.375 30.975 0.675
21.375 30.975 1.425
21.375 30.975 0.225
18.225 31.125 1.125
18.225 31.125 1.275
18.225 31.125 1.575
19.725 31.575 -0.375
19.725 31.575 -0.075
19.725 31.575 0.675
20.925 31.275 0.375
20.925 31.275 0.525
19.575 31.575 -0.375
19.575 31.575 -0.225
19.575 31.575 0.825
19.875 31.575 -0.375
19.875 31.575 -0.075
17.475 30.375 1.875
17.475 30.375 2.025
17.475 30.375 1.275
17.475 30.375 0.675
17.475 30.375 0.975
22.275 28.275 -0.225
21.825 30.525 1.275
18.675 26.475 0.675
19.425 31.575 0.975
19.425 31.575 1.575
19.425 31.575 0.675
20.625 31.425 -0.375
20.625 31.425 0.075
20.625 31.425 7.425
17.175 29.775 1.125
17.175 29.775 0.525
17.175 29.775 2.625
17.175 29.775 1.875
19.125 26.325 0.825
19.125 26.325 1.875
20.025 31.575 0.375
21.225 31.125 0.525
21.225 31.125 -0.075
21.225 31.125 0.825
20.325 26.325 0.975
20.325 26.325 -0.525
20.325 26.325 1.575
20.325 26.325 0.075
20.775 26.475 0.525
19.275 31.575 0.525
19.275 31.575 0.825
21.075 26.625 0.225
21.075 26.625 0.375
20.175 31.575 2.325
20.175 31.575 2.475
18.375 31.275 4.575
18.375 31.275 2.475
22.275 28.125 0.375
17.775 30.825 1.275
17.775 30.825 0.825
18.975 26.325 0.825
18.975 26.325 2.625
17.325 30.225 2.175
17.325 30.225 1.125
17.325 30.225 0.975
17.325 30.225 1.875
17.325 30.225 1.575
17.925 30.975 0.825
17.925 30.975 1.425
17.925 30.975 -0.975
17.925 30.975 -0.675
21.525 26.925 0.675
21.525 26.925 -0.525
22.275 29.775 0.225
17.625 30.675 2.775
17.625 30.675 2.025
17.625 30.675 0.975
17.625 30.675 1.125
17.175 29.925 0.825
17.175 29.925 1.125
17.175 29.925 1.425
20.475 26.325 1.725
20.775 31.425 1.125
20.325 31.575 0.075
21.075 31.275 0.525
21.075 31.275 0.825
21.075 31.275 5.475
22.425 28.875 1.425
21.375 26.775 0.975
21.375 26.775 2.025
17.025 29.475 0.225
18.075 31.125 0.075
17.475 30.525 2.325
17.475 30.525 2.925
17.475 30.525 1.575
17.475 30.525 2.475
17.475 30.525 1.275
21.675 30.825 0.975
21.525 30.975 0.675
21.525 30.975 0.975
21.525 30.975 1.125
20.925 26.475 1.125
20.925 26.475 -0.075
20.925 26.475 0.225
20.925 26.475 1.425
18.975 31.575 1.875
18.975 31.575 0.825
18.975 31.575 -0.225
21.825 30.675 2.025
21.825 30.675 0.675
19.575 26.175 -0.075
20.475 31.575 -0.075
20.475 31.575 -0.375
20.475 31.575 -0.975
20.475 31.575 0.225
18.525 31.425 0.975
18.525 31.425 0.225
21.375 31.125 0.825
21.375 31.125 1.125
21.375 31.125 -0.075
21.375 31.125 0.675
21.225 26.625 1.275
21.225 26.625 0.975
21.225 26.625 0.675
20.625 26.325 0.375
20.625 26.325 0.675
20.625 26.325 -0.375
20.625 26.325 -0.225
20.625 26.325 -0.075
20.625 26.325 1.725
20.625 26.325 0.075
17.025 29.625 1.125
19.425 26.175 0.825
19.425 26.175 0.525
19.425 26.175 1.275
18.225 31.275 1.875
17.175 30.075 0.975
17.175 30.075 2.925
17.175 30.075 0.825
17.175 30.075 0.225
17.175 30.075 1.725
17.175 30.075 1.275
17.175 30.075 2.475
20.025 26.175 0.825
17.325 30.375 2.025
17.325 30.375 0.525
17.325 30.375 0.975
17.325 30.375 2.475
19.275 26.175 1.425
18.825 31.575 1.425
17.025 28.125 -2.775
19.725 31.725 -0.075
19.725 31.725 -0.225
19.725 31.725 0.525
19.725 31.725 -0.825
19.725 31.725 -0.375
19.725 31.725 0.675
19.725 31.725 0.825
18.675 26.325 0.675
21.225 31.275 0.525
21.225 31.275 0.375
21.225 31.275 0.675
19.575 31.725 0.825
19.575 31.725 1.575
19.875 31.725 -0.375
19.875 31.725 -0.075
20.625 31.575 -0.075
20.625 31.575 -3.075
17.025 29.775 2.775
17.025 29.775 1.275
17.775 30.975 0.375
17.775 30.975 0.525
17.775 30.975 0.825
19.425 31.725 0.825
19.425 31.725 1.875
17.625 30.825 0.825
21.075 26.475 1.125
21.075 26.475 1.275
21.075 26.475 0.675
21.075 26.475 -0.075
19.125 26.175 0.825
19.125 26.175 1.875
21.675 26.925 1.125
20.775 26.325 -0.675
20.775 26.325 0.075
20.775 26.325 2.025
20.775 26.325 0.825
20.775 26.325 1.425
20.775 26.325 0.225
21.525 26.775 2.175
17.925 31.125 0.675
20.325 26.175 0.225
18.375 31.425 2.325
17.475 30.675 0.225
17.475 30.675 2.175
19.275 31.725 0.825
19.275 31.725 -0.075
19.275 31.725 2.175
16.875 29.175 1.275
18.675 31.575 0.525
17.175 30.225 2.625
17.175 30.225 0.675
17.175 30.225 1.425
21.675 30.975 0.525
21.375 26.625 1.275
21.375 26.625 0.525
21.075 31.425 0.075
17.025 29.925 0.825
17.025 29.925 0.675
17.025 29.925 1.575
19.125 31.725 2.325
19.125 31.725 0.675
21.525 31.125 0.525
21.525 31.125 0.375
18.525 26.325 0.675
20.775 31.575 -0.225
20.475 26.175 -0.525
20.475 26.175 0.225
17.325 30.525 2.175
17.325 30.525 -0.075
20.325 31.725 -0.075
20.325 31.725 -0.225
20.325 31.725 2.325
22.575 28.875 0.975
16.875 29.475 0.225
16.875 29.475 1.425
16.875 29.475 3.675
20.925 26.325 1.125
20.925 26.325 0.525
20.925 26.325 -0.075
20.925 26.325 0.675
21.375 31.275 6.225
21.375 31.275 0.975
22.425 27.975 0.975
18.975 31.725 1.425
18.975 31.725 0.825
18.975 31.725 0.675
18.975 31.725 0.525
21.225 26.475 0.525
21.225 26.475 0.675
21.225 26.475 1.875
18.525 31.575 4.575
18.525 31.575 0.675
22.575 28.575 -0.075
18.225 31.425 0.675
18.225 31.425 3.225
18.225 31.425 0.825
20.475 31.725 -0.075
20.475 31.725 0.675
19.725 26.025 -0.825
19.725 26.025 0.225
19.725 26.025 -0.225
20.625 26.175 -0.075
20.625 26.175 0.525
20.625 26.175 0.375
20.625 26.175 0.075
19.575 26.025 -0.525
19.575 26.025 -0.075
19.575 26.025 -0.225
19.575 26.025 0.375
16.875 29.625 0.825
16.875 29.625 2.475
17.175 30.375 1.275
17.175 30.375 -0.375
17.175 30.375 1.425
17.175 30.375 2.475
17.175 30.375 1.875
17.025 30.075 2.175
17.025 30.075 0.825
17.625 30.975 1.125
17.625 30.975 0.825
19.425 26.025 1.275
17.775 31.125 1.575
21.825 26.925 1.725
20.025 26.025 -0.375
17.475 30.825 1.875
17.475 30.825 2.025
17.475 30.825 2.175
21.225 31.425 0.375
18.825 31.725 0.525
18.825 31.725 0.825
19.275 26.025 0.825
21.975 27.075 0.825
21.975 27.075 0.675
16.875 28.125 0.975
18.675 26.175 0.675
21.525 26.625 2.175
17.925 31.275 -0.525
20.175 26.025 -0.375
20.175 26.025 0.525
21.075 26.325 0.975
21.075 26.325 2.025
21.075 26.325 0.225
21.075 26.325 -0.075
20.625 31.725 -0.525
20.625 31.725 0.075
19.725 31.875 0.825
19.725 31.875 0.075
17.325 30.675 -0.075
16.875 29.775 1.125
16.875 29.775 3.225
19.575 31.875 -0.675
19.575 31.875 0.825
19.575 31.875 1.275
21.825 30.975 0.675
21.675 31.125 -0.375
21.675 31.125 0.675
21.675 31.125 0.225
20.775 26.175 -0.075
20.775 26.175 0.525
20.775 26.175 -0.525
19.425 31.875 1.575
19.425 31.875 0.825
19.425 31.875 -0.225
19.425 31.875 0.225
18.375 31.575 1.725
18.375 31.575 0.225
18.375 31.575 -0.375
18.375 31.575 2.925
19.125 26.025 1.875
19.125 26.025 0.825
21.975 30.825 0.075
22.125 27.225 0.825
20.325 26.025 0.075
20.325 26.025 0.375
21.375 26.475 1.275
17.025 30.225 3.225
17.025 30.225 0.825
17.025 30.225 0.675
21.525 31.275 0.525
16.725 29.025 -0.225
19.275 31.875 0.825
18.675 31.725 1.425
16.725 28.725 -0.225
21.075 31.575 3.825
21.075 31.575 -0.525
21.075 31.575 0.075
16.725 29.175 0.675
22.575 28.125 1.725
22.575 28.125 1.125
17.175 30.525 -0.375
17.175 30.525 2.025
18.975 26.025 0.675
18.975 26.025 0.825
16.875 29.925 0.675
20.775 31.725 -0.075
16.725 29.325 -0.525
16.725 29.325 2.475
19.125 31.875 0.375
20.475 26.025 -0.675
20.475 26.025 -0.225
20.475 26.025 0.225
20.325 31.875 0.075
17.325 27.075 6.375
20.925 26.175 0.825
20.925 26.175 0.225
20.925 26.175 -0.075
17.625 31.125 0.675
17.625 31.125 -0.075
16.725 29.475 -0.225
21.825 26.775 1.125
22.725 29.025 1.125
22.575 27.975 1.125
18.225 31.575 1.875
22.275 30.525 0.975
22.275 30.525 0.525
21.975 26.925 1.275
18.825 26.025 0.675
18.525 31.725 3.825
21.675 26.625 1.425
21.675 26.625 1.575
21.675 26.625 2.025
17.775 31.275 0.825
17.775 31.275 0.375
17.775 31.275 -0.225
17.325 30.825 -0.975
17.025 30.375 0.975
17.025 30.375 1.875
17.025 30.375 2.475
16.725 28.275 0.375
16.725 28.275 0.225
16.725 28.275 -0.675
16.725 28.275 -0.375
20.625 26.025 0.375
16.875 30.075 3.075
22.125 27.075 2.325
20.925 31.725 1.125
20.925 31.725 -0.225
19.725 25.875 -0.375
19.725 25.875 -0.225
19.725 25.875 0.375
16.725 29.625 0.825
16.725 29.625 1.425
19.575 25.875 0.375
21.825 31.125 0.375
21.525 26.475 0.825
19.875 25.875 0.525
19.875 25.875 -0.375
21.975 30.975 1.425
21.975 30.975 0.975
21.975 30.975 0.825
21.975 30.975 0.375
17.925 31.425 -0.825
22.425 27.525 2.325
19.425 25.875 0.525
19.425 25.875 0.075
19.425 25.875 -0.525
19.425 25.875 0.825
19.425 25.875 1.275
22.725 28.425 0.975
22.725 28.425 0.675
21.675 31.275 0.975
21.675 31.275 0.675
17.175 30.675 0.975
20.025 25.875 0.975
18.825 31.875 0.825
18.825 31.875 -1.275
21.075 26.175 1.125
22.125 30.825 1.125
22.125 30.825 1.425
22.125 30.825 0.225
18.675 26.025 0.975
22.575 27.825 1.875
19.275 25.875 -0.075
19.275 25.875 1.575
20.625 31.875 0.075
20.625 31.875 -0.075
20.625 31.875 -0.525
20.175 25.875 -0.825
20.175 25.875 -0.225
16.725 29.775 0.975
16.725 29.775 0.075
18.375 31.725 0.075
18.375 31.725 3.375
21.375 26.325 0.675
21.375 26.325 0.525
21.375 26.325 2.475
20.775 26.025 0.225
20.775 26.025 -0.525
19.725 32.025 0.075
19.725 32.025 1.275
19.725 32.025 -0.675
19.725 32.025 -0.225
19.725 32.025 -0.975
19.725 32.025 0.525
19.725 32.025 0.825
19.575 32.025 0.825
19.575 32.025 1.275
19.575 32.025 -0.525
19.575 32.025 0.975
19.575 32.025 -0.075
19.575 32.025 -0.975
19.575 32.025 1.575
19.875 32.025 -0.075
19.875 32.025 1.275
18.075 31.575 -2.025
19.125 25.875 0.825
16.875 30.225 2.475
19.425 32.025 0.525
19.425 32.025 0.825
19.425 32.025 0.675
20.025 32.025 0.375
20.025 32.025 0.675
20.025 32.025 -0.075
17.025 30.525 -0.825
20.325 25.875 0.225
20.325 25.875 0.675
20.325 25.875 0.825
20.325 25.875 0.075
20.325 25.875 -0.825
19.275 32.025 0.675
19.275 32.025 0.525
19.275 32.025 0.825
16.575 29.025 -0.375
17.475 31.125 -0.225
16.575 28.725 -0.225
16.575 28.725 -0.675
16.575 28.725 0.075
20.175 32.025 0.825
21.975 26.775 0.825
16.575 29.175 0.075
21.825 26.625 0.975
17.325 30.975 0.975
16.725 29.925 0.225
16.575 28.575 -0.225
16.575 28.575 0.375
16.575 28.575 -0.675
22.125 26.925 1.125
21.225 26.175 0.975
21.675 26.475 1.275
21.675 26.475 1.875
21.675 26.475 1.725
20.925 26.025 0.825
20.925 26.025 7.125
17.775 31.425 0.075
17.175 30.825 -0.825
21.975 31.125 0.225
16.575 28.425 -0.075
16.575 28.425 0.225
16.575 28.425 0.375
18.525 31.875 1.575
16.575 29.475 0.075
22.125 30.975 1.275
21.525 26.325 0.075
18.975 32.025 0.225
18.975 32.025 0.675
22.875 28.725 0.825
21.675 31.425 0.525
17.925 31.575 0.225
20.625 25.875 0.375
20.925 31.875 3.525
20.925 31.875 -0.075
20.475 32.025 -0.825
16.575 28.275 -0.525
22.875 28.575 0.825
19.725 25.725 1.875
19.575 25.725 -0.375
19.575 25.725 -0.225
19.875 25.725 0.825
21.075 26.025 -0.075
21.075 26.025 -0.225
21.075 26.025 0.375
22.425 27.225 0.375
21.525 31.575 -4.725
21.525 31.575 0.375
19.425 25.725 -0.075
19.425 25.725 1.275
19.425 25.725 0.075
21.375 26.175 0.525
19.275 25.725 0.825
20.625 32.025 0.375
20.625 32.025 -0.075
20.625 32.025 0.975
22.425 30.675 1.275
16.575 29.775 0.225
20.775 25.875 -0.375
20.775 25.875 -0.525
20.175 25.725 0.075
22.875 28.275 1.575
22.125 26.775 1.575
16.875 30.525 -0.525
16.725 30.225 1.425
16.725 30.225 2.325
16.725 30.225 -0.375
21.825 26.475 0.825
19.725 32.175 3.225
19.725 32.175 0.075
19.725 32.175 -0.225
19.725 32.175 -0.075
19.725 32.175 0.675
19.725 32.175 0.975
19.575 32.175 0.675
19.575 32.175 0.525
19.575 32.175 1.275
19.875 32.175 0.075
19.875 32.175 1.725
19.875 32.175 -0.075
21.075 31.875 0.975
21.075 31.875 0.075
21.075 31.875 5.625
19.125 25.725 0.825
19.425 32.175 1.875
19.425 32.175 0.825
19.425 32.175 -0.075
22.275 26.925 0.975
16.575 27.975 0.375
17.775 31.575 -0.075
19.275 32.175 0.525
19.275 32.175 -2.925
19.275 32.175 -0.525
22.725 27.675 1.875
16.425 28.875 -0.225
22.875 28.125 1.275
16.425 29.025 0.225
16.425 29.025 0.375
16.575 29.925 -0.225
16.575 29.925 0.375
21.225 26.025 0.675
20.175 32.175 1.875
20.175 32.175 -0.225
16.425 29.175 2.325
18.975 25.725 0.825
20.925 25.875 0.075
20.925 25.875 0.525
20.925 25.875 0.675
20.925 25.875 0.825
22.425 27.075 0.525
20.475 25.725 -0.975
20.475 25.725 0.675
19.125 32.175 0.675
16.425 29.325 0.675
16.425 29.325 0.525
16.425 29.325 0.225
20.325 32.175 4.425
18.525 32.025 -0.825
16.425 28.425 0.225
16.425 28.425 0.075
16.425 28.425 -0.225
22.875 27.975 0.675
16.425 29.475 0.375
16.425 29.475 0.675
22.425 30.825 1.275
18.825 25.725 0.825
18.825 25.725 -0.075
18.825 25.725 2.625
18.975 32.175 0.675
16.575 30.075 -0.675
23.025 29.175 1.575
20.625 25.725 0.375
22.725 27.525 2.175
17.325 31.275 -0.225
22.575 27.225 1.725
17.475 31.425 -0.675
16.425 29.625 0.225
16.425 29.625 0.375
21.075 25.875 1.125
21.375 26.025 0.675
19.725 25.575 0.675
19.575 25.575 0.075
19.575 25.575 -0.075
19.575 25.575 0.225
22.275 26.775 5.925
22.275 26.775 1.275
22.275 26.775 1.725
21.825 26.325 2.775
22.875 27.825 1.875
18.675 25.725 0.825
19.425 25.575 0.525
19.425 25.575 -0.825
19.425 25.575 0.075
19.425 25.575 -0.375
19.425 25.575 0.825
19.425 25.575 -0.225
16.575 27.675 2.925
22.875 30.075 0.225
22.875 30.075 2.175
20.775 25.725 -0.825
20.775 25.725 -0.525
20.775 25.725 0.375
20.175 25.575 0.375
23.025 28.275 1.425
17.775 31.725 0.675
17.775 31.725 0.225
19.725 32.325 0.525
19.725 32.325 0.825
19.725 32.325 0.075
19.725 32.325 -0.225
19.725 32.325 0.225
23.025 29.625 2.175
19.575 32.325 1.425
19.575 32.325 1.275
19.575 32.325 0.975
19.575 32.325 -0.375
19.575 32.325 0.525
19.575 32.325 0.675
19.875 32.325 -0.225
19.875 32.325 -0.675
19.875 32.325 0.075
22.725 27.375 0.825
19.125 25.575 1.875
19.125 25.575 0.975
19.425 32.325 -0.825
19.425 32.325 0.825
20.325 25.575 2.025
21.225 25.875 1.275
21.225 25.875 0.525
22.725 30.525 1.125
22.575 27.075 0.825
22.575 27.075 1.125
23.025 28.125 1.575
19.275 32.325 -0.075
19.275 32.325 0.825
16.425 29.925 0.225
16.425 29.925 -0.075
16.425 29.925 2.025
16.425 29.925 1.425
16.275 28.875 0.375
16.275 28.875 0.825
16.275 28.875 0.525
16.275 28.875 0.075
16.275 29.025 -0.075
16.275 29.025 0.075
22.875 30.225 0.675
20.925 25.725 0.075
20.925 25.725 0.225
20.925 25.725 0.825
16.275 29.175 0.075
20.475 25.575 0.075
20.475 25.575 -0.225
16.575 30.375 0.225
22.125 26.475 2.175
22.275 26.625 1.575
16.425 27.825 -0.225
17.475 31.575 0.525
17.025 31.125 -0.075
16.275 28.425 0.225
18.825 25.575 0.375
18.825 25.575 0.825
22.725 27.225 0.825
22.725 27.225 0.975
18.975 32.325 0.675
18.975 32.325 0.225
22.425 26.775 -0.075
22.425 26.775 1.125
22.425 26.775 0.975
22.425 26.775 0.825
20.625 25.575 0.825
20.625 25.575 -0.675
21.375 25.875 0.975
20.475 32.325 2.025
21.075 25.725 0.525
21.075 25.725 0.675
23.175 28.575 1.425
23.175 28.575 1.275
18.075 32.025 4.275
19.725 25.425 0.525
23.025 27.825 1.875
23.025 27.825 1.275
23.025 27.825 2.025
19.575 25.425 0.225
19.575 25.425 -0.075
19.575 25.425 0.075
18.375 32.175 3.825
18.825 32.325 0.675
19.875 25.425 -0.375
16.575 30.525 2.625
23.175 28.425 1.425
23.175 28.425 1.275
20.625 32.325 -0.075
20.775 25.575 -0.825
20.775 25.575 0.375
20.775 25.575 0.525
20.775 25.575 0.975
16.425 30.225 0.375
21.075 32.175 5.325
16.275 29.775 0.375
16.275 29.775 0.675
19.275 25.425 0.375
19.275 25.425 0.825
19.275 25.425 1.725
17.025 26.625 -0.675
22.875 27.375 1.275
23.175 28.275 1.125
19.725 32.475 -0.225
19.725 32.475 1.275
19.725 32.475 0.075
19.725 32.475 0.825
19.725 32.475 0.675
19.725 32.475 -0.525
21.225 25.725 0.525
21.225 25.725 0.675
21.225 25.725 1.275
21.225 25.725 0.825
19.575 32.475 0.675
19.575 32.475 -0.075
19.575 32.475 0.825
17.175 31.425 -0.675
17.175 31.425 -4.275
19.125 25.425 0.825
19.125 25.425 2.475
19.875 32.475 0.225
19.875 32.475 0.075
19.875 32.475 -0.825
19.875 32.475 1.875
19.875 32.475 -0.975
18.525 25.575 -0.525
23.025 27.675 1.875
23.025 27.675 1.275
17.325 31.575 -0.975
17.325 31.575 -1.725
19.425 32.475 2.925
19.425 32.475 1.425
19.425 32.475 1.275
17.025 31.275 -0.675
17.025 31.275 -0.825
16.575 27.225 2.325
20.325 25.425 0.975
20.325 25.425 -0.225
20.025 32.475 -0.225
20.025 32.475 -0.075
20.025 32.475 3.975
16.275 29.925 2.475
16.275 29.925 0.375
16.275 29.925 0.825
22.425 26.625 0.975
22.425 26.625 1.725
20.925 25.575 0.525
20.925 25.575 -0.075
19.275 32.475 0.675
16.125 28.875 0.375
16.125 29.025 0.375
16.125 29.025 -0.225
18.975 25.425 0.825
16.875 31.125 -0.825
20.175 32.475 -0.225
20.175 32.475 -0.675
16.575 30.675 -0.225
16.125 29.175 1.875
21.225 32.175 5.325
16.125 28.575 0.525
19.125 32.475 0.675
20.325 32.475 -0.225
20.325 32.475 -0.825
22.875 27.225 1.275
22.875 27.225 1.575
23.175 27.975 0.975
16.725 30.975 -0.375
18.825 25.425 0.825
18.825 25.425 -0.225
18.825 25.425 0.075
18.825 25.425 0.675
21.375 25.725 0.525
21.375 25.725 0.825
21.375 25.725 0.675
16.125 29.475 3.525
16.125 29.475 -0.825
18.975 32.475 0.675
20.625 25.425 0.825
20.625 25.425 0.375
