# .PCD v0.7 - Point Cloud Data file format
VERSION 0.7
FIELDS x y z
SIZE 4 4 4
TYPE F F F
COUNT 1 1 1
WIDTH 2048
HEIGHT 1
VIEWPOINT 0 0 0 1 0 0 0
POINTS 2048
DATA ascii
18.525 5.175 0.975
18.525 4.725 -0.075
18.825 5.025 -0.225
18.825 4.575 -0.225
18.975 5.175 -0.975
19.125 5.175 -1.125
18.975 4.275 0.375
19.275 5.175 0.225
19.275 4.725 -0.975
19.125 3.975 0.225
17.775 3.075 1.875
19.275 3.975 -0.375
19.425 4.275 -0.375
19.575 5.025 0.525
19.575 5.025 -0.225
19.575 5.475 -0.675
19.425 6.075 1.425
19.425 3.975 -0.375
19.575 4.275 2.175
19.575 5.925 -0.525
19.575 4.125 -0.375
19.725 4.575 -0.525
19.725 4.575 -0.975
19.275 3.525 0.225
19.275 3.525 -0.825
19.575 6.075 0.825
19.575 3.975 -1.125
19.575 3.975 -0.525
19.425 3.675 0.075
19.725 4.275 -0.375
17.475 2.625 0.375
19.875 5.175 -0.375
19.875 4.725 -0.525
19.425 3.525 -0.075
19.575 3.675 -0.525
19.875 4.275 0.225
19.875 5.775 -0.225
19.275 3.225 -0.375
20.025 5.175 2.025
20.025 5.175 1.875
19.425 3.375 1.875
19.875 4.125 -1.275
20.025 4.725 -0.525
20.025 5.475 -0.225
20.025 4.425 -0.675
19.875 3.975 -0.525
19.725 6.375 -1.125
19.275 3.075 -0.375
19.275 3.075 -0.525
19.425 3.225 -0.675
18.675 2.625 0.825
20.025 5.925 -1.125
20.175 4.875 0.525
20.175 4.725 -0.375
20.175 4.725 -0.525
17.775 2.325 0.675
20.175 5.475 -0.525
20.175 4.575 -0.075
20.175 4.575 -0.525
19.575 3.225 0.225
20.175 5.625 -1.725
20.175 4.425 0.225
20.175 4.425 0.525
19.125 7.275 -0.075
19.725 3.375 1.575
20.175 5.775 -0.075
20.175 4.275 -0.375
20.175 4.275 0.525
20.175 4.275 0.975
20.025 3.825 0.675
20.025 3.825 -0.375
18.675 2.475 0.225
19.875 3.525 -0.075
20.175 4.125 0.975
20.325 5.025 0.975
20.325 5.025 0.525
20.325 5.175 0.525
20.325 5.175 0.225
20.325 5.325 -0.525
19.725 3.225 0.075
20.025 3.675 -0.375
20.325 4.575 -0.375
20.175 6.075 -0.375
20.175 6.075 1.275
20.175 6.075 -0.825
20.325 4.425 -0.075
20.325 4.425 0.675
19.125 7.425 1.575
19.875 3.375 -0.825
20.325 4.275 0.525
20.175 6.225 -0.225
20.175 6.225 0.075
20.175 3.825 0.675
20.175 3.825 0.225
20.025 6.525 -0.375
20.025 3.525 0.225
19.575 2.925 -0.525
19.725 6.975 -0.375
19.725 3.075 -0.675
20.325 5.925 -0.075
19.275 2.625 -0.975
19.875 3.225 1.875
19.875 3.225 -0.525
20.475 5.025 -0.375
20.475 5.025 -0.975
20.475 5.025 0.525
20.475 5.175 0.675
20.475 4.875 0.975
20.475 4.875 0.525
20.475 4.875 -0.375
20.475 4.875 -0.225
20.475 5.325 -0.375
20.475 4.725 0.075
20.475 4.725 0.975
20.175 3.675 0.525
20.475 5.475 1.125
20.475 4.575 0.075
20.025 3.375 0.075
20.025 3.375 -0.225
20.325 3.975 0.975
20.475 5.625 1.125
20.475 5.625 1.275
20.475 4.425 0.075
20.475 4.425 0.825
20.475 4.425 -0.525
19.725 2.925 0.075
19.725 2.925 0.675
19.725 2.925 -0.525
19.725 2.925 -0.675
20.175 3.525 1.125
20.175 3.525 0.975
18.975 2.325 -0.225
20.325 6.225 0.375
20.325 3.825 -0.225
20.325 3.825 1.125
20.475 5.775 0.975
20.475 5.775 0.525
20.475 5.925 0.525
20.475 5.925 0.225
20.475 4.125 -0.375
20.475 4.125 2.025
20.475 4.125 0.525
20.625 5.025 -0.375
20.325 6.375 -0.375
20.325 3.675 -0.375
20.625 5.175 -0.375
20.625 4.875 0.075
20.625 4.875 1.575
20.625 4.875 0.525
18.825 2.175 -0.375
20.625 4.725 -0.075
20.625 4.725 0.825
20.625 4.725 0.075
20.175 6.675 0.075
20.475 3.975 1.575
20.475 3.975 0.525
20.625 5.475 1.125
20.625 4.575 0.525
20.625 4.575 0.375
20.625 4.575 -0.225
20.625 4.575 -0.525
20.625 4.575 -0.375
20.625 4.575 -0.075
19.725 7.275 -1.425
19.575 2.625 -0.975
19.875 2.925 -0.375
20.625 5.625 0.075
20.625 4.425 2.475
20.625 4.425 1.425
20.625 4.425 -0.225
20.025 3.075 0.675
20.025 3.075 -0.375
20.025 3.075 0.225
19.425 2.475 2.025
20.325 6.525 1.275
20.325 3.525 -0.675
20.325 3.525 0.525
20.475 6.225 0.225
20.475 3.825 1.875
20.475 3.825 0.075
20.625 5.775 0.525
20.625 5.775 -0.225
20.625 4.275 0.225
19.275 2.325 -1.125
20.175 3.225 1.125
20.175 3.225 -0.225
20.625 5.925 -0.525
20.625 5.925 0.675
20.625 4.125 2.175
20.625 4.125 -0.075
19.875 2.775 -0.375
20.475 3.675 -0.975
20.325 6.675 0.075
20.325 3.375 -0.675
15.825 7.875 0.075
20.775 5.025 0.975
20.775 5.175 -0.525
20.775 5.175 0.675
20.775 5.175 -0.375
20.775 5.175 -0.975
20.025 2.925 1.125
20.025 2.925 0.975
20.025 2.925 -0.525
20.025 2.925 -0.225
20.025 2.925 0.675
20.025 2.925 -0.375
19.575 2.475 -0.225
19.575 2.475 -0.825
20.775 5.325 1.575
20.775 4.725 0.525
20.775 5.325 1.425
20.775 5.325 0.075
20.775 5.325 0.375
20.625 3.975 -0.075
20.625 3.975 0.075
20.625 3.975 0.525
20.775 5.475 2.625
20.775 5.475 0.225
20.775 5.475 0.525
19.425 7.725 0.375
20.175 3.075 0.975
20.175 3.075 0.675
20.175 3.075 -0.225
20.775 5.625 0.525
20.775 4.425 -0.375
20.475 6.525 2.175
20.475 6.525 -0.075
20.475 3.525 -0.075
20.475 3.525 1.275
20.325 6.825 -0.375
20.625 6.225 -0.675
20.625 6.225 -0.525
20.775 5.775 -0.525
20.025 2.775 0.675
20.025 2.775 0.225
20.025 2.775 2.175
20.025 2.775 -0.375
20.025 2.775 -0.225
19.575 2.325 -0.225
19.575 2.325 -0.975
20.175 2.925 0.075
20.175 2.925 0.675
19.125 2.025 -0.525
20.475 3.375 -0.225
20.475 3.375 0.525
20.475 3.375 -0.075
20.625 6.375 -0.525
20.925 5.025 -0.525
20.325 6.975 -0.375
20.325 3.075 1.275
20.925 4.875 0.675
20.925 4.875 1.125
20.775 6.075 -0.525
20.925 5.325 0.375
20.925 5.475 0.525
20.925 4.575 0.375
20.625 6.525 -0.375
20.475 3.225 0.675
20.025 2.625 1.875
20.025 2.625 0.675
20.025 2.625 1.125
20.025 2.625 -0.375
19.875 2.475 -0.525
19.875 2.475 -0.375
20.925 4.425 -0.375
20.925 4.425 0.825
20.775 6.225 -0.375
20.775 3.825 0.525
20.175 2.775 0.225
20.175 2.775 0.675
20.175 2.775 0.525
19.725 2.325 -0.375
20.925 5.775 -0.225
20.925 5.775 -0.075
20.325 7.125 -0.225
20.325 7.125 1.725
20.325 2.925 1.425
20.625 6.675 2.025
20.775 6.375 -0.525
20.925 5.925 0.075
20.475 3.075 -0.675
19.425 2.025 -0.225
19.425 2.025 -0.525
21.075 5.175 -0.075
21.075 5.175 0.375
21.075 4.875 0.675
20.025 2.475 1.125
20.025 2.475 0.975
20.925 3.975 -0.375
20.925 3.975 -0.525
21.075 5.325 0.525
19.875 2.325 -0.225
20.175 2.625 1.575
20.775 3.525 0.075
18.975 1.725 -0.075
21.075 5.475 0.225
21.075 4.575 0.525
21.075 4.575 0.825
21.075 4.575 1.575
19.275 1.875 -0.525
20.925 3.825 1.875
19.575 2.025 -0.525
21.075 4.275 -0.075
20.775 6.675 -0.225
20.775 6.675 1.125
20.775 6.675 0.975
19.125 1.725 -0.225
20.625 6.975 -0.375
20.625 3.075 0.525
20.625 3.075 0.075
20.625 3.075 -0.075
20.925 6.375 1.425
20.925 3.675 0.375
21.075 5.925 0.225
20.025 2.325 1.125
20.025 2.325 0.225
20.025 2.325 -0.225
20.025 2.325 0.675
20.175 2.475 0.675
20.175 2.475 0.525
20.325 2.625 1.725
20.325 2.625 0.675
19.875 2.175 -0.375
21.225 5.025 0.075
21.225 5.175 0.375
21.225 5.175 0.225
20.775 6.825 0.675
20.775 6.825 -0.225
20.775 3.225 0.375
20.775 6.825 -0.075
19.275 1.725 1.275
19.275 1.725 -0.225
20.925 6.525 -0.075
20.925 6.525 -0.525
20.925 6.525 1.125
21.225 4.725 -0.225
21.225 5.325 0.225
21.225 5.475 0.225
21.225 4.575 -0.075
21.225 4.575 0.225
21.225 4.575 -0.225
21.225 4.575 1.875
17.025 1.275 0.675
20.625 7.125 -0.525
19.575 1.875 -0.075
19.575 1.875 2.025
19.575 1.875 0.225
18.675 1.425 -0.375
21.225 5.625 -0.225
21.225 4.425 0.525
20.175 2.325 0.675
20.175 2.325 -0.225
20.175 2.325 -0.375
20.025 2.175 -0.225
20.025 2.175 0.525
20.025 2.175 -0.525
20.025 2.175 -0.375
20.025 2.175 0.975
20.325 2.475 2.025
20.325 2.475 0.225
19.125 1.575 1.425
20.925 3.375 0.525
21.225 4.275 -0.075
21.225 4.275 0.225
21.225 5.775 0.075
20.775 6.975 0.375
20.775 6.975 -0.225
20.775 6.975 -0.525
20.775 3.075 0.525
20.775 3.075 -0.225
20.775 3.075 0.375
19.425 1.725 1.725
20.475 7.425 2.025
19.875 2.025 -0.825
20.475 2.625 -0.225
21.075 6.375 0.075
21.225 4.125 0.075
19.725 1.875 0.075
19.725 1.875 -1.725
20.925 3.225 1.425
20.925 3.225 0.075
20.925 6.825 0.675
20.925 3.225 0.525
21.225 6.075 0.675
21.225 3.975 0.225
21.225 3.975 -0.075
21.075 6.525 1.725
21.075 6.525 0.675
21.075 6.525 1.575
21.075 3.525 0.075
21.075 3.525 0.225
18.975 1.425 -0.375
21.375 5.175 -0.225
21.375 5.175 0.525
21.375 4.875 0.375
20.775 2.925 0.375
20.775 2.925 0.525
21.375 5.325 -0.375
19.575 1.725 -0.225
20.325 7.725 -0.225
21.375 5.475 0.225
21.375 5.475 0.375
20.325 2.325 1.725
20.325 2.325 0.675
20.175 7.875 -0.225
20.175 7.875 -0.075
20.175 2.175 1.275
20.175 2.175 0.525
20.175 2.175 1.575
20.025 2.025 -0.225
20.025 2.025 -0.525
20.025 2.025 1.125
20.025 2.025 -0.375
20.475 2.475 -0.075
20.475 2.475 0.525
20.475 2.475 -0.375
20.475 2.475 0.975
21.075 6.675 0.525
21.075 6.675 -0.525
20.625 7.425 -0.525
20.925 6.975 0.675
20.925 3.075 0.525
21.375 4.275 0.675
21.225 6.375 0.375
21.225 6.375 -0.525
21.225 3.675 0.525
20.775 7.275 -0.675
19.725 1.725 -0.975
19.725 1.725 -0.525
21.375 5.925 0.225
21.075 6.825 -0.675
21.075 6.825 -1.125
19.275 1.425 0.525
20.325 7.875 -0.525
20.325 2.175 -0.525
20.325 2.175 0.675
20.325 2.175 -0.225
20.475 7.725 -0.675
20.175 8.025 -0.525
20.475 2.325 0.525
20.175 2.025 0.525
21.375 6.075 -0.225
21.375 6.075 -0.375
20.925 7.125 -0.075
19.575 1.575 -0.375
19.575 1.575 -0.075
20.925 7.125 -0.375
20.925 2.925 0.225
20.925 2.925 0.075
20.925 2.925 -0.075
21.225 3.525 0.075
21.225 6.525 0.225
21.225 6.525 0.675
21.225 6.525 -0.525
21.525 5.025 -0.525
21.525 5.175 -0.375
21.525 5.175 0.075
20.025 1.875 -0.375
20.025 1.875 -0.825
20.025 1.875 1.125
21.525 5.325 0.075
21.525 4.725 0.225
21.525 5.475 0.225
21.375 6.225 0.525
19.875 1.725 -1.425
21.525 4.425 -0.375
21.525 4.425 0.675
21.075 6.975 -0.075
21.075 6.975 1.275
21.525 5.775 0.075
20.925 7.275 1.125
19.725 1.575 -0.225
19.725 1.575 0.225
16.725 0.975 0.825
21.375 6.375 -0.225
20.325 8.025 0.075
20.325 2.025 -0.075
20.475 2.175 0.525
21.525 4.125 -0.075
20.625 2.325 0.525
20.175 1.875 1.575
19.275 1.275 -0.075
21.225 3.225 0.675
21.075 7.125 1.275
21.075 7.125 -0.075
20.775 2.475 -0.225
20.025 1.725 -0.525
20.025 1.725 0.225
20.025 1.725 -0.375
21.375 6.525 0.825
21.525 6.075 -0.675
20.925 7.425 0.975
20.925 7.425 1.125
20.925 7.425 -0.525
19.875 1.575 -1.875
19.875 1.575 -0.225
21.675 4.725 -0.075
21.675 5.325 -0.375
21.525 6.225 0.525
21.525 6.225 0.225
21.675 5.475 -0.225
21.225 3.075 -0.075
19.425 1.275 0.675
21.375 6.675 0.675
21.075 7.275 -0.225
19.725 1.425 -0.975
20.325 1.875 0.225
20.325 1.875 -0.225
20.325 1.875 0.075
20.325 1.875 -0.375
20.325 1.875 0.675
20.325 1.875 0.525
20.625 2.175 -0.675
20.625 2.175 0.525
14.625 1.875 -0.525
20.175 1.725 1.275
20.175 1.725 -0.075
21.675 4.275 0.375
20.925 7.575 0.675
21.675 5.925 -0.075
21.675 5.925 0.225
19.275 1.125 -0.675
21.225 7.125 -0.675
21.225 7.125 0.675
21.225 2.925 -0.225
21.225 2.925 0.075
21.525 6.525 -0.075
21.075 7.425 -0.225
21.075 7.425 -0.375
21.075 7.425 0.525
21.075 2.625 0.225
19.875 1.425 -0.075
19.875 1.425 -1.125
19.875 1.425 -0.225
20.625 2.025 0.075
20.625 2.025 0.675
20.625 2.025 -0.075
20.475 8.175 -0.075
21.825 5.175 -0.225
20.775 2.175 -0.225
21.375 6.975 0.525
21.375 6.975 0.225
20.325 1.725 -0.675
20.325 1.725 -0.375
19.425 1.125 -0.375
17.175 0.675 0.825
21.825 5.475 -0.075
21.225 7.275 0.525
21.225 7.275 -1.125
19.125 0.975 -0.825
20.925 7.725 0.675
20.925 7.725 0.375
20.175 1.575 -0.525
21.075 7.575 0.675
21.075 7.575 1.125
21.675 6.375 -4.275
19.575 1.125 1.575
19.575 1.125 -0.825
21.525 6.825 0.525
21.525 6.825 0.375
19.875 1.275 -0.375
21.225 7.425 1.275
21.225 7.425 1.425
19.875 1.275 -0.225
19.875 1.275 0.225
19.875 1.275 0.525
20.625 8.175 -0.075
20.625 1.875 0.525
20.775 8.025 -0.375
20.775 2.025 -0.675
21.675 6.525 0.525
21.675 6.525 -0.075
20.475 1.725 -0.375
21.825 6.075 0.075
20.325 1.575 0.225
20.925 2.175 0.225
21.075 7.725 0.675
21.075 7.725 1.125
21.075 2.325 -0.225
21.975 5.025 -0.225
20.175 1.425 -0.375
21.975 4.875 -0.225
19.725 1.125 -0.375
19.725 1.125 0.225
19.725 1.125 0.525
21.975 5.325 -0.225
21.825 6.225 0.375
21.675 6.675 -0.075
21.675 6.675 -0.225
21.675 6.675 0.225
20.025 1.275 0.675
20.025 1.275 -0.975
20.025 1.275 -0.375
21.975 5.625 -1.725
21.975 5.625 -0.075
21.975 4.425 -0.375
20.775 8.175 -0.525
20.775 1.875 0.375
20.775 1.875 0.525
20.625 8.325 0.225
20.625 1.725 0.675
20.625 1.725 -0.075
19.575 0.975 -0.825
21.975 4.275 -0.525
21.675 3.225 0.075
20.925 8.025 0.675
20.925 8.025 -0.225
20.925 8.025 0.225
20.475 1.575 0.525
19.875 1.125 0.975
19.875 1.125 0.675
19.875 1.125 0.525
21.075 7.875 0.975
21.075 7.875 0.525
21.075 7.875 0.675
20.325 1.425 0.375
20.325 1.425 -0.225
21.825 6.525 0.075
18.975 0.675 -0.525
20.175 8.775 -0.075
21.225 7.725 0.525
20.175 1.275 -0.075
19.425 0.825 -0.825
19.425 0.825 -0.225
19.725 0.975 0.225
21.825 6.675 0.225
19.125 0.675 0.525
21.975 6.225 0.225
18.675 0.525 -0.675
18.675 0.525 -0.525
21.375 7.575 0.525
20.025 1.125 0.525
20.025 1.125 -0.375
21.375 7.575 0.975
22.125 4.575 -3.525
20.625 1.575 0.525
20.925 1.875 -0.525
21.075 8.025 -0.525
21.075 8.025 0.675
20.475 8.625 -0.675
20.475 8.625 2.175
20.475 1.425 -0.375
22.125 4.425 0.375
18.075 0.375 -0.675
21.975 6.375 -0.225
21.525 7.425 0.525
19.275 0.675 1.575
19.275 0.675 -0.825
19.875 0.975 0.525
19.875 0.975 1.125
20.325 1.275 -0.375
20.325 1.275 0.975
21.225 2.175 3.825
21.375 7.725 0.525
21.675 7.275 0.375
21.675 7.275 0.525
19.725 0.825 -0.525
21.825 6.975 0.075
20.775 8.475 -0.975
20.775 1.575 -0.525
20.925 8.325 -0.675
20.925 1.725 -0.525
21.075 8.175 1.575
21.075 8.175 -0.225
20.625 1.425 0.525
21.525 7.575 0.225
20.025 0.975 0.525
20.025 0.975 1.425
20.025 0.975 1.575
21.825 2.925 -0.375
19.575 0.675 -0.375
19.875 0.825 1.125
19.875 0.825 0.525
19.875 0.825 0.975
18.825 0.375 -0.525
19.275 0.525 -0.525
22.275 4.275 -0.825
20.175 0.975 2.325
20.175 0.975 -0.225
20.925 8.475 0.075
20.925 1.575 0.675
20.925 1.575 0.075
21.075 8.325 1.425
21.075 1.725 0.675
20.775 1.425 -0.225
21.075 1.725 0.525
18.975 0.375 -0.375
20.625 8.775 0.375
20.625 1.275 0.675
19.725 0.675 -0.075
19.725 0.675 -1.125
19.725 0.675 0.075
19.725 0.675 1.875
19.425 0.525 0.075
22.275 3.975 0.675
20.025 0.825 0.525
20.025 0.825 -0.525
20.025 0.825 1.575
20.475 1.125 1.425
22.275 6.225 -3.825
19.575 0.525 -0.375
19.875 0.675 0.375
19.875 0.675 1.125
19.875 0.675 1.275
22.125 3.225 -0.975
20.925 1.425 -0.075
20.925 1.425 -0.675
20.175 9.225 -0.675
20.175 0.825 0.225
20.175 0.825 0.525
20.775 1.275 1.125
21.225 8.325 -0.225
22.425 5.775 0.075
20.625 1.125 0.225
20.625 8.925 -0.375
21.375 8.175 -0.075
22.425 4.125 0.675
19.725 0.525 -1.125
19.725 0.525 -0.225
20.475 0.975 -0.825
20.025 0.675 0.525
19.425 0.375 -0.375
20.325 0.825 0.225
20.325 0.825 1.275
21.675 7.875 0.525
21.675 7.875 -0.225
21.675 2.175 -0.525
19.125 0.225 -0.075
21.075 8.625 0.225
21.225 8.475 -0.525
21.225 8.475 0.375
21.225 8.475 0.075
21.225 8.475 -0.375
20.925 1.275 -0.225
19.875 0.525 -0.375
19.875 0.525 -0.525
19.875 0.525 -0.675
19.575 0.375 -0.375
22.575 4.725 -0.375
21.375 8.325 -0.375
21.375 8.325 -0.525
22.575 4.575 0.525
18.825 0.075 -0.225
20.625 0.975 0.225
16.125 0.075 2.475
21.675 8.025 0.825
20.475 0.825 -0.825
20.475 0.825 -0.075
22.125 7.275 1.125
19.725 0.375 -0.525
19.725 0.375 -0.075
19.425 0.225 0.075
21.075 8.775 -1.125
21.225 8.625 -0.375
21.225 1.425 -0.375
21.825 7.875 1.275
21.825 7.875 0.525
20.325 0.675 0.375
22.575 6.075 1.425
21.375 8.475 -0.075
20.925 8.925 -0.975
20.775 9.075 -0.675
19.875 0.375 -0.375
19.575 0.225 0.525
21.975 7.725 -0.075
20.175 0.525 0.225
20.175 0.525 0.525
20.625 0.825 -0.375
20.625 0.825 0.225
22.725 4.725 -0.375
19.275 0.075 -0.225
19.275 0.075 -0.375
22.725 4.575 0.675
22.575 6.375 -0.225
21.825 8.025 1.575
16.875 -0.225 0.675
19.725 0.225 0.675
19.725 0.225 -1.125
19.725 0.225 0.225
19.725 0.225 0.525
20.025 0.375 1.275
20.025 0.375 1.425
21.225 8.775 -0.225
21.225 8.775 -0.375
21.075 8.925 -0.975
21.375 8.625 -0.375
22.575 3.525 -2.025
21.525 8.475 -0.375
22.425 6.975 0.375
19.425 0.075 0.375
20.325 0.525 0.525
21.975 7.875 -0.075
22.275 7.425 1.125
19.875 0.225 0.075
19.875 0.225 -0.225
21.825 8.175 -0.225
22.125 7.725 0.525
22.125 7.725 0.825
20.175 0.375 -0.225
22.875 4.875 0.225
22.875 5.175 0.075
22.875 4.725 0.375
21.975 8.025 -0.225
21.975 8.025 -0.075
20.475 0.525 1.875
21.375 8.775 -0.075
21.375 8.775 -0.375
21.225 8.925 -0.225
21.225 8.925 -0.375
21.525 8.625 -0.525
22.875 4.575 0.525
19.725 0.075 0.525
19.725 0.075 -0.225
19.725 0.075 -0.075
19.725 0.075 0.975
22.875 4.275 -0.525
22.875 4.275 1.275
20.325 0.375 -0.825
20.325 0.375 0.525
22.575 6.975 -0.375
22.725 6.525 -0.075
22.725 3.525 -2.325
20.625 0.525 0.225
19.875 9.975 2.475
19.875 0.075 -0.375
22.275 7.725 1.125
22.575 7.125 -0.375
21.375 8.925 -0.525
21.375 8.925 -0.225
21.225 9.075 0.075
21.225 9.075 -0.225
22.125 8.025 1.125
22.125 8.025 -0.375
22.125 8.025 -0.075
20.475 0.375 0.525
21.825 8.475 -0.375
17.325 -0.525 1.275
22.425 7.575 1.275
19.725 -0.075 0.975
19.725 -0.075 -0.225
19.725 -0.075 -0.375
20.775 0.525 0.225
20.775 0.525 -0.825
23.025 4.425 0.825
22.275 7.875 0.225
22.275 7.875 0.075
20.325 9.825 -0.825
20.325 0.225 0.375
19.425 -0.225 -0.225
22.725 6.975 0.075
22.125 8.175 0.825
21.525 8.925 -0.525
21.525 8.925 0.675
21.225 9.225 -1.125
21.225 9.225 -0.525
19.875 -0.075 0.525
19.875 -0.075 1.575
22.425 7.725 0.975
22.425 7.725 1.275
21.825 8.625 -0.375
21.825 8.625 -0.075
21.075 0.675 0.075
20.475 0.225 0.525
21.975 8.475 0.525
21.975 8.475 -0.525
22.575 7.575 1.275
22.125 8.325 0.375
20.775 0.375 -0.225
20.775 0.375 -0.825
20.025 10.125 0.075
23.025 6.375 -0.225
23.025 3.675 5.325
22.425 7.875 1.275
19.725 -0.225 1.125
19.725 -0.225 0.675
19.725 -0.225 -0.375
22.725 7.275 -0.075
19.725 -0.225 1.275
19.725 -0.225 0.825
22.725 7.275 1.125
19.725 -0.225 0.225
21.525 9.075 1.275
21.375 9.225 0.975
21.375 9.225 1.125
21.375 9.225 2.025
21.375 9.225 -0.375
21.675 8.925 1.425
20.625 0.225 0.825
21.975 8.625 -0.375
21.975 8.625 -0.075
22.575 7.725 0.975
22.575 7.725 1.275
22.575 7.725 1.125
22.725 7.425 1.275
22.725 7.425 1.425
22.725 7.425 -0.675
22.725 2.625 0.525
22.425 8.025 0.525
20.475 0.075 0.525
20.475 0.075 0.825
20.925 0.375 0.225
20.925 0.375 0.075
19.575 -0.375 -0.675
19.575 -0.375 -0.525
19.575 -0.375 0.375
21.525 9.225 0.525
21.525 9.225 -0.525
21.675 9.075 0.525
20.025 -0.225 0.525
20.025 -0.225 0.375
20.025 -0.225 -0.375
22.725 7.575 1.275
22.725 7.575 -0.075
22.725 2.475 0.525
22.575 7.875 0.825
22.575 7.875 1.125
21.375 9.375 -0.525
21.375 9.375 0.675
21.375 9.375 -0.225
21.375 9.375 2.025
22.875 7.275 -0.375
22.875 7.275 -0.225
22.875 7.275 -0.075
19.725 -0.375 -0.225
19.725 -0.375 -0.375
23.325 4.725 0.225
21.225 0.525 -1.425
21.975 8.775 0.525
21.975 8.775 -0.525
20.625 0.075 0.675
20.625 0.075 0.225
20.625 0.075 0.075
22.125 8.625 0.525
19.425 -0.525 0.525
19.425 -0.525 0.225
18.225 -0.825 -0.375
22.725 7.725 1.275
22.725 7.725 1.125
22.875 7.425 0.825
22.875 7.425 0.225
22.875 7.425 1.125
22.275 8.475 0.225
20.925 9.825 0.075
22.575 8.025 -0.225
23.025 7.125 -0.225
19.575 -0.525 0.675
21.675 9.225 -0.225
21.675 9.225 0.525
21.525 9.375 1.425
21.525 9.375 -0.375
21.525 9.375 -0.525
21.825 9.075 0.675
20.775 9.975 -0.075
22.425 8.325 0.225
21.375 9.525 0.225
21.375 9.525 -0.375
21.975 8.925 0.525
22.875 7.575 1.125
22.875 2.475 -0.075
22.875 7.575 1.275
22.125 8.775 -0.225
22.125 8.775 0.675
23.025 7.275 -0.375
23.025 2.775 0.675
22.575 8.175 0.375
23.475 4.725 1.575
23.475 5.325 0.225
23.175 6.975 0.525
19.425 -0.675 0.525
19.425 -0.675 0.975
22.875 7.725 1.275
22.875 2.325 1.275
23.025 7.425 1.275
23.025 7.425 -0.225
21.825 9.225 -0.975
21.825 9.225 -0.525
21.525 9.525 -0.075
21.525 9.525 0.675
21.975 9.075 0.375
21.975 9.075 -0.375
21.975 9.075 -0.525
18.375 -0.975 -0.375
21.375 0.375 -0.375
21.375 9.675 -0.375
22.125 8.925 0.825
20.775 -0.075 0.375
19.575 -0.675 0.525
21.225 9.825 -0.675
21.225 9.825 1.425
18.525 -0.975 -0.225
22.875 7.875 1.275
20.325 -0.375 -0.075
23.025 2.475 0.675
23.025 2.475 0.525
23.025 7.575 1.275
20.025 -0.525 -0.525
20.025 -0.525 0.375
18.675 -0.975 -0.525
22.425 8.625 0.075
22.725 1.875 0.825
21.825 9.375 -0.225
21.675 9.525 -0.225
21.675 9.525 -0.075
23.625 4.725 0.375
20.925 10.125 -0.075
20.925 10.125 -0.675
22.125 9.075 -0.375
21.525 9.675 -0.075
23.025 7.725 1.575
23.025 7.725 1.725
20.175 -0.525 0.375
20.175 -0.525 0.525
20.475 -0.375 0.225
21.375 9.825 -0.525
21.375 9.825 -0.375
22.275 8.925 -0.675
23.175 7.425 0.975
21.225 9.975 -0.825
23.325 7.125 -0.075
19.575 -0.825 1.125
19.125 -0.975 -0.375
23.025 2.175 0.675
23.025 7.875 1.725
20.325 -0.525 0.075
20.325 -0.525 0.825
20.025 -0.675 1.725
20.025 -0.675 0.525
23.175 7.575 1.575
20.625 -0.375 -0.225
20.625 10.425 1.575
20.625 10.425 -0.375
21.825 9.525 0.525
21.825 9.525 1.275
21.975 9.375 1.725
21.975 9.375 -0.225
21.675 9.675 -0.075
21.675 9.675 -0.375
23.325 2.775 0.825
19.725 -0.825 1.575
19.725 -0.825 0.525
21.375 0.075 -0.075
22.425 8.925 0.525
23.175 7.725 1.425
20.175 -0.675 0.525
20.175 -0.675 0.825
20.175 -0.675 0.075
20.475 -0.525 1.425
20.475 -0.525 -0.225
20.475 -0.525 0.075
23.325 2.625 0.825
23.325 7.425 0.825
23.325 7.425 0.225
19.875 -0.825 -0.075
19.875 -0.825 0.225
22.575 8.775 0.525
21.225 -0.075 0.375
18.975 -1.125 -0.375
19.575 -0.975 1.125
21.975 9.525 -0.525
21.975 9.525 0.975
21.075 10.275 1.725
13.875 -0.225 0.075
21.825 0.375 -1.425
20.325 -0.675 0.975
20.325 -0.675 0.375
20.325 -0.675 -0.375
20.325 -0.675 0.675
20.325 -0.675 0.525
23.175 7.875 1.425
21.675 9.825 0.075
21.675 9.825 1.125
21.675 9.825 -0.225
21.675 9.825 0.975
21.675 9.825 -0.075
23.325 2.475 0.825
20.025 -0.825 0.225
20.625 -0.525 -0.225
21.525 9.975 0.525
21.525 0.075 0.375
22.425 9.075 0.675
22.425 9.075 -0.225
19.275 -1.125 0.525
23.475 2.775 -0.375
19.725 -0.975 0.525
14.025 -0.375 -0.225
22.575 8.925 0.525
22.575 8.925 0.825
20.475 -0.675 1.725
20.475 -0.675 -0.375
20.475 -0.675 0.675
18.825 -1.275 -0.375
20.175 -0.825 0.375
20.175 -0.825 0.525
20.175 -0.825 0.975
22.725 8.775 0.225
22.725 8.775 0.075
19.425 -1.125 0.225
19.425 -1.125 0.675
19.425 -1.125 0.525
20.775 -0.525 0.825
19.875 -0.975 0.525
22.125 9.525 -0.075
22.125 9.525 0.525
22.125 9.525 0.825
22.125 9.525 -0.375
21.975 9.675 0.525
18.975 -1.275 0.225
21.825 9.825 -0.375
21.825 9.825 1.275
21.825 9.825 -0.525
21.825 9.825 1.575
21.825 9.825 0.525
21.075 10.425 -0.525
21.675 9.975 0.525
21.675 9.975 1.125
20.325 -0.825 0.675
20.325 -0.825 -0.075
20.325 -0.825 -0.225
21.525 -0.075 0.075
21.525 10.125 0.675
21.525 10.125 0.225
20.625 -0.675 0.825
20.625 -0.675 0.525
20.625 -0.675 0.975
19.125 -1.275 -0.975
20.025 -0.975 0.225
18.525 -1.425 -0.675
21.375 10.275 -0.375
23.625 7.275 0.525
19.725 -1.125 1.575
22.875 8.775 -0.225
20.475 -0.825 1.125
20.475 -0.825 0.525
20.475 -0.825 -0.525
21.225 10.425 -0.075
22.125 9.675 0.525
22.125 9.675 0.375
21.975 9.825 0.525
20.175 -0.975 0.375
20.775 10.725 -0.525
20.775 -0.675 -0.525
21.825 9.975 1.725
21.825 0.075 0.375
21.825 0.075 0.675
18.825 -1.425 0.225
22.425 9.375 0.375
22.425 9.375 -0.075
22.425 0.675 1.725
19.425 -1.275 0.525
19.425 -1.275 0.975
19.425 -1.275 1.125
23.625 7.425 -0.225
19.875 -1.125 0.375
22.575 9.225 -0.075
22.575 9.225 0.075
22.575 9.225 -0.225
21.675 10.125 -0.375
21.675 10.125 1.125
21.675 10.125 0.675
21.675 10.125 -0.525
21.675 10.125 -0.225
21.075 10.575 -0.825
21.525 -0.225 0.525
21.525 10.275 -0.375
23.775 7.125 0.675
20.325 -0.975 0.825
20.325 -0.975 -0.075
20.325 -0.975 -0.375
20.325 -0.975 0.075
20.325 -0.975 0.975
18.225 -1.575 0.675
20.625 -0.825 0.675
20.625 -0.825 1.125
20.625 -0.825 0.825
20.025 -1.125 -0.075
20.025 -1.125 0.075
23.925 6.675 -0.075
23.925 6.675 -0.375
22.875 8.925 0.375
21.375 10.425 0.525
21.375 10.425 -0.375
21.375 -0.375 0.825
20.925 -0.675 1.125
22.275 0.375 0.975
22.275 9.675 0.525
22.125 0.225 1.275
18.525 -1.575 -0.675
22.425 0.525 0.975
22.425 0.525 1.575
21.975 9.975 1.425
21.975 0.075 0.225
22.425 9.525 0.525
21.975 0.075 0.525
19.275 -1.425 0.225
19.275 -1.425 0.525
21.825 10.125 0.525
21.825 -0.075 0.375
20.475 -0.975 0.375
20.475 -0.975 -0.225
20.775 -0.825 -0.375
20.775 -0.825 0.825
20.175 -1.125 0.225
20.175 -1.125 -0.525
20.175 -1.125 -0.675
20.175 -1.125 -0.075
21.675 10.275 0.525
22.725 9.225 0.075
21.675 10.275 0.975
21.675 -0.225 0.825
22.725 0.825 1.875
18.825 -1.575 -0.675
16.125 -1.575 2.325
19.425 -1.425 0.675
21.075 10.725 -0.825
21.075 -0.675 0.825
21.075 -0.675 1.125
19.875 -1.275 -0.225
19.875 -1.275 -0.075
23.175 1.425 1.725
23.175 1.425 2.325
22.875 9.075 0.225
21.525 10.425 -0.675
21.525 10.425 -0.525
13.425 -0.375 -0.075
20.625 -0.975 0.375
20.325 -1.125 -0.375
20.325 -1.125 -0.225
23.025 8.925 0.075
19.575 -1.425 0.975
19.575 -1.425 1.575
19.575 -1.425 0.525
22.275 9.825 0.525
22.275 0.225 1.575
22.125 9.975 0.675
22.125 0.075 0.675
18.225 -1.725 -0.375
12.825 0.075 -1.275
20.025 -1.275 0.375
20.025 -1.275 0.525
20.025 -1.275 -0.075
20.025 -1.275 -0.675
22.575 9.525 0.075
21.975 10.125 0.525
21.975 -0.075 0.225
18.375 -1.725 -0.675
21.825 10.275 0.525
21.225 10.725 -0.525
21.225 -0.675 -0.675
19.725 -1.425 -0.225
19.725 -1.425 -0.525
21.675 10.425 0.525
21.675 10.425 0.225
19.275 -1.575 1.125
19.275 -1.575 0.525
19.275 -1.575 0.975
20.475 -1.125 0.075
20.775 11.025 -0.375
20.775 -0.975 0.675
20.775 -0.975 -0.075
20.175 11.325 -0.825
20.175 -1.275 0.225
21.075 -0.825 0.825
21.075 -0.825 -0.375
21.525 -0.525 0.825
19.875 -1.425 -0.825
19.875 -1.425 -0.525
19.875 -1.425 0.375
19.875 -1.425 -0.225
23.925 7.425 0.525
22.275 9.975 0.525
22.275 0.075 0.975
22.425 9.825 0.525
22.425 0.225 0.975
22.575 0.375 2.025
22.575 9.675 -0.075
22.575 9.675 0.075
22.575 9.675 0.825
22.575 0.375 1.425
22.125 10.125 1.275
22.725 0.525 1.725
22.725 0.525 0.825
20.325 -1.275 1.575
22.725 9.525 0.375
20.325 -1.275 0.675
21.975 -0.225 0.525
21.975 10.275 1.425
20.925 -0.975 -0.075
21.825 10.425 0.675
21.825 10.425 2.175
21.825 10.425 -0.375
21.825 10.425 1.125
22.875 0.675 1.875
20.025 -1.425 0.375
20.025 -1.425 -0.075
19.125 -1.725 -0.675
15.825 -1.725 0.075
21.675 10.575 -0.375
21.675 -0.525 0.675
19.725 -1.575 -0.825
19.725 -1.575 0.525
20.475 -1.275 0.675
20.775 -1.125 0.975
20.775 -1.125 0.525
19.275 -1.725 0.975
24.225 6.825 0.075
21.525 -0.675 -0.225
20.175 -1.425 0.075
21.075 11.025 -0.075
22.425 0.075 1.275
22.275 10.125 0.825
22.275 10.125 -0.375
22.575 0.225 1.125
22.575 0.225 2.175
22.575 0.225 1.575
22.575 0.225 2.475
22.575 0.225 3.225
22.275 -0.075 1.425
22.275 -0.075 0.975
16.275 -1.875 -0.075
22.725 0.375 0.975
22.725 9.675 0.525
19.425 -1.725 -0.375
19.425 -1.725 1.275
19.425 -1.725 0.525
22.875 0.525 1.725
21.975 -0.375 0.825
18.825 -1.875 -0.825
21.825 10.575 1.125
21.825 10.575 0.525
21.825 10.575 0.975
20.325 -1.425 0.825
20.925 11.175 -0.675
18.975 -1.875 -0.675
18.975 -1.875 -0.525
24.525 5.625 0.225
20.025 -1.575 -0.075
21.225 11.025 -0.825
21.675 10.725 0.225
21.675 10.725 0.675
21.675 10.725 -0.675
21.675 -0.675 -0.525
21.675 -0.675 -0.375
21.675 -0.675 0.675
19.125 -1.875 0.225
19.125 -1.875 0.525
22.575 0.075 0.525
22.575 9.975 0.675
22.425 10.125 0.525
22.425 -0.075 1.275
22.425 -0.075 1.425
22.275 10.275 0.375
22.275 10.275 -0.825
22.275 -0.225 1.425
22.275 -0.225 1.275
22.725 0.225 1.425
22.725 0.225 3.375
21.525 10.875 -0.675
21.525 -0.825 1.275
21.525 -0.825 0.375
22.875 0.375 2.175
22.875 0.375 0.675
22.875 0.375 1.575
22.875 9.675 0.525
22.125 10.425 -0.375
22.125 10.425 0.675
22.125 10.425 -0.825
22.125 10.425 -0.225
22.125 10.425 0.525
21.075 -1.125 -0.525
24.075 7.725 0.075
19.275 -1.875 0.975
19.275 -1.875 0.675
20.175 -1.575 1.575
23.025 0.525 2.175
23.025 0.525 1.275
21.975 10.575 -0.525
21.975 10.575 0.225
21.975 10.575 0.525
21.825 10.725 0.675
21.825 10.725 2.175
21.825 10.725 -0.375
21.825 10.725 -0.525
19.425 -1.875 -0.525
19.425 -1.875 -0.375
23.925 1.875 -3.225
18.825 -2.025 1.275
24.075 7.875 0.375
20.325 11.625 -0.525
21.675 -0.825 0.675
21.225 11.175 1.575
21.225 11.175 -0.075
17.175 -2.175 2.625
18.975 -2.025 -0.675
18.975 -2.025 -0.525
18.975 -2.025 -1.575
22.575 -0.075 1.125
19.575 -1.875 -0.525
19.575 -1.875 1.725
19.575 -1.875 0.525
22.425 -0.225 0.375
22.425 10.275 0.525
22.425 -0.225 2.325
22.275 10.425 0.225
22.275 -0.375 1.575
18.075 -2.175 -0.675
23.025 9.675 -0.075
19.125 -2.025 -0.825
19.125 -2.025 -0.675
19.125 -2.025 0.975
20.775 11.475 2.625
19.725 -1.875 0.375
21.975 10.725 0.075
23.175 0.525 0.525
23.175 0.525 2.475
24.225 7.725 0.225
19.275 -2.025 0.525
19.275 -2.025 -0.225
18.525 -2.175 1.725
13.575 -1.125 -0.525
21.825 10.875 0.675
21.825 -0.825 -0.075
21.825 10.875 -1.125
21.825 10.875 -0.525
19.875 -1.875 0.525
14.325 -1.575 -2.325
19.425 -2.025 1.425
19.425 -2.025 -0.825
19.425 -2.025 -0.675
22.575 -0.225 1.275
22.575 -0.225 3.675
22.575 -0.225 -0.075
22.575 10.275 0.075
22.725 10.125 0.225
22.725 -0.075 3.375
21.675 11.025 -0.225
21.675 11.025 -0.525
23.475 0.825 0.975
13.275 -0.975 0.225
22.875 0.075 1.125
18.825 -2.175 0.525
22.425 -0.375 0.675
22.425 -0.375 2.625
22.425 -0.375 1.575
22.425 -0.375 0.975
18.825 -2.175 -0.675
18.825 -2.175 -0.525
18.825 -2.175 -2.175
22.125 10.725 -0.075
22.125 10.725 0.675
20.025 -1.875 -0.075
22.125 -0.675 0.375
19.575 -2.025 0.525
23.175 0.375 2.175
19.575 -2.025 2.325
21.525 11.175 -0.375
21.525 -1.125 0.375
23.325 0.525 1.425
21.975 10.875 0.375
21.975 10.875 0.675
21.075 11.475 0.825
19.125 -2.175 0.975
20.475 11.775 -0.525
18.225 -2.325 -0.675
18.225 -2.325 -0.825
19.725 -2.025 0.375
18.375 -2.325 -0.675
20.175 -1.875 0.375
21.825 11.025 -0.975
21.825 11.025 0.375
21.825 -0.975 0.375
19.275 -2.175 -0.225
19.275 -2.175 1.725
19.275 -2.175 0.075
22.725 10.275 1.275
22.575 -0.375 2.925
22.575 -0.375 0.975
22.575 10.425 -0.075
23.025 0.075 0.975
22.425 -0.525 -0.225
22.425 -0.525 1.575
22.425 -0.525 0.675
22.425 -0.525 -0.075
22.425 -0.525 2.175
23.625 0.825 1.125
20.925 11.625 0.375
19.875 -2.025 -0.225
19.875 -2.025 0.675
21.675 11.175 -0.225
21.675 11.175 -0.525
22.275 -0.675 0.525
23.175 0.225 0.525
23.175 0.225 1.725
19.425 -2.175 -0.825
19.425 -2.175 -0.525
19.425 -2.175 0.525
21.225 11.475 0.075
23.325 0.375 1.275
21.525 11.325 -0.675
23.775 0.975 0.675
23.775 0.975 2.325
20.025 -2.025 0.525
21.975 11.025 1.425
23.475 0.525 2.025
14.175 -1.725 -0.075
21.075 11.625 1.875
24.075 1.425 0.825
22.725 -0.375 1.425
22.725 -0.375 1.275
19.125 -2.325 0.975
22.575 10.575 0.075
22.575 -0.525 0.975
23.925 1.125 1.575
19.725 -2.175 0.525
19.725 -2.175 -0.675
23.175 0.075 1.275
22.425 -0.675 1.275
22.275 -0.825 1.725
22.275 10.875 0.525
22.275 -0.825 0.975
22.275 -0.825 0.825
21.675 11.325 0.375
18.525 -2.475 2.175
24.075 8.775 -1.125
22.125 11.025 0.075
22.125 11.025 -0.225
22.125 -0.975 0.675
23.475 0.375 1.575
23.475 0.375 0.375
23.475 0.375 0.825
20.325 -2.025 -0.225
19.425 -2.325 0.525
21.525 11.475 -0.375
23.925 0.975 0.675
23.625 0.525 1.575
18.825 -2.475 -0.075
21.975 11.175 1.575
21.975 11.175 0.525
24.675 7.575 0.975
19.575 -2.325 0.375
23.175 -0.075 1.125
24.225 8.625 -1.125
13.875 -1.725 -0.075
21.825 11.325 1.125
23.775 0.675 2.025
21.825 11.325 -0.675
17.775 -2.625 0.675
23.325 0.075 1.275
22.425 10.875 0.825
22.425 -0.825 0.675
22.425 -0.825 1.875
18.075 -2.625 -0.675
22.275 -0.975 0.525
22.275 -0.975 0.675
22.275 -0.975 1.725
22.275 11.025 0.225
19.725 -2.325 0.525
18.225 -2.625 -0.375
21.675 11.475 0.525
21.675 11.475 0.675
21.675 11.475 0.375
23.925 0.825 1.575
22.125 11.175 0.675
22.125 11.175 1.725
22.125 11.175 0.075
19.275 -2.475 1.425
19.275 -2.475 0.675
19.275 -2.475 -0.375
20.625 12.075 -0.075
23.775 0.525 0.975
23.775 0.525 2.175
21.975 11.325 0.675
21.975 -1.275 0.675
21.525 11.625 0.675
23.025 -0.375 1.425
23.025 10.425 -0.225
24.075 0.975 0.375
24.075 0.975 0.525
24.675 7.875 0.825
19.425 -2.475 1.575
22.575 10.875 -0.075
22.575 -0.825 1.425
18.825 -2.625 0.525
22.425 -0.975 1.125
21.825 11.475 0.675
23.925 0.675 1.875
23.925 0.675 1.725
20.025 -2.325 1.875
21.075 -1.875 2.775
20.775 12.075 -0.075
19.575 -2.475 0.225
19.575 -2.475 -0.525
18.975 -2.625 0.225
18.975 -2.625 -0.675
18.975 -2.625 -0.225
18.975 -2.625 -0.375
18.975 -2.625 0.675
25.275 4.875 -2.325
22.275 11.175 0.525
22.275 -1.125 1.575
22.275 -1.125 2.175
17.325 -2.775 -0.075
21.675 11.625 0.225
21.675 11.625 0.525
19.125 -2.625 0.075
22.125 -1.275 -2.025
19.275 -2.625 -0.525
19.275 -2.625 0.225
23.925 0.525 1.125
23.925 0.525 1.875
18.525 -2.775 -0.075
21.525 11.775 -0.375
21.525 11.775 0.675
22.575 -0.975 1.125
22.575 -0.975 0.675
22.575 -0.975 0.825
22.575 11.025 0.675
19.875 -2.475 0.375
23.475 10.125 0.825
20.325 -2.325 1.875
22.425 11.175 -0.225
22.425 -1.125 0.825
21.825 11.625 0.675
18.825 -2.775 -0.075
18.825 -2.775 0.975
23.775 0.225 1.875
20.775 12.225 -0.075
20.775 12.225 -0.225
22.275 -1.275 0.525
22.275 -1.275 0.675
22.275 -1.275 0.975
22.275 -1.275 0.825
20.025 -2.475 -0.825
18.975 -2.775 0.525
21.675 11.775 0.075
21.675 11.775 0.675
23.925 0.375 2.025
22.875 -0.825 1.425
24.975 7.725 0.675
22.725 11.025 1.275
18.075 -2.925 -0.525
19.125 -2.775 -0.375
19.725 -2.625 0.375
19.725 -2.625 0.075
20.925 12.225 -0.075
20.925 12.225 -0.225
24.075 0.525 1.275
24.075 0.525 1.875
24.075 0.525 0.975
21.975 11.625 1.425
21.975 -1.575 0.375
22.575 11.175 -0.375
22.575 -1.125 0.675
24.375 0.975 2.925
24.375 0.975 1.575
24.375 0.975 1.125
18.375 -2.925 0.075
22.425 -1.275 2.175
18.525 -2.925 1.875
18.525 -2.925 -0.075
21.825 11.775 1.275
22.275 -1.425 0.825
22.275 -1.425 2.325
22.275 -1.425 0.375
22.275 -1.425 0.075
18.675 -2.925 -0.675
18.675 -2.925 -0.525
23.925 0.225 2.475
21.375 12.075 0.225
23.175 10.725 0.675
23.175 10.725 0.225
23.025 10.875 0.075
18.825 -2.925 0.975
23.475 -0.375 0.525
22.125 11.625 0.675
24.075 0.375 1.425
24.075 0.375 1.275
24.075 0.375 1.725
22.125 -1.575 1.125
24.375 0.825 0.375
24.375 0.825 1.425
21.675 11.925 -0.375
21.675 11.925 -1.275
22.725 -1.125 0.525
22.725 -1.125 1.875
22.725 -1.125 1.275
22.725 11.175 0.375
18.975 -2.925 -0.975
18.975 -2.925 -0.225
18.975 -2.925 0.525
22.575 11.325 0.675
22.575 -1.275 2.025
17.775 -3.075 -0.825
24.225 0.525 2.025
17.925 -3.075 -0.975
24.675 1.275 2.175
19.725 -2.775 0.375
20.925 12.375 0.075
20.925 12.375 -0.375
19.125 -2.925 -0.375
19.125 -2.925 -0.525
18.075 -3.075 -0.075
22.425 -1.425 1.725
22.425 11.475 0.675
16.725 13.125 2.625
18.225 -3.075 -0.525
21.825 11.925 1.125
21.825 11.925 1.275
21.825 11.925 -0.525
21.825 -1.875 0.075
22.275 11.625 0.525
22.275 -1.575 0.375
22.275 -1.575 0.825
18.525 -3.075 0.525
22.875 11.175 -0.225
24.675 1.125 0.975
22.125 11.775 -0.825
22.125 11.775 0.675
22.125 11.775 0.225
22.125 -1.725 0.825
22.125 -1.725 0.975
24.225 0.375 2.025
24.225 0.375 1.125
23.775 -0.225 0.825
22.725 -1.275 1.575
22.725 -1.275 1.275
21.675 12.075 0.675
21.675 12.075 0.375
18.825 -3.075 -0.075
18.825 -3.075 -0.525
18.825 -3.075 1.125
22.575 11.475 -0.075
22.575 -1.425 1.575
19.575 12.975 0.675
19.575 -2.925 -0.525
19.575 -2.925 2.775
19.575 -2.925 0.825
24.375 0.525 1.725
21.975 11.925 0.675
18.975 -3.075 1.575
18.975 -3.075 0.525
18.975 -3.075 -0.375
24.075 0.075 2.475
22.425 11.625 0.825
22.425 11.625 0.675
22.425 -1.575 0.225
22.425 -1.575 0.825
20.175 12.825 1.425
20.175 -2.775 -0.075
20.925 12.525 -0.525
17.925 -3.225 -0.825
19.725 -2.925 -0.225
19.125 -3.075 0.525
19.125 -3.075 2.325
23.475 10.725 0.375
24.225 0.225 1.425
21.825 12.075 -0.825
21.825 12.075 -0.375
23.025 -1.125 3.675
21.825 12.075 0.675
18.225 -3.225 -0.825
23.775 10.425 1.275
19.275 -3.075 -1.275
19.275 -3.075 -0.375
18.525 -3.225 0.525
22.725 -1.425 1.425
22.725 11.475 0.075
24.375 0.375 2.325
24.375 0.375 2.625
20.775 12.675 -0.375
21.675 -2.175 0.075
18.675 -3.225 0.525
18.675 -3.225 0.225
18.675 -3.225 1.125
22.575 11.625 0.225
22.575 -1.575 1.125
22.575 -1.575 0.525
22.575 -1.575 2.175
20.475 12.825 0.075
24.525 0.525 3.225
21.975 12.075 0.075
21.975 12.075 -1.125
22.425 -1.725 0.075
18.975 -3.225 1.575
18.975 -3.225 1.275
18.975 -3.225 -0.375
24.375 0.225 1.875
22.275 -1.875 0.825
19.725 -3.075 -0.075
21.825 12.225 -0.225
20.625 12.825 2.625
21.825 12.225 -0.975
21.825 12.225 0.825
20.625 12.825 0.675
22.875 11.475 0.225
21.825 12.225 0.525
24.675 0.675 2.775
24.675 0.675 1.275
21.825 -2.175 0.075
22.875 -1.425 3.375
22.875 -1.425 1.725
22.875 -1.425 0.075
19.125 -3.225 0.525
18.075 -3.375 2.775
22.725 -1.575 1.875
22.725 -1.575 1.725
22.125 12.075 0.975
22.125 -2.025 1.725
18.375 -3.375 -0.075
19.875 -3.075 -0.075
22.575 -1.725 2.925
22.575 -1.725 3.675
24.825 0.825 3.075
18.525 -3.375 0.975
18.525 -3.375 0.075
18.675 -3.375 0.525
24.675 0.525 2.025
24.675 0.525 2.475
22.425 -1.875 1.125
22.425 -1.875 0.525
20.025 -3.075 -0.675
18.825 -3.375 2.775
23.025 11.475 0.525
21.525 -2.475 0.525
22.875 11.625 0.225
22.875 -1.575 2.025
22.875 -1.575 1.725
22.275 12.075 0.225
22.275 -2.025 2.175
22.275 -2.025 0.525
20.925 12.825 -0.375
21.825 12.375 -0.375
21.825 12.375 0.075
21.825 12.375 0.225
21.825 12.375 -0.825
21.825 -2.325 0.525
22.725 11.775 0.225
19.725 -3.225 -0.075
17.325 -3.525 -0.225
17.175 -3.525 2.625
17.925 -3.525 -0.675
22.125 12.225 1.875
22.125 -2.175 0.225
18.075 -3.525 -0.675
18.075 -3.525 -0.525
10.275 0.375 -3.225
22.575 11.925 0.075
22.575 -1.875 -0.225
22.575 -1.875 0.075
18.225 -3.525 1.575
16.725 -3.525 -0.525
19.275 -3.375 0.375
19.275 -3.375 -0.375
21.675 12.525 -0.225
18.375 -3.525 -0.375
23.925 10.725 0.375
18.525 -3.525 0.975
22.425 -2.025 0.225
21.975 12.375 -0.375
24.075 10.575 0.825
18.675 -3.525 0.525
20.025 -3.225 0.525
22.875 11.775 0.675
22.275 -2.175 1.275
22.275 -2.175 1.125
22.275 -2.175 0.975
21.525 12.675 -0.375
21.825 12.525 -0.375
21.825 12.525 -0.075
21.825 12.525 -1.425
22.725 -1.875 1.125
20.175 -3.225 0.225
22.125 12.375 -0.225
22.125 12.375 -0.525
22.125 -2.325 -0.525
22.125 -2.325 0.225
22.125 -2.325 0.375
17.475 -3.675 -0.675
17.625 -3.675 -0.675
17.325 -3.675 -0.375
22.575 -2.025 0.675
17.775 -3.675 -0.825
17.925 -3.675 -0.825
18.075 -3.675 0.525
18.075 -3.675 -0.375
16.875 -3.675 -0.975
16.875 -3.675 -0.825
23.175 -1.575 2.325
21.675 -2.625 0.375
21.675 12.675 -1.125
14.625 -3.225 -0.975
18.225 -3.675 -0.375
18.225 -3.675 0.225
18.225 -3.675 0.525
16.725 -3.675 -0.225
26.025 6.825 2.175
24.675 0.075 2.025
22.425 12.225 0.825
19.275 -3.525 0.525
19.275 -3.525 -0.525
19.275 -3.525 -0.675
22.425 -2.175 1.575
22.425 -2.175 1.425
19.275 -3.525 0.825
21.975 12.525 -0.975
22.875 11.925 -0.675
18.525 -3.675 -0.825
19.425 -3.525 -0.825
19.425 -3.525 2.025
22.275 12.375 -0.225
22.275 12.375 0.075
18.675 -3.675 -1.275
18.675 -3.675 0.525
24.525 10.275 0.525
22.725 -2.025 2.925
21.825 -2.625 -0.075
21.825 12.675 -0.225
23.775 -1.125 -0.075
18.825 -3.675 -0.075
18.825 -3.675 -1.275
20.925 13.125 -0.525
23.925 -0.975 0.975
22.575 12.225 0.375
22.575 -2.175 1.425
22.575 -2.175 0.525
22.575 -2.175 -0.075
22.125 12.525 -0.225
22.125 -2.475 0.825
24.975 0.375 1.725
18.975 -3.675 -0.375
17.325 -3.825 -0.825
19.125 -3.675 0.525
19.125 -3.675 0.075
21.375 12.975 -0.225
21.675 -2.775 1.575
22.425 -2.325 0.825
22.425 -2.325 0.675
17.925 -3.825 -0.825
25.575 8.625 4.725
21.075 13.125 -0.675
18.075 -3.825 0.225
18.075 -3.825 0.975
18.075 -3.825 0.525
21.975 12.675 0.375
19.875 -3.525 -0.375
22.875 -2.025 3.075
18.225 -3.825 0.675
19.275 -3.675 0.825
19.275 -3.675 0.375
20.775 13.275 0.675
25.725 8.325 -1.125
22.275 -2.475 0.975
22.275 -2.475 1.125
22.275 -2.475 0.225
22.275 12.525 0.525
19.425 -3.675 0.375
21.525 12.975 0.075
21.525 -2.925 0.075
21.225 13.125 -0.375
21.825 12.825 -0.225
21.825 12.825 1.125
21.825 -2.775 2.025
13.125 -2.775 -0.375
23.325 -1.725 2.475
22.575 12.375 0.675
22.575 -2.325 0.075
22.575 -2.325 1.275
19.575 -3.675 1.275
22.125 -2.625 1.275
22.125 -2.625 -0.075
22.125 -2.625 0.825
22.125 -2.625 0.375
22.125 12.675 -0.375
18.825 -3.825 0.675
23.025 -2.025 4.275
22.425 12.525 0.525
24.975 0.075 1.125
22.425 12.525 0.675
21.375 13.125 0.675
21.375 13.125 -0.675
21.675 12.975 -0.225
21.675 -2.925 0.375
21.675 -2.925 0.975
22.875 -2.175 1.425
17.475 -3.975 -0.825
17.475 -3.975 -0.525
17.625 -3.975 1.725
21.975 12.825 1.725
21.975 12.825 0.225
17.925 -3.975 0.975
20.325 13.575 0.525
14.625 -3.525 -0.225
18.075 -3.975 0.525
16.875 -3.975 -0.225
16.875 -3.975 -0.525
20.775 13.425 0.825
25.125 0.225 2.325
25.125 0.225 1.125
22.275 -2.625 -0.075
22.275 12.675 0.525
22.275 -2.625 0.975
18.225 -3.975 0.525
16.725 -3.975 -0.375
19.275 -3.825 0.375
19.275 -3.825 -0.675
16.575 -3.975 -0.675
11.625 -1.875 0.975
13.425 -3.075 -0.675
18.525 -3.975 1.425
16.425 -3.975 -0.825
14.475 -3.525 -2.025
14.475 -3.525 -0.375
21.825 12.975 0.675
21.825 12.975 1.125
21.825 12.975 -0.075
21.825 -2.925 1.275
21.825 -2.925 -0.075
19.425 -3.825 0.375
13.125 -2.925 0.525
23.175 12.075 -0.075
14.925 -3.675 -0.825
22.575 -2.475 0.975
22.575 -2.475 1.275
18.675 -3.975 -0.375
22.125 12.825 0.075
22.125 12.825 0.675
22.125 12.825 0.225
20.925 13.425 0.075
18.825 -3.975 -0.975
18.825 -3.975 0.525
16.125 -3.975 -0.825
14.775 -3.675 0.525
22.425 -2.625 1.275
22.425 -2.625 2.025
22.425 -2.625 0.225
22.425 12.675 0.675
21.675 13.125 0.375
21.675 13.125 0.675
15.975 -3.975 -0.375
25.725 1.125 1.575
13.575 -3.225 -0.075
21.975 12.975 0.675
21.975 12.975 0.075
21.975 -2.925 0.525
17.625 -4.125 -0.675
17.775 -4.125 0.975
17.775 -4.125 -0.525
22.275 12.825 0.525
22.275 12.825 0.075
