# .PCD v0.7 - Point Cloud Data file format
VERSION 0.7
FIELDS x y z
SIZE 4 4 4
TYPE F F F
COUNT 1 1 1
WIDTH 2048
HEIGHT 1
VIEWPOINT 0 0 0 1 0 0 0
POINTS 2048
DATA ascii
4.725 25.875 0.675
4.875 26.025 2.475
5.025 26.175 2.775
4.575 25.425 2.775
4.875 25.425 2.625
4.875 25.425 1.425
5.175 26.025 1.425
4.425 25.425 1.425
4.425 26.325 0.375
5.025 25.425 1.425
5.025 25.425 0.825
5.175 26.175 1.575
4.125 25.875 2.325
5.325 26.175 2.025
5.325 25.575 2.175
5.325 25.575 1.725
5.025 25.275 0.975
4.725 26.625 0.975
4.725 25.125 3.075
4.725 25.125 0.675
4.275 25.275 1.125
5.175 26.475 1.575
5.175 26.475 1.125
5.175 25.275 1.275
5.475 26.025 -0.825
5.475 26.025 2.775
5.475 26.025 1.425
5.475 26.025 1.725
4.575 25.125 3.675
4.575 25.125 0.975
4.575 25.125 3.975
4.575 26.625 0.825
4.425 25.125 4.575
4.425 25.125 0.375
5.025 25.125 1.425
5.025 25.125 2.175
5.025 25.125 1.125
5.475 25.575 1.125
4.125 25.275 1.125
4.125 25.275 2.175
5.325 26.475 1.275
5.475 26.325 3.075
5.475 26.325 2.325
4.575 24.975 3.825
4.575 24.975 1.425
4.875 26.775 0.975
5.625 26.025 1.275
5.625 25.725 0.825
4.425 24.975 0.975
5.025 26.775 0.675
5.025 24.975 0.675
5.025 26.775 0.525
5.625 25.575 1.275
5.625 25.575 2.625
4.125 25.125 1.425
5.475 25.275 1.275
4.275 24.975 0.975
5.625 25.425 0.975
4.725 26.925 0.525
5.775 25.875 1.725
4.725 24.825 1.125
4.725 24.825 0.675
3.975 25.125 0.975
5.475 26.625 1.275
5.475 25.125 1.425
5.475 26.625 1.725
5.475 26.625 3.375
5.775 25.725 1.725
5.775 26.025 1.575
4.575 24.825 1.425
4.575 24.825 1.275
4.875 24.825 1.275
4.875 24.825 1.125
4.875 26.925 1.275
5.325 24.975 1.425
5.325 26.775 1.125
5.325 24.975 1.125
5.325 26.775 1.875
3.825 25.275 0.825
4.425 26.925 0.075
4.425 24.825 1.125
5.775 25.575 1.875
5.775 26.325 1.575
4.275 24.825 0.225
5.175 24.825 1.275
5.175 24.825 1.425
3.975 24.975 3.075
5.475 24.975 1.275
5.625 26.625 3.225
5.625 26.625 1.575
5.625 26.625 0.975
4.575 24.675 1.125
4.875 24.675 1.425
4.875 24.675 0.975
4.875 24.675 1.275
5.925 26.025 0.675
4.125 24.825 3.975
5.325 24.825 1.725
5.325 26.925 1.725
5.775 25.275 -1.875
5.775 26.475 0.225
5.775 25.275 1.125
4.425 24.675 0.675
4.425 24.675 0.975
4.425 24.675 0.525
5.025 24.675 1.125
5.025 27.075 2.325
5.025 27.075 2.175
5.625 26.775 -0.225
4.275 24.675 0.975
4.275 24.675 1.725
5.175 27.075 1.725
3.975 24.825 0.225
3.975 24.825 1.425
5.475 26.925 1.275
5.775 26.625 0.525
5.475 24.825 0.825
5.775 25.125 1.575
5.775 26.625 0.375
5.775 26.625 1.575
5.475 26.925 1.125
6.075 25.875 1.125
4.725 24.525 1.875
6.075 26.025 1.275
4.875 24.525 2.025
5.775 24.975 0.525
5.775 24.975 -2.475
5.625 24.825 0.975
5.025 24.525 1.275
5.925 26.625 0.525
5.175 24.525 -0.075
4.125 24.525 0.675
5.325 27.225 1.425
5.325 24.525 2.025
5.325 24.525 1.125
5.325 24.525 -0.225
3.675 24.825 1.425
3.825 24.675 2.025
3.825 24.675 0.975
5.625 24.675 1.425
4.725 24.375 2.175
4.725 24.375 1.275
4.875 24.375 1.275
4.575 24.375 0.825
4.425 24.375 2.025
5.025 27.375 2.475
6.225 26.175 1.575
5.475 27.225 2.325
5.475 24.525 0.375
4.275 27.375 0.675
4.275 24.375 2.175
5.775 27.075 0.975
5.775 24.675 0.075
5.925 26.925 0.525
4.125 24.375 0.525
4.125 24.375 1.575
6.075 26.775 1.275
5.625 27.225 1.575
5.625 27.225 1.725
4.725 24.225 4.425
4.575 24.225 1.425
4.425 27.525 1.125
5.475 24.375 0.675
6.225 26.625 2.325
5.475 27.375 0.225
6.375 26.175 1.125
6.075 26.925 0.975
3.675 24.525 3.825
6.225 26.775 0.675
3.825 24.375 1.125
6.375 26.475 1.725
4.725 24.075 1.875
6.525 26.025 1.125
4.875 27.675 1.575
5.925 27.225 0.975
5.925 27.225 0.675
6.525 26.175 1.425
3.675 24.375 1.575
5.625 27.525 1.275
6.375 26.775 1.575
6.225 24.675 -2.625
6.675 25.875 0.525
3.975 27.675 0.825
5.475 27.675 1.125
6.525 26.625 0.675
6.525 26.625 1.425
5.775 27.525 1.275
4.875 27.825 0.825
6.675 26.025 0.525
6.675 26.175 1.725
6.675 26.175 1.275
6.675 26.175 1.425
5.175 27.825 0.825
6.675 26.325 1.425
6.675 26.325 0.825
6.525 26.775 1.725
6.525 26.775 0.675
5.625 27.675 0.975
5.625 27.675 1.275
5.625 24.075 -3.525
5.625 24.075 -3.375
6.075 27.375 1.425
5.925 27.525 1.575
6.675 26.475 1.575
6.675 26.475 -0.225
6.675 26.475 1.425
6.525 26.925 1.575
5.775 27.675 0.675
5.775 27.675 0.975
5.475 27.825 2.025
6.675 25.125 -0.225
6.675 26.625 1.425
6.675 26.625 1.275
6.825 26.025 0.525
6.825 26.025 0.825
6.825 25.725 0.375
4.875 27.975 2.325
6.825 26.175 1.725
6.825 25.575 0.525
6.825 26.175 1.125
5.025 27.975 1.125
6.675 26.775 1.425
5.625 27.825 1.875
6.675 26.775 1.275
6.675 26.775 0.525
6.675 24.975 0.375
5.625 27.825 1.125
6.825 26.325 -3.075
6.525 27.075 1.125
6.525 24.675 3.675
5.925 27.675 1.575
5.925 27.675 0.375
6.825 25.275 0.675
6.825 25.275 0.375
5.775 27.825 0.975
5.775 27.825 1.275
6.375 24.375 -2.925
6.825 26.625 0.975
6.825 26.625 1.125
6.825 26.625 0.675
5.475 27.975 1.725
5.475 27.975 0.825
6.975 25.875 -0.375
3.375 24.075 1.875
6.075 27.675 1.125
6.975 25.725 0.225
6.975 26.025 0.675
6.975 25.575 0.375
6.975 25.575 0.525
6.975 26.175 1.875
6.975 25.575 0.975
6.975 26.175 0.825
6.825 26.775 2.025
5.625 27.975 1.125
3.525 23.925 1.725
5.925 27.825 0.975
6.975 26.325 1.275
6.975 26.325 0.675
5.325 28.125 1.275
5.325 28.125 1.875
6.975 26.475 1.875
6.975 26.475 1.725
6.975 26.475 1.275
6.225 27.675 1.875
6.225 27.675 1.275
6.825 26.925 1.275
6.075 27.825 1.725
6.975 26.625 1.875
5.475 28.125 1.125
5.475 28.125 1.425
5.475 28.125 2.175
6.975 26.625 0.525
6.975 26.625 1.125
5.475 28.125 1.275
4.725 28.275 0.825
7.125 25.725 0.675
7.125 26.025 0.975
7.125 26.025 0.525
5.025 28.275 1.125
6.825 27.075 1.125
7.125 26.175 0.525
7.125 26.175 1.275
7.125 26.175 0.375
5.925 27.975 0.825
5.925 27.975 1.425
5.925 27.975 1.875
6.975 26.775 0.375
6.975 26.775 1.425
6.975 26.775 1.125
6.975 26.775 1.275
6.975 26.775 1.875
5.625 28.125 1.575
7.125 26.325 0.975
7.125 26.325 1.125
7.125 26.325 1.575
7.125 26.325 0.825
6.375 27.675 1.125
6.225 27.825 -0.225
6.225 27.825 1.875
7.125 26.475 0.975
7.125 26.475 1.125
5.775 28.125 1.725
6.975 26.925 0.975
6.975 26.925 0.225
6.975 26.925 1.275
6.975 26.925 0.675
5.775 23.625 0.825
6.975 26.925 1.125
6.825 24.525 0.225
6.825 27.225 1.125
6.825 24.525 0.975
3.375 23.775 1.275
6.075 27.975 0.675
5.475 28.275 2.025
7.125 26.625 0.525
7.125 26.625 1.125
7.125 26.625 0.975
7.125 26.625 0.825
7.125 26.625 1.425
6.975 27.075 1.125
6.975 24.675 0.225
5.925 28.125 1.725
5.925 28.125 1.425
5.925 28.125 1.275
5.925 28.125 0.975
4.725 28.425 0.675
7.275 25.875 0.675
7.275 26.025 0.525
7.275 26.025 0.375
7.275 25.725 0.825
7.275 26.025 0.675
7.125 26.775 1.725
7.125 26.775 0.825
7.125 26.775 1.275
7.125 26.775 0.975
7.125 26.775 0.675
7.275 26.175 0.525
7.275 26.175 0.975
7.275 26.175 0.825
6.825 24.375 0.825
6.225 27.975 1.425
7.275 26.325 1.125
5.775 28.275 1.425
7.125 26.925 1.725
7.125 24.825 0.525
7.125 26.925 0.825
5.325 28.425 0.525
7.275 26.475 0.825
3.375 23.625 0.675
3.375 23.625 1.275
6.975 27.225 1.125
7.275 26.625 0.825
5.475 28.425 1.875
7.275 26.625 0.675
7.275 26.625 -0.825
6.825 27.525 4.125
6.825 27.525 2.025
6.375 27.975 -0.675
7.125 27.075 1.425
7.125 24.675 1.275
7.125 27.075 1.125
7.125 27.075 0.825
7.425 25.875 0.525
6.225 28.125 1.575
6.975 24.375 -4.425
6.225 28.125 1.125
7.425 26.025 0.975
7.425 26.025 0.675
7.425 26.025 1.875
7.425 26.025 0.825
7.275 26.775 0.525
7.275 26.775 1.575
5.625 28.425 1.875
5.625 28.425 1.725
5.625 28.425 1.125
5.625 23.325 0.975
5.025 23.175 1.425
7.425 26.175 0.975
7.425 26.175 0.675
7.425 26.325 0.675
7.425 26.325 1.575
7.425 26.325 1.425
7.425 26.325 0.825
7.425 26.325 1.725
6.075 23.475 3.675
6.075 28.275 1.275
6.075 28.275 2.025
6.075 28.275 1.725
6.075 28.275 1.425
7.125 27.225 0.975
7.125 27.225 0.525
7.275 26.925 1.275
7.275 26.925 0.675
7.275 24.825 0.825
5.775 28.425 2.025
7.275 24.825 -0.525
5.775 28.425 0.525
7.275 26.925 0.075
5.325 28.575 0.375
5.325 28.575 1.425
5.325 23.175 1.425
7.425 26.475 0.825
7.425 26.475 0.675
7.425 26.475 0.225
7.425 26.475 1.575
7.425 26.475 1.275
6.825 24.075 0.675
6.975 27.525 2.025
7.425 26.625 1.425
7.425 26.625 0.825
7.425 26.625 0.975
7.275 27.075 0.525
7.275 27.075 1.275
7.275 27.075 -0.075
7.275 27.075 0.675
7.275 27.075 0.975
7.275 27.075 1.125
7.275 27.075 1.575
7.275 27.075 2.175
7.275 27.075 1.425
5.925 28.425 2.625
5.925 28.425 1.575
5.925 23.325 0.975
6.225 28.275 0.825
6.225 28.275 1.875
6.225 28.275 1.575
6.225 28.275 0.975
6.225 23.475 0.525
5.625 23.175 0.375
7.575 25.875 0.975
7.575 26.025 0.525
7.575 26.025 0.825
7.575 26.025 0.975
7.575 26.025 1.425
7.575 26.175 0.975
7.575 26.175 4.725
5.025 23.025 0.825
5.025 23.025 0.675
6.975 27.675 0.375
7.575 26.325 1.275
7.575 26.325 1.425
7.575 26.325 1.875
7.575 26.325 0.825
6.075 23.325 0.525
6.075 28.425 1.575
6.075 28.425 1.725
6.075 28.425 2.175
7.275 27.225 0.975
5.175 23.025 0.225
7.275 27.225 0.525
7.275 27.225 1.275
7.425 26.925 0.375
7.425 26.925 1.275
7.425 26.925 1.125
7.425 26.925 1.575
7.425 24.825 -0.375
6.375 28.275 1.425
7.125 24.225 5.475
7.575 26.475 2.175
7.575 26.475 0.825
7.575 26.475 0.975
7.575 26.475 2.025
7.575 26.475 0.225
5.325 23.025 0.375
5.325 23.025 0.825
5.325 23.025 1.275
5.325 23.025 0.525
7.575 26.625 0.525
7.575 26.625 1.275
7.575 26.625 0.825
7.575 26.625 1.425
7.575 26.625 1.125
7.575 26.625 0.225
7.575 26.625 0.975
5.475 28.725 2.025
5.475 23.025 0.975
5.475 23.025 0.525
5.475 23.025 1.425
5.925 28.575 0.975
5.925 23.175 0.525
7.425 27.075 0.825
7.425 27.075 1.125
7.425 27.075 1.725
7.425 27.075 0.975
7.425 24.675 -0.975
7.425 24.675 0.975
7.425 24.675 -0.225
7.425 24.675 1.275
7.275 27.375 0.975
7.275 27.375 1.125
7.575 26.775 1.425
7.575 26.775 -0.375
7.575 26.775 1.725
7.575 24.975 -0.675
7.575 24.975 1.425
7.575 24.975 0.675
7.575 26.775 1.275
5.625 28.725 1.575
5.625 28.725 1.725
5.625 23.025 0.975
4.725 22.875 0.975
7.725 25.875 0.525
7.725 25.875 0.825
7.725 25.875 0.675
7.725 26.025 0.675
7.725 25.725 0.525
7.725 26.025 0.825
7.725 25.725 0.375
4.875 22.875 0.525
7.725 26.175 1.125
7.725 26.175 1.425
7.725 26.175 0.675
7.725 26.175 1.725
7.725 26.175 0.825
6.075 23.175 -0.525
7.425 27.225 0.825
7.425 24.525 1.425
7.425 24.525 -1.275
7.425 24.525 0.675
7.725 26.325 0.225
7.725 26.325 1.125
7.725 26.325 2.025
7.725 26.325 0.825
7.725 26.325 0.675
7.725 26.325 0.525
5.175 22.875 1.275
5.175 22.875 0.375
7.575 26.925 0.825
7.575 26.925 1.725
6.375 28.425 1.425
5.775 23.025 -0.225
4.125 22.875 0.675
7.725 26.475 0.675
7.725 26.475 0.525
7.725 26.475 1.575
5.325 22.875 1.125
5.325 22.875 0.525
5.325 22.875 0.375
5.325 28.875 2.325
6.225 23.175 0.375
6.675 28.275 -0.075
7.575 27.075 1.425
7.575 27.075 1.575
7.725 26.625 1.875
7.725 26.625 1.275
5.475 22.875 0.975
7.725 26.625 0.525
7.725 26.625 0.975
7.725 26.625 0.075
5.475 22.875 1.125
7.575 27.075 1.125
5.475 28.875 1.425
7.575 24.675 0.975
7.725 25.125 0.525
7.575 24.675 1.275
5.475 28.875 2.025
5.925 28.725 1.875
5.925 28.725 -0.525
5.925 28.725 -0.675
5.925 23.025 1.125
5.925 28.725 1.725
5.925 23.025 0.375
5.925 23.025 0.525
5.925 23.025 0.825
7.725 26.775 1.425
7.725 26.775 1.125
7.725 26.775 0.825
7.725 26.775 0.975
7.725 26.775 0.675
7.725 26.775 1.275
7.725 24.975 -0.075
5.625 22.875 0.825
5.625 28.875 2.625
4.725 22.725 -0.825
7.875 25.875 0.375
7.875 25.725 0.525
7.875 26.025 0.375
7.875 25.725 0.675
7.875 26.025 0.675
6.075 28.725 2.175
6.075 28.725 2.325
6.075 28.725 2.775
6.075 23.025 0.525
6.075 23.025 0.675
5.025 22.725 0.825
5.025 22.725 0.525
7.425 27.525 0.225
7.425 27.525 0.825
6.375 23.175 0.825
7.875 25.575 0.225
7.875 26.175 0.825
7.875 26.175 0.975
7.875 26.175 0.675
7.875 26.175 1.275
7.725 24.825 1.275
7.725 26.925 1.275
7.725 26.925 0.975
5.775 22.875 -0.225
7.725 26.925 0.225
7.725 26.925 1.125
7.725 26.925 0.675
5.775 22.875 0.525
5.775 28.875 1.725
5.775 28.875 1.875
4.275 22.725 0.525
5.175 22.725 1.125
5.175 29.025 0.825
7.875 26.325 0.975
7.875 26.325 0.675
7.875 26.325 0.225
7.875 26.325 1.725
7.125 27.975 0.225
7.875 26.475 -0.075
7.875 26.475 0.525
6.675 28.425 1.725
7.575 24.375 -0.525
7.575 24.375 0.075
7.575 24.375 0.675
7.575 24.375 1.725
6.225 28.725 1.725
6.225 28.725 1.425
6.225 28.725 2.025
7.725 27.075 1.425
7.725 27.075 0.975
7.725 27.075 1.275
7.725 27.075 1.125
7.725 27.075 0.825
7.725 27.075 0.525
5.925 28.875 2.475
5.925 28.875 1.125
5.925 28.875 2.625
5.925 28.875 1.575
5.925 28.875 1.425
3.975 22.725 1.125
5.475 22.725 1.125
5.475 22.725 0.975
5.475 22.725 0.825
5.475 22.725 0.075
5.475 29.025 1.575
7.875 26.625 0.675
7.875 26.625 1.275
7.875 26.625 1.125
7.875 26.625 1.425
7.875 26.625 0.525
7.875 25.125 0.675
7.875 26.625 1.575
7.425 27.675 1.425
5.625 22.725 1.125
5.625 22.725 0.975
5.625 22.725 -0.375
5.625 29.025 1.875
7.875 24.975 0.675
7.875 26.775 0.975
7.875 26.775 1.425
7.875 26.775 0.825
7.875 26.775 1.125
7.875 26.775 1.275
6.975 28.275 0.075
6.075 22.875 0.225
6.075 22.875 0.375
6.075 28.875 2.175
6.075 22.875 0.825
7.725 24.525 -0.825
7.725 24.525 0.825
7.725 24.525 -0.525
7.725 24.525 1.875
7.725 27.225 0.825
7.725 27.225 1.425
6.375 28.725 3.225
6.375 28.725 1.725
6.375 23.025 0.525
8.025 25.875 0.375
8.025 26.025 1.425
8.025 26.025 0.675
8.025 26.025 0.825
8.025 25.725 0.525
8.025 25.725 0.825
7.275 27.975 1.275
8.025 26.175 1.725
8.025 26.175 0.975
8.025 26.175 1.425
8.025 26.175 0.225
8.025 25.575 0.375
5.775 22.725 0.525
5.775 29.025 2.025
5.775 29.025 1.425
7.875 26.925 0.825
7.875 26.925 0.675
7.875 26.925 1.125
7.875 26.925 1.425
6.675 28.575 0.375
6.675 28.575 -0.225
7.425 23.925 2.475
8.025 26.325 0.975
8.025 26.325 0.675
8.025 26.325 -0.225
8.025 26.325 -0.675
8.025 26.325 1.125
5.175 22.575 1.275
5.175 22.575 0.675
6.225 28.875 1.575
6.225 28.875 3.075
6.225 28.875 1.125
6.225 22.875 0.675
7.725 27.375 0.975
7.725 27.375 0.675
6.225 22.875 -0.225
6.225 22.875 0.375
8.025 26.475 0.825
8.025 26.475 1.125
8.025 26.475 0.975
8.025 26.475 0.525
5.325 29.175 1.275
5.325 22.575 1.125
8.025 26.475 0.675
5.925 22.725 1.875
5.925 29.025 2.775
7.875 24.675 1.425
7.875 24.675 -0.525
7.875 24.675 0.975
7.875 27.075 1.425
7.875 27.075 1.125
7.875 27.075 0.975
7.875 27.075 1.275
7.875 24.675 0.375
7.575 27.675 0.975
8.025 26.625 0.825
8.025 26.625 0.675
8.025 26.625 0.225
8.025 26.625 0.525
8.025 26.625 1.425
8.025 25.125 0.375
8.025 26.625 0.375
8.025 25.125 0.525
6.975 23.325 0.975
6.825 23.175 0.525
6.825 23.175 0.975
6.825 28.575 0.375
8.025 26.775 0.675
8.025 26.775 0.825
8.025 24.975 0.075
8.025 26.775 0.975
8.025 24.975 0.225
8.025 24.975 1.875
7.425 23.775 2.775
7.725 27.525 1.125
7.725 27.525 0.375
7.725 27.525 0.975
6.375 22.875 0.525
3.375 22.725 1.575
6.075 29.025 2.175
6.075 22.725 1.875
7.875 24.525 -0.375
7.875 24.525 0.375
7.875 27.225 5.475
7.875 27.225 0.825
7.875 27.225 1.425
4.725 22.425 0.075
4.875 22.425 -0.975
8.175 26.025 1.125
8.175 25.725 0.975
6.675 23.025 0.375
6.675 23.025 0.525
5.025 22.425 0.675
8.025 26.925 1.125
8.025 26.925 0.825
8.025 26.925 1.275
8.025 24.825 0.375
8.025 24.825 1.125
8.025 24.825 0.525
8.025 24.825 0.075
8.025 24.825 -0.075
8.175 26.175 -0.375
8.175 26.175 1.125
8.175 26.175 0.375
8.175 26.325 0.225
8.175 26.325 1.125
8.175 26.325 0.825
8.175 26.325 0.075
8.175 26.325 0.525
8.175 26.325 0.975
6.225 29.025 1.275
6.225 29.025 1.875
7.875 27.375 1.725
7.875 27.375 0.225
7.875 27.375 0.525
7.875 27.375 0.375
7.875 24.375 0.375
7.875 27.375 0.675
7.875 24.375 -0.525
7.875 24.375 2.625
7.725 27.675 1.125
7.725 27.675 1.275
7.725 27.675 0.825
6.525 28.875 2.025
6.525 22.875 0.225
7.725 24.075 3.825
5.325 22.425 0.525
7.275 23.475 0.525
8.175 26.475 0.225
8.175 26.475 1.725
8.175 26.475 0.975
8.175 26.475 0.375
8.175 26.475 -0.225
8.175 26.475 2.025
8.175 26.475 1.125
8.025 27.075 1.875
8.025 27.075 1.275
8.025 27.075 1.125
8.025 24.675 0.225
8.025 24.675 0.825
8.025 24.675 0.975
5.925 29.175 1.875
5.925 22.575 -0.525
6.975 23.175 0.375
6.975 23.175 0.825
7.425 28.125 1.725
5.475 22.425 0.225
8.175 26.625 1.125
8.175 26.625 0.825
8.175 26.625 0.975
8.175 25.125 0.525
8.175 25.125 0.375
8.175 25.125 0.225
6.825 23.025 1.275
6.825 28.725 1.125
6.825 23.025 0.525
6.825 23.025 0.975
7.575 27.975 1.275
6.375 22.725 0.375
6.375 29.025 -0.225
7.875 27.525 0.075
7.875 27.525 1.275
7.875 27.525 0.825
5.625 29.325 1.875
8.175 24.975 0.075
8.175 24.975 0.825
8.175 24.975 2.175
8.175 26.775 1.125
8.175 26.775 0.825
6.075 29.175 1.425
6.075 22.575 1.725
8.025 27.225 0.525
8.025 27.225 0.375
8.025 27.225 0.825
8.025 27.225 -0.825
8.025 24.525 1.275
8.025 24.525 0.375
8.025 24.525 0.975
8.025 24.525 3.225
6.675 28.875 1.275
6.675 22.875 0.525
6.675 22.875 -0.225
8.325 25.875 0.525
4.725 22.275 0.375
8.325 26.025 0.375
8.325 26.025 0.525
8.175 26.925 1.275
8.175 24.825 1.275
8.175 24.825 0.525
8.175 24.825 0.825
8.175 26.925 1.425
8.175 26.925 0.975
7.275 23.325 0.975
7.275 23.325 0.525
7.125 23.175 0.225
8.325 26.175 0.675
8.325 26.175 0.525
8.325 25.575 1.125
7.125 23.175 0.525
8.025 27.375 1.125
8.025 27.375 0.675
8.025 27.375 1.275
8.025 24.375 3.675
6.225 29.175 2.025
6.225 22.575 -0.075
6.225 22.575 -0.225
6.525 22.725 -0.375
6.525 22.725 0.825
6.525 22.725 0.225
6.525 29.025 1.275
6.525 29.025 0.675
6.525 29.025 2.475
6.525 29.025 1.875
8.325 26.325 1.125
8.325 26.325 0.525
8.325 26.325 0.075
8.325 26.325 0.675
7.875 27.675 0.225
7.875 27.675 1.125
7.875 27.675 0.975
7.575 28.125 1.125
6.975 23.025 1.275
6.975 23.025 0.675
6.975 23.025 0.075
6.975 23.025 1.125
6.975 23.025 0.825
6.975 23.025 0.975
8.325 26.475 1.425
8.325 26.475 1.875
8.325 25.275 0.825
5.925 22.425 0.975
5.925 29.325 1.875
8.175 24.675 1.275
8.175 24.675 -0.225
8.175 27.075 0.825
8.175 27.075 0.675
8.175 27.075 1.125
8.175 27.075 0.975
6.825 28.875 1.275
6.825 28.875 0.525
6.825 22.875 -0.225
6.825 22.875 0.375
7.725 27.975 1.575
7.725 27.975 0.375
8.325 25.125 1.275
8.325 26.625 1.125
8.025 27.525 1.275
6.375 22.575 -0.825
6.375 29.175 1.725
6.375 29.175 1.425
6.675 22.725 0.825
6.675 29.025 2.775
6.675 29.025 1.725
6.675 22.725 0.075
6.075 29.325 2.025
7.875 27.825 2.025
7.875 27.825 1.125
8.175 24.525 1.275
8.175 24.525 -0.375
8.175 24.525 0.525
8.175 27.225 0.675
8.175 27.225 0.975
8.175 27.225 1.425
8.175 24.525 0.825
8.175 24.525 1.425
8.175 24.525 0.675
8.325 24.975 0.675
8.325 26.775 1.275
8.325 26.775 0.975
8.325 26.775 0.675
8.325 26.775 1.125
8.325 26.775 0.825
8.325 24.975 0.375
7.275 23.175 0.375
7.275 28.575 0.675
7.425 28.425 2.625
7.575 28.275 2.025
7.575 23.475 0.675
7.125 23.025 0.975
7.125 28.725 1.725
7.125 23.025 -0.525
7.125 28.725 3.075
7.125 23.025 0.375
7.125 23.025 0.825
7.125 23.025 -0.075
8.325 26.925 0.825
8.325 26.925 1.125
8.325 26.925 1.425
8.325 26.925 0.975
8.325 26.925 1.275
8.325 24.825 0.975
6.975 28.875 1.875
6.975 22.875 0.675
6.975 22.875 0.525
6.975 22.875 -0.375
7.725 28.125 1.575
8.475 26.025 -0.375
8.475 25.725 -2.175
8.475 25.725 0.825
6.225 29.325 1.125
8.475 25.575 3.975
8.475 26.175 0.525
8.175 27.375 -0.075
8.175 24.375 0.975
8.475 26.325 -0.375
8.475 26.325 0.675
8.475 26.325 0.825
8.475 26.325 0.525
8.475 26.325 -0.525
6.825 22.725 0.825
6.825 22.725 0.225
6.825 22.725 -0.225
7.875 23.775 3.225
8.325 27.075 1.425
8.325 24.675 -0.375
8.325 27.075 0.675
8.325 27.075 0.525
8.325 27.075 1.725
8.325 27.075 1.275
8.325 27.075 1.575
8.325 24.675 1.575
8.325 24.675 -0.525
8.325 24.675 1.125
8.325 24.675 0.525
8.325 24.675 0.375
8.475 26.475 0.675
7.425 23.175 0.825
7.425 23.175 0.675
7.425 23.175 0.525
7.425 28.575 1.125
7.425 28.575 0.975
6.375 29.325 -0.225
6.375 29.325 1.125
8.475 25.125 0.675
8.475 25.125 0.375
8.475 25.125 4.425
8.475 25.125 -0.075
8.475 25.125 0.075
8.475 26.625 0.825
8.175 24.225 0.225
8.175 24.225 0.075
8.175 24.225 1.275
8.175 27.525 1.425
7.275 23.025 0.825
7.275 23.025 1.275
7.275 23.025 0.225
7.275 23.025 0.075
6.675 29.175 0.375
7.725 28.275 2.025
7.125 28.875 3.975
7.125 28.875 1.725
7.125 22.875 0.225
7.125 22.875 0.075
7.125 22.875 0.975
7.125 22.875 0.675
7.125 22.875 0.375
7.125 22.875 -0.225
8.325 27.225 0.675
8.325 24.525 0.525
8.325 24.525 -0.075
8.325 24.525 0.675
8.475 24.975 -0.075
8.475 24.975 0.675
8.475 24.975 0.375
8.475 24.975 0.225
8.475 24.975 0.075
8.475 26.775 -0.825
8.475 26.775 0.975
8.475 26.775 0.825
8.475 26.775 0.525
8.475 26.775 -0.075
7.875 23.625 2.475
7.875 28.125 1.425
6.525 22.425 0.675
8.175 24.075 0.525
8.175 27.675 0.675
8.175 27.675 0.825
8.475 24.825 0.225
8.475 24.825 -0.375
8.475 26.925 0.225
8.475 26.925 1.275
8.475 26.925 0.825
8.475 26.925 1.125
8.325 27.375 0.375
8.325 27.375 0.525
8.325 24.375 0.225
4.575 21.975 0.075
4.425 21.975 0.075
8.625 26.175 -0.375
8.625 26.175 0.225
6.825 29.175 0.525
6.825 22.575 -0.525
7.575 23.175 0.225
7.575 28.575 0.675
8.625 25.425 -0.075
7.425 23.025 0.375
7.425 23.025 -0.375
7.425 23.025 0.675
7.425 23.025 0.525
7.425 23.025 0.825
7.425 28.725 1.425
7.425 28.725 0.825
7.425 28.725 1.275
7.425 23.025 0.225
8.475 27.075 1.575
8.475 27.075 1.425
8.475 27.075 1.125
8.475 27.075 0.675
8.475 24.675 -0.375
8.475 24.675 0.225
8.475 24.675 -0.075
8.475 24.675 0.075
8.475 24.675 0.525
5.925 22.125 2.925
7.275 28.875 1.575
7.275 22.875 0.675
7.275 22.875 0.375
7.275 22.875 0.975
7.275 22.875 0.225
7.275 22.875 0.525
8.625 25.275 0.375
8.625 25.275 1.125
8.625 25.275 1.575
8.625 26.475 0.225
8.325 24.225 -0.375
8.325 24.225 3.525
7.125 22.725 0.225
7.125 22.725 -0.825
7.125 22.725 1.275
7.125 22.725 -0.075
7.125 22.725 0.375
7.875 23.475 0.525
6.375 29.475 1.125
6.375 29.475 2.325
6.375 22.275 -0.825
8.625 25.125 0.825
8.625 26.625 2.325
6.075 22.125 -0.975
8.475 27.225 0.975
8.475 24.525 0.525
8.475 24.525 4.575
8.475 24.525 0.225
8.475 24.525 1.575
8.025 23.625 4.275
8.025 28.125 1.575
6.975 29.175 0.225
6.975 22.575 0.075
6.975 22.575 0.225
6.975 22.575 -0.075
8.625 26.775 1.275
8.625 26.775 0.825
8.625 24.975 0.225
8.625 24.975 -0.225
8.625 24.975 1.875
8.625 24.975 0.525
8.625 24.975 0.075
8.625 24.975 1.575
8.325 24.075 -0.375
8.325 24.075 -0.525
8.325 24.075 3.375
8.325 27.675 -0.525
6.525 29.475 1.275
6.525 29.475 1.875
7.575 23.025 1.125
7.575 28.725 1.275
7.575 23.025 0.525
7.575 23.025 0.375
7.575 23.025 -0.075
7.725 23.175 1.425
7.725 23.175 0.825
7.725 28.575 4.875
7.425 22.875 -0.375
7.425 22.875 0.075
7.425 22.875 0.975
7.425 22.875 0.375
7.425 22.875 2.025
7.425 28.875 -0.225
7.425 28.875 0.825
8.475 27.375 1.575
8.475 24.375 -0.075
8.475 24.375 0.525
8.475 24.375 0.375
8.625 24.825 2.175
8.625 24.825 -0.075
8.625 24.825 -0.375
8.625 24.825 0.375
8.625 24.825 0.075
8.625 26.925 1.275
8.625 26.925 1.725
7.275 29.025 0.825
7.275 29.025 0.675
7.275 22.725 0.675
7.875 28.425 1.275
7.875 28.425 4.725
8.775 25.725 -0.075
8.775 25.725 0.375
8.775 25.575 0.375
8.625 24.675 0.075
8.625 24.675 -0.075
8.625 27.075 -0.075
8.625 27.075 0.975
8.325 27.825 0.675
8.325 23.925 1.425
8.325 23.925 0.375
8.325 27.825 0.975
8.775 25.275 1.875
8.775 26.475 -0.975
8.775 26.475 0.225
8.775 25.275 -0.225
8.775 25.275 0.525
8.775 25.275 0.375
8.475 27.525 1.275
8.475 24.225 -0.225
6.375 29.625 1.275
6.975 22.425 0.825
8.175 23.625 -0.225
3.975 21.825 2.325
8.775 25.125 -0.075
8.775 25.125 0.375
8.775 25.125 0.675
8.775 25.125 2.025
8.775 26.625 0.225
6.075 21.975 0.825
8.625 24.525 0.225
8.625 24.525 -0.075
8.625 24.525 0.675
8.625 24.525 -0.825
8.625 24.525 1.575
8.625 24.525 -0.375
8.625 27.225 -0.225
8.625 24.525 0.075
7.575 28.875 0.975
7.575 28.875 1.125
7.575 28.875 1.425
7.575 22.875 0.825
7.725 28.725 0.675
7.725 23.025 0.825
7.725 23.025 1.125
7.725 23.025 4.125
7.725 23.025 0.375
7.425 22.725 0.075
7.425 22.725 -0.075
7.425 22.725 0.375
7.425 22.725 0.225
7.875 23.175 1.725
7.875 28.575 1.275
8.775 24.975 0.675
8.775 24.975 0.525
8.775 24.975 -0.075
8.775 26.775 2.025
8.775 26.775 0.525
8.475 27.675 1.275
8.475 27.675 0.675
8.475 27.675 -0.525
8.475 27.675 0.825
8.475 24.075 1.275
8.475 24.075 -0.675
8.475 24.075 -0.375
7.275 22.575 0.225
7.275 22.575 0.075
7.275 22.575 -0.075
7.275 29.175 0.225
8.025 23.325 -0.375
8.025 23.325 0.825
6.225 29.775 1.575
6.225 21.975 0.525
8.625 27.375 0.075
8.625 27.375 1.125
8.625 27.375 -0.225
8.625 24.375 1.125
8.775 24.825 -0.075
8.775 24.825 1.875
8.775 24.825 0.825
8.775 24.825 0.675
8.775 24.825 0.375
8.775 24.825 1.575
8.925 25.875 0.075
4.575 21.675 1.575
7.125 22.425 -0.525
8.175 23.475 -0.525
8.175 28.275 1.275
8.175 28.275 0.675
4.425 21.675 0.375
5.025 21.675 1.425
4.275 21.675 -0.375
4.275 21.675 -0.525
8.775 24.675 1.725
8.775 24.675 0.375
8.775 24.675 0.675
8.775 24.675 -0.225
8.775 24.675 0.225
8.775 24.675 -0.075
8.775 24.675 -0.375
8.925 26.325 -0.675
8.925 26.325 0.525
8.925 25.425 -0.525
8.475 27.825 0.825
8.475 27.825 0.975
8.475 27.825 -2.475
8.475 23.925 1.575
8.475 23.925 -0.225
8.475 23.925 2.325
8.475 23.925 0.825
6.675 29.625 1.875
6.675 22.125 0.675
6.675 22.125 1.125
6.375 21.975 0.525
6.375 21.975 -0.375
6.375 21.975 1.275
8.625 27.525 0.675
8.625 24.225 -0.075
5.325 21.675 0.525
5.325 21.675 0.975
5.325 21.675 0.825
7.725 28.875 4.275
7.725 28.875 0.375
7.725 28.875 0.825
7.725 28.875 1.275
7.725 28.875 0.975
7.725 22.875 0.525
7.725 22.875 0.675
8.925 25.275 1.275
8.925 25.275 -0.075
8.925 25.275 0.825
8.925 25.275 0.375
8.325 28.125 1.725
8.325 23.625 0.975
8.325 23.625 1.125
8.325 23.625 0.375
7.575 29.025 1.875
7.575 22.725 -0.225
7.575 22.725 1.125
7.875 28.725 0.675
7.875 23.025 1.125
8.025 28.575 1.125
8.025 23.175 0.525
7.425 29.175 0.825
8.925 25.125 0.525
8.925 25.125 1.875
8.925 25.125 -0.375
8.925 25.125 0.375
8.925 25.125 -0.075
8.775 24.525 0.975
8.775 24.525 0.675
8.775 24.525 -0.075
8.775 24.525 -0.375
8.775 27.225 -0.225
7.275 22.425 -0.075
7.275 22.425 0.825
7.275 22.425 0.975
8.175 28.425 0.825
8.175 28.425 0.525
8.175 28.425 1.425
8.175 28.425 0.975
8.175 23.325 -0.075
6.525 21.975 0.825
8.925 26.775 0.375
8.925 26.775 -0.375
8.625 24.075 0.225
8.625 24.075 0.825
8.625 24.075 -0.525
8.625 24.075 -0.375
8.625 24.075 -0.825
8.625 24.075 0.975
8.925 24.975 0.075
8.925 24.975 2.475
8.925 24.975 -0.225
8.925 24.975 0.675
6.825 22.125 0.675
8.475 23.775 0.225
8.775 24.375 0.225
8.775 24.375 2.925
8.775 24.375 -0.225
8.775 27.375 0.375
8.775 27.375 -0.375
6.225 21.825 0.525
8.325 28.275 0.825
8.325 28.275 0.225
8.325 23.475 0.975
8.325 23.475 -1.425
8.325 23.475 1.125
7.125 22.275 -0.525
8.925 26.925 -0.675
8.925 24.825 1.125
8.925 24.825 1.275
8.925 24.825 0.825
8.925 24.825 -0.225
7.725 22.725 0.225
7.725 22.725 -0.525
7.725 22.725 -0.825
7.725 22.725 0.825
7.725 22.725 1.275
9.075 25.875 0.075
7.875 28.875 -0.225
7.875 28.875 4.425
7.875 22.875 0.225
7.875 22.875 0.825
7.875 22.875 0.675
4.725 21.525 0.675
4.875 21.525 0.675
6.675 21.975 -0.525
6.675 21.975 0.375
9.075 25.575 0.825
9.075 25.575 0.075
9.075 26.175 1.725
9.075 26.175 -0.075
9.075 26.175 0.075
8.625 23.925 0.225
8.625 23.925 -0.975
8.625 23.925 -0.225
8.625 27.825 -0.375
8.625 27.825 -0.075
7.575 29.175 1.875
7.575 22.575 1.725
7.575 22.575 0.225
7.575 22.575 -0.075
7.575 22.575 -0.225
7.575 22.575 0.075
8.025 23.025 0.525
5.025 21.525 0.075
5.025 21.525 2.025
4.425 21.525 -0.675
8.925 24.675 0.225
8.925 24.675 0.675
8.925 24.675 2.475
8.925 24.675 -0.075
8.925 24.675 0.825
9.075 25.425 0.975
9.075 25.425 0.225
9.075 25.425 -0.225
9.075 25.425 0.525
9.075 25.425 0.075
9.075 26.325 -0.375
8.475 23.625 0.225
8.475 23.625 0.975
8.475 23.625 0.825
8.475 28.125 0.225
8.475 28.125 0.675
8.775 24.225 -0.075
8.775 24.225 0.075
8.775 24.225 0.975
8.775 27.525 -0.075
8.775 27.525 0.675
8.775 27.525 0.375
6.375 29.925 1.125
6.375 21.825 0.975
6.375 21.825 0.525
6.375 21.825 0.825
6.375 21.825 3.975
5.175 21.525 1.575
7.425 22.425 0.075
7.425 22.425 0.375
7.425 22.425 0.525
7.425 22.425 -0.075
8.175 23.175 0.825
8.175 23.175 0.975
8.175 23.175 0.375
9.075 25.275 0.225
9.075 25.275 -0.075
9.075 25.275 0.825
9.075 25.275 1.125
5.325 21.525 1.275
5.325 21.525 0.375
5.325 21.525 0.825
5.325 21.525 1.725
6.075 21.675 0.975
8.325 28.425 0.525
8.325 23.325 0.075
8.325 23.325 0.975
8.925 27.225 -1.575
8.925 24.525 -1.275
8.925 24.525 -0.075
8.925 24.525 0.825
8.925 24.525 0.975
8.925 24.525 0.525
7.275 29.475 0.675
7.275 22.275 1.425
9.075 25.125 0.825
9.075 25.125 1.425
9.075 25.125 0.525
9.075 25.125 -0.375
9.075 25.125 -0.075
9.075 26.625 0.525
5.475 21.525 1.275
6.825 21.975 0.975
6.825 21.975 0.375
6.825 21.975 1.275
8.625 23.775 0.975
8.625 23.775 -0.225
8.775 24.075 3.525
8.775 24.075 -0.225
8.775 24.075 0.975
8.775 24.075 0.075
6.525 21.825 0.825
6.525 21.825 1.125
8.775 27.675 0.075
8.775 27.675 0.525
8.775 27.675 -0.075
6.525 29.925 1.275
9.075 24.975 0.675
9.075 24.975 0.075
9.075 24.975 0.825
9.075 24.975 2.625
9.075 24.975 2.475
9.075 26.775 0.375
8.475 23.475 0.075
8.475 23.475 0.975
6.225 21.675 0.975
7.725 22.575 0.075
7.725 22.575 -0.675
7.725 22.575 -0.525
7.725 22.575 0.375
7.725 22.575 -0.375
7.725 29.175 3.375
8.025 22.875 1.275
8.025 22.875 0.675
8.025 22.875 -0.375
8.025 22.875 0.525
8.925 27.375 -0.975
8.925 27.375 0.375
8.925 24.375 -0.225
8.925 24.375 0.825
8.925 24.375 3.525
8.925 24.375 0.675
9.075 24.825 0.825
9.075 24.825 0.675
9.075 24.825 0.225
9.075 26.925 0.525
7.575 22.425 0.225
9.075 24.825 -0.075
8.175 23.025 0.825
8.775 23.925 -0.225
8.775 23.925 0.825
8.775 23.925 0.225
8.775 23.925 -0.075
6.675 21.825 0.825
6.675 21.825 0.075
8.325 23.175 0.225
8.325 23.175 1.125
8.325 23.175 0.975
9.225 25.875 0.825
4.725 21.375 1.275
6.975 21.975 1.125
8.625 23.625 0.225
8.625 23.625 1.425
8.625 23.625 0.975
8.625 23.625 0.825
8.625 23.625 -0.075
8.625 23.625 -0.225
9.225 26.025 0.225
9.225 25.725 0.375
9.225 25.725 0.975
9.225 25.725 1.275
4.575 21.375 1.875
4.875 21.375 1.875
4.875 21.375 0.375
9.225 25.575 -0.075
9.225 25.575 0.825
9.225 25.575 0.675
9.225 25.575 1.125
5.025 21.375 1.725
5.025 21.375 1.425
5.025 21.375 1.125
5.025 21.375 1.575
5.025 21.375 1.275
5.025 21.375 0.675
4.425 21.375 -0.375
3.075 21.675 0.525
9.075 24.675 0.525
9.075 24.675 -0.225
9.075 24.675 0.825
9.075 24.675 0.675
6.375 21.675 0.975
6.375 21.675 0.675
6.375 21.675 1.275
9.075 27.075 -0.075
9.075 27.075 2.325
9.075 27.075 1.275
8.925 24.225 0.975
8.925 24.225 0.075
8.925 24.225 0.225
5.925 21.525 0.525
9.225 25.425 0.825
9.225 25.425 2.175
9.225 25.425 0.075
5.175 21.375 0.825
5.175 21.375 1.725
5.175 21.375 0.975
5.175 21.375 0.525
9.225 26.325 0.825
8.475 23.325 0.975
7.275 22.125 0.225
8.475 28.425 0.525
5.325 21.375 0.975
5.325 21.375 1.125
4.125 21.375 1.575
9.225 25.275 2.325
9.225 25.275 0.825
9.225 25.275 0.375
9.075 24.525 -0.225
9.075 24.525 0.825
9.075 24.525 -0.075
9.075 24.525 0.675
9.075 24.525 0.225
9.075 24.525 -0.375
9.075 24.525 1.875
3.375 21.525 1.125
6.075 21.525 0.975
6.075 21.525 0.825
8.025 29.025 4.125
8.025 29.025 0.075
8.025 22.725 0.975
8.025 22.725 0.675
8.025 22.725 -0.375
8.025 22.725 -0.675
9.225 25.125 0.075
9.225 25.125 1.725
9.225 25.125 0.225
7.875 22.575 0.075
7.875 22.575 -1.125
7.875 22.575 0.375
6.825 21.825 0.525
6.825 21.825 0.975
7.875 29.175 3.975
7.875 29.175 1.275
8.775 23.775 0.975
8.775 23.775 0.075
8.775 23.775 -0.225
6.525 21.675 0.375
8.925 27.675 0.375
8.925 24.075 0.825
8.925 24.075 0.225
8.925 24.075 3.375
8.925 24.075 0.975
8.925 24.075 -0.375
8.925 24.075 -0.225
7.725 22.425 0.225
7.725 22.425 -0.225
7.725 22.425 -0.375
7.725 22.425 -0.975
7.725 29.325 3.375
7.725 29.325 1.425
8.175 22.875 1.425
7.125 21.975 0.225
8.625 28.275 0.675
8.625 28.275 0.225
8.625 23.475 -0.075
8.625 23.475 -1.875
8.625 23.475 1.125
8.625 23.475 0.075
8.625 23.475 0.975
9.225 24.975 0.375
9.225 24.975 1.275
9.225 24.975 0.825
9.225 26.775 1.575
3.825 21.375 -0.675
8.325 23.025 0.975
8.325 23.025 0.075
7.575 22.275 0.225
7.575 22.275 -0.225
7.575 29.475 1.425
9.075 24.375 2.025
9.075 24.375 0.975
9.075 24.375 0.825
9.075 24.375 0.525
9.075 24.375 0.075
9.075 27.375 0.975
9.075 27.375 0.675
6.225 21.525 1.275
6.225 21.525 0.975
6.225 21.525 0.225
8.475 23.175 0.225
8.475 23.175 -0.225
8.475 23.175 0.975
8.475 23.175 0.825
7.425 29.625 0.675
3.675 21.375 1.275
9.225 24.825 -0.525
9.225 24.825 -0.375
9.225 24.825 0.375
9.225 24.825 0.525
9.225 24.825 0.075
9.225 24.825 0.825
9.225 26.925 2.025
6.675 21.675 0.975
6.675 21.675 0.525
6.675 21.675 1.275
6.675 21.675 0.225
6.675 21.675 1.125
6.675 21.675 -2.625
8.925 23.925 0.675
8.925 23.925 0.975
8.925 27.825 0.525
8.775 23.625 0.825
6.975 21.825 0.675
6.975 21.825 0.825
9.375 25.875 0.975
9.375 25.875 0.075
4.875 21.225 1.125
9.075 24.225 0.825
9.075 24.225 -0.075
9.075 24.225 0.225
9.075 24.225 0.975
9.075 27.525 0.525
9.075 27.525 0.225
9.375 25.725 1.125
9.375 26.025 0.975
9.375 26.025 0.225
6.375 21.525 -2.625
6.375 21.525 1.125
6.375 30.225 0.375
9.225 24.675 1.875
9.225 24.675 1.275
9.225 24.675 0.675
9.225 24.675 -0.225
9.225 24.675 0.075
9.225 24.675 0.825
9.225 27.075 0.525
3.525 21.375 1.875
5.925 21.375 0.675
5.025 21.225 1.425
5.025 21.225 0.675
5.025 21.225 1.275
5.025 21.225 -0.225
7.275 29.775 0.525
9.375 25.575 0.675
9.375 25.575 0.225
9.375 25.575 0.075
8.625 23.325 0.525
8.625 23.325 1.725
8.625 23.325 0.825
8.625 23.325 0.975
8.025 22.575 -0.825
8.025 22.575 1.275
8.025 22.575 0.225
8.025 22.575 -0.075
8.025 22.575 -0.225
8.025 22.575 0.525
8.025 29.175 1.275
5.175 21.225 1.275
5.175 21.225 1.425
5.175 21.225 0.825
4.275 21.225 0.825
7.875 22.425 -0.675
7.875 22.425 0.375
8.175 22.725 -0.675
8.175 22.725 0.975
8.175 22.725 0.075
7.875 29.325 1.425
9.375 25.425 0.825
9.375 25.425 0.525
9.375 25.425 0.675
8.325 22.875 0.225
8.325 22.875 -0.075
7.725 22.275 -0.075
4.125 21.225 1.425
5.325 21.225 1.125
5.325 21.225 0.975
5.325 21.225 1.425
5.325 21.225 1.725
9.375 25.275 0.525
9.375 25.275 0.825
9.375 25.275 0.975
9.375 25.275 0.675
9.375 25.275 0.225
9.375 26.475 1.125
6.825 21.675 -2.475
6.825 21.675 1.125
8.925 23.775 -1.125
8.925 23.775 3.675
8.925 23.775 0.975
8.925 23.775 0.825
8.925 27.975 0.825
3.375 21.375 1.125
6.075 21.375 0.375
6.075 21.375 0.825
9.225 24.525 0.375
9.225 24.525 0.825
9.225 24.525 0.075
9.225 27.225 0.675
9.225 27.225 -0.075
9.075 24.075 0.825
9.075 24.075 0.075
9.075 24.075 0.975
9.075 27.675 0.975
8.775 23.475 0.975
8.775 23.475 -0.075
7.125 21.825 0.375
7.125 21.825 0.075
6.525 21.525 1.575
6.525 21.525 1.125
6.525 21.525 0.975
6.525 21.525 1.425
6.525 21.525 0.825
5.475 21.225 1.425
5.475 21.225 1.125
9.375 25.125 -0.075
9.375 25.125 0.075
9.375 25.125 0.675
9.375 25.125 0.825
9.375 26.625 -0.525
8.475 23.025 0.825
8.475 23.025 0.525
8.475 23.025 -0.225
8.475 23.025 0.225
9.375 24.975 0.225
9.375 24.975 -0.075
9.375 24.975 0.675
9.375 24.975 0.525
9.375 24.975 1.575
9.375 24.975 0.975
9.375 24.975 0.375
7.425 21.975 0.525
9.225 24.375 0.525
9.225 24.375 0.375
9.225 24.375 -0.075
9.225 24.375 -0.825
9.225 24.375 1.875
8.625 23.175 0.975
6.225 21.375 0.825
6.225 21.375 0.975
6.975 21.675 1.125
6.975 21.675 1.275
6.975 21.675 0.975
6.975 21.675 0.825
6.975 21.675 0.375
8.925 23.625 -0.225
8.925 23.625 0.975
5.775 21.225 1.425
5.775 30.525 1.725
5.775 21.225 0.975
5.775 21.225 0.825
5.775 21.225 1.275
9.075 23.925 -0.225
9.075 23.925 -0.375
9.075 23.925 0.975
9.075 23.925 0.825
9.075 23.925 0.075
9.075 23.925 1.725
9.075 23.925 2.025
9.075 23.925 -0.075
9.075 27.825 -0.225
9.075 27.825 0.225
9.375 24.825 -0.225
9.375 24.825 0.075
9.375 24.825 0.825
9.375 24.825 0.525
9.375 24.825 -0.075
9.375 24.825 1.575
9.375 26.925 0.375
9.375 24.825 -0.525
6.675 21.525 1.125
6.675 21.525 0.375
6.675 21.525 -0.375
6.675 21.525 1.275
6.675 21.525 0.525
8.025 29.325 0.525
8.025 29.325 1.275
8.025 22.425 1.425
8.025 22.425 -0.975
8.025 22.425 0.675
8.025 22.425 0.975
8.025 22.425 -0.075
8.025 22.425 0.375
8.175 22.575 1.575
8.175 22.575 1.425
8.175 22.575 0.075
8.175 22.575 1.125
8.175 22.575 -0.075
8.175 29.175 0.525
8.325 22.725 0.825
8.325 22.725 0.375
8.325 29.025 0.075
7.875 22.275 0.075
8.775 23.325 0.975
8.775 23.325 1.875
8.775 23.325 -0.075
7.275 21.825 0.825
9.225 27.525 0.675
9.225 27.525 0.075
9.225 24.225 0.975
9.225 24.225 0.375
9.225 24.225 0.825
9.225 24.225 1.875
6.375 21.375 1.125
6.375 21.375 1.275
6.375 21.375 1.575
6.375 21.375 0.825
6.375 21.375 0.975
6.375 30.375 0.525
4.725 21.075 0.975
3.525 21.225 1.275
3.525 21.225 1.425
3.525 21.225 0.975
3.525 21.225 1.125
5.925 21.225 0.825
9.375 24.675 1.275
9.375 24.675 1.725
9.375 24.675 1.875
9.375 24.675 0.375
8.475 22.875 0.825
8.475 22.875 -0.225
8.475 22.875 0.675
7.725 22.125 -0.225
7.725 22.125 -2.325
7.725 22.125 0.225
7.725 22.125 0.375
7.725 22.125 0.975
9.375 24.675 -0.975
9.375 24.675 0.225
9.375 24.675 0.825
9.375 24.675 -0.375
7.725 29.625 0.075
9.525 25.725 -0.225
4.875 21.075 -1.875
4.575 21.075 1.575
9.525 25.725 0.075
9.525 25.575 0.975
9.525 25.575 1.875
5.025 21.075 1.425
5.025 21.075 0.975
5.025 21.075 1.575
5.025 21.075 0.225
9.525 25.425 0.225
9.525 25.425 -0.375
9.525 26.325 0.975
5.175 21.075 1.425
5.175 21.075 0.825
5.175 21.075 1.125
9.525 25.425 0.075
7.575 21.975 -0.225
7.575 21.975 0.675
7.575 21.975 -0.075
7.575 21.975 2.325
9.075 23.775 -0.075
9.075 23.775 -0.375
9.075 23.775 -0.825
9.075 23.775 2.025
9.075 23.775 0.075
9.075 23.775 0.975
8.625 23.025 1.425
8.625 23.025 2.325
8.625 23.025 -0.375
8.625 23.025 0.975
6.825 21.525 0.825
6.825 21.525 0.975
6.825 21.525 0.525
7.125 21.675 1.725
7.125 21.675 0.675
7.125 21.675 -0.375
7.125 21.675 0.225
8.925 23.475 0.675
8.925 23.475 0.825
8.925 23.475 0.075
8.925 23.475 0.975
5.325 21.075 1.575
9.525 25.275 0.225
9.525 26.475 0.975
9.525 25.275 0.075
9.525 25.275 0.825
9.525 25.275 -0.075
9.525 25.275 1.875
9.525 25.275 -0.525
9.525 25.275 1.725
6.075 21.225 0.675
6.075 21.225 0.975
6.075 21.225 1.275
6.075 21.225 -2.325
9.375 24.525 0.975
9.375 24.525 0.825
9.375 24.525 0.225
9.375 24.525 -0.525
9.375 24.525 0.375
9.375 24.525 -0.225
9.375 24.525 -0.075
9.375 24.525 -0.675
9.375 24.525 0.075
9.375 24.525 1.875
9.375 27.225 -0.675
9.375 27.225 0.225
2.925 21.375 0.975
9.225 27.675 0.825
9.225 27.675 -0.825
9.225 27.675 0.225
9.225 24.075 1.875
9.225 24.075 -0.225
9.225 24.075 0.825
9.225 24.075 0.075
9.225 24.075 3.525
9.225 24.075 0.675
9.225 27.675 0.375
6.525 21.375 0.375
6.525 21.375 0.525
9.225 24.075 0.975
9.525 25.125 0.825
5.475 21.075 1.725
5.475 21.075 1.275
9.525 25.125 1.725
9.525 25.125 0.675
9.525 25.125 0.375
9.525 25.125 0.225
9.525 25.125 -0.225
9.525 25.125 0.075
8.775 23.175 2.025
8.775 23.175 0.975
8.775 23.175 0.075
7.425 21.825 -0.075
8.175 29.325 0.825
8.175 29.325 1.425
8.175 22.425 0.075
8.325 22.575 0.825
8.325 22.575 0.975
9.525 24.975 -0.675
9.525 24.975 -0.075
9.525 24.975 0.825
9.525 24.975 0.675
9.525 24.975 0.075
9.525 24.975 1.875
9.525 24.975 0.225
9.525 26.775 -0.225
8.025 22.275 -0.075
8.025 22.275 1.125
8.025 22.275 -1.275
6.225 21.225 1.275
3.225 21.225 0.975
6.225 21.225 0.975
6.225 21.225 1.575
6.225 21.225 0.675
9.375 24.375 -0.225
9.375 24.375 0.825
9.375 24.375 0.675
9.375 24.375 1.425
9.375 24.375 1.575
9.375 27.375 1.275
9.375 27.375 2.175
9.375 24.375 -0.075
9.375 24.375 0.375
9.375 24.375 0.075
8.475 22.725 -0.075
8.475 22.725 0.225
8.475 22.725 0.675
8.475 22.725 0.075
8.475 22.725 -0.975
9.075 23.625 -0.075
9.075 23.625 -0.225
9.075 23.625 0.975
9.075 23.625 2.025
9.075 23.625 0.525
7.875 22.125 0.075
7.875 22.125 0.675
6.975 21.525 0.825
6.975 21.525 1.125
6.975 21.525 0.975
9.225 27.825 0.525
9.225 27.825 -0.075
9.225 23.925 2.025
9.225 23.925 0.825
9.225 23.925 -0.375
9.225 23.925 -0.225
9.225 23.925 0.075
6.675 21.375 1.125
6.675 21.375 0.675
6.675 21.375 0.825
6.675 21.375 1.275
6.675 30.375 1.125
7.275 21.675 0.675
7.275 21.675 0.375
7.275 21.675 0.075
5.775 21.075 0.375
5.775 21.075 0.675
5.775 21.075 1.125
5.775 30.675 1.575
9.525 24.825 0.375
9.525 24.825 1.425
9.525 24.825 0.675
9.525 24.825 0.225
9.525 24.825 1.725
