# .PCD v0.7 - Point Cloud Data file format
VERSION 0.7
FIELDS x y z
SIZE 4 4 4
TYPE F F F
COUNT 1 1 1
WIDTH 2048
HEIGHT 1
VIEWPOINT 0 0 0 1 0 0 0
POINTS 2048
DATA ascii
17.025 6.675 1.575
16.125 6.825 1.575
15.975 6.825 -1.425
16.275 6.675 0.375
16.425 6.525 3.525
15.825 6.675 -0.975
16.125 6.375 0.225
18.075 6.375 1.125
18.375 6.525 3.975
15.225 6.825 2.325
15.525 6.525 -0.075
15.825 6.225 -0.825
15.375 6.225 0.375
15.675 5.925 4.575
18.675 6.075 0.375
14.625 6.675 1.275
14.925 6.225 0.825
18.525 5.775 0.225
14.025 7.275 2.625
14.625 6.375 -0.375
18.525 5.625 0.825
14.625 6.225 4.425
13.725 7.725 0.975
14.325 6.225 -0.075
15.525 5.175 3.525
16.575 4.875 -3.375
19.575 5.775 2.475
20.775 7.425 0.975
20.475 6.675 -0.525
20.625 6.675 2.325
20.625 6.525 0.525
16.725 4.425 0.975
21.075 7.425 0.825
21.075 7.275 0.075
21.075 7.275 1.275
21.075 7.275 2.025
21.075 7.125 0.075
21.225 7.575 0.825
21.225 7.575 0.975
21.225 7.575 1.425
16.875 4.275 -2.925
20.925 6.675 2.925
20.925 6.675 -1.275
21.225 7.425 0.975
21.075 6.975 -0.375
16.425 4.275 -2.625
21.375 8.025 0.975
21.225 7.275 0.975
17.775 4.275 -3.075
21.375 7.725 0.975
20.775 6.225 -1.275
21.225 7.125 0.525
21.375 7.575 0.975
21.375 7.575 1.125
17.025 4.125 -1.125
17.325 4.125 -0.375
21.375 7.425 1.575
21.375 7.425 1.725
21.375 7.425 0.825
21.225 6.975 0.075
21.225 6.975 0.225
21.375 7.275 1.875
21.525 7.725 1.425
17.925 4.125 -1.275
21.525 7.725 0.525
21.525 7.725 1.575
21.375 7.125 -0.375
21.525 7.575 1.725
21.525 7.575 1.275
21.525 7.575 1.425
21.525 7.575 0.975
15.075 4.425 -3.075
21.375 6.975 0.225
21.525 7.425 1.725
21.525 7.425 0.975
21.525 7.425 1.125
21.525 7.425 0.675
16.575 3.975 0.225
21.525 7.275 0.825
21.525 7.275 0.675
21.525 7.275 0.975
21.525 7.275 1.575
21.525 7.275 0.375
21.675 7.725 1.125
21.525 7.125 -0.075
21.525 7.125 0.825
21.525 7.125 0.675
21.525 7.125 0.525
21.525 7.125 0.975
19.275 4.425 5.775
21.375 6.675 -0.825
21.675 7.575 0.975
21.675 7.575 0.675
21.675 7.575 1.125
21.675 7.575 1.425
21.075 6.075 0.075
21.525 6.975 0.525
21.525 6.975 -0.225
21.675 7.425 1.125
21.675 7.425 0.525
21.675 7.425 1.425
21.675 7.425 0.975
16.725 3.825 -0.225
21.675 7.275 0.675
21.675 7.275 0.825
21.675 7.275 0.975
21.525 6.825 -0.075
17.925 3.825 -0.675
21.675 7.125 0.825
21.675 7.125 0.675
21.675 7.125 1.125
21.675 7.125 0.975
12.675 6.375 2.325
15.375 3.975 -2.625
21.675 6.975 0.225
12.525 6.525 1.575
21.375 6.225 -1.275
16.425 3.675 -2.475
21.825 7.275 1.275
18.375 3.825 0.525
21.825 7.275 0.975
13.125 5.475 1.575
21.825 7.125 0.975
21.825 7.125 0.825
21.825 7.125 1.575
12.525 6.375 0.225
17.925 3.675 -1.725
14.475 4.275 -2.175
14.475 4.275 -0.075
18.075 3.675 -0.225
18.675 3.825 -3.675
18.225 3.675 0.375
21.975 7.425 0.675
21.975 7.425 1.575
13.575 4.875 -4.875
19.425 4.125 -2.625
19.125 3.975 -2.775
13.725 4.725 0.075
21.825 6.825 -0.225
21.825 6.825 1.425
15.675 3.675 -0.225
15.675 3.675 -0.525
21.975 7.275 0.825
16.275 3.525 0.525
14.025 4.425 -0.675
14.475 4.125 -3.225
21.975 7.125 1.275
21.975 7.125 1.125
12.225 6.675 0.825
15.075 3.825 -2.025
13.425 4.875 -0.375
14.175 4.275 -0.975
13.575 4.725 0.525
18.075 3.525 -1.425
21.975 6.975 1.725
21.975 6.975 0.225
13.725 4.575 0.525
14.625 3.975 -0.525
14.625 3.975 -0.825
18.225 3.525 -0.375
21.525 5.925 -0.825
17.475 3.375 -0.525
15.675 3.525 0.525
18.375 3.525 0.525
18.375 3.525 -0.375
14.475 3.975 0.225
16.275 3.375 -0.075
22.125 7.125 1.725
22.125 7.125 1.575
15.075 3.675 -0.975
21.975 6.675 3.075
21.975 6.675 -0.825
17.925 3.375 0.375
17.925 3.375 -0.375
18.075 3.375 -0.225
18.075 3.375 -0.075
22.125 6.975 1.425
22.125 6.975 0.525
17.025 3.225 1.275
17.025 3.225 -1.725
16.875 3.225 0.525
17.175 3.225 -1.425
22.125 6.825 1.575
22.125 6.825 0.675
13.125 4.875 -0.375
13.425 4.575 0.225
12.975 5.025 -0.525
17.475 3.225 0.825
15.675 3.375 0.975
22.275 7.275 1.275
16.425 3.225 -0.525
13.575 4.425 0.075
16.275 3.225 -0.225
15.525 3.375 0.075
15.075 3.525 -0.375
18.525 3.375 -0.675
22.275 7.125 -0.525
18.975 3.525 0.075
18.975 3.525 0.675
22.125 6.675 -2.175
16.125 3.225 0.225
13.875 4.125 0.075
15.975 3.225 0.975
15.975 3.225 -0.375
18.075 3.225 1.425
15.375 3.375 -0.825
15.375 3.375 -0.375
15.375 3.375 0.375
22.275 6.975 0.975
18.675 3.375 0.375
13.125 4.725 -0.375
13.125 4.725 -0.825
13.125 4.725 -0.075
13.275 4.575 0.225
13.275 4.575 -0.375
15.825 3.225 0.225
15.825 3.225 0.075
18.225 3.225 0.975
18.225 3.225 0.225
15.225 3.375 0.225
17.025 3.075 -0.375
17.025 3.075 0.525
18.825 3.375 0.225
18.825 3.375 0.075
16.875 3.075 1.125
16.875 3.075 -1.725
17.175 3.075 0.075
17.325 3.075 -0.825
17.325 3.075 1.875
15.675 3.225 0.525
18.375 3.225 -0.375
16.575 3.075 -0.975
16.575 3.075 0.375
17.475 3.075 0.525
14.775 3.525 -0.225
19.275 3.525 2.025
16.425 3.075 -0.225
17.625 3.075 -0.225
17.775 3.075 -0.975
15.075 3.375 0.825
18.975 3.375 -0.225
15.525 3.225 0.825
18.525 3.225 0.675
18.525 3.225 -0.525
13.125 4.575 -0.525
16.125 3.075 -0.825
17.925 3.075 0.675
13.275 4.425 -0.375
13.425 4.275 -1.125
13.425 4.275 -0.375
15.375 3.225 0.075
18.675 3.225 -0.375
15.975 3.075 0.375
15.975 3.075 0.525
18.075 3.075 -0.525
22.275 6.525 -0.225
19.125 3.375 0.825
19.125 3.375 0.225
19.125 3.375 0.675
20.025 3.825 -2.175
15.825 3.075 -0.825
15.825 3.075 0.375
15.825 3.075 0.225
15.825 3.075 0.075
18.225 3.075 0.075
18.825 3.225 -0.075
18.825 3.225 1.275
18.825 3.225 -0.375
17.025 2.925 0.225
17.025 2.925 0.675
19.575 3.525 -2.475
16.875 2.925 0.675
17.175 2.925 0.675
17.175 2.925 0.525
16.875 2.925 -0.375
17.175 2.925 0.975
17.175 2.925 0.825
17.175 2.925 0.375
16.875 2.925 0.075
16.725 2.925 -0.675
16.725 2.925 -0.075
16.725 2.925 -1.425
17.325 2.925 0.525
14.775 3.375 0.825
18.375 3.075 0.225
18.375 3.075 0.375
17.475 2.925 0.825
17.475 2.925 -0.525
17.475 2.925 0.075
16.425 2.925 -0.075
16.425 2.925 -0.975
15.075 3.225 1.125
18.975 3.225 0.225
18.975 3.225 -0.375
13.275 4.275 -1.125
18.525 3.075 1.575
15.525 3.075 0.075
17.775 2.925 0.225
17.775 2.925 -1.125
16.275 2.925 -0.375
17.775 2.925 0.675
16.275 2.925 -0.525
13.425 4.125 -0.225
20.625 4.125 -1.425
16.125 2.925 0.375
16.125 2.925 -0.675
16.125 2.925 0.525
16.125 2.925 -1.425
17.925 2.925 -0.225
14.625 3.375 -0.225
14.625 3.375 0.525
15.375 3.075 -0.675
14.925 3.225 -0.375
14.925 3.225 1.275
19.125 3.225 0.225
18.075 2.925 1.575
15.975 2.925 -0.375
18.075 2.925 -0.225
18.075 2.925 -1.275
18.075 2.925 0.675
18.075 2.925 1.275
12.225 5.325 0.825
15.825 2.925 2.325
15.825 2.925 0.225
15.825 2.925 0.825
15.825 2.925 -0.225
18.225 2.925 -0.375
18.825 3.075 -1.275
18.825 3.075 0.225
18.825 3.075 0.675
18.825 3.075 -0.075
22.575 6.825 1.425
19.575 3.375 0.075
11.925 5.775 1.425
12.675 4.725 -0.825
19.875 3.525 0.375
17.025 2.775 0.975
17.025 2.775 0.675
17.025 2.775 -0.525
17.025 2.775 0.525
14.775 3.225 0.975
17.025 2.775 0.225
17.175 2.775 0.675
16.875 2.775 0.675
16.875 2.775 0.525
17.175 2.775 -0.975
16.875 2.775 -0.375
17.175 2.775 0.825
13.275 4.125 -0.075
16.725 2.775 0.825
16.725 2.775 0.675
17.325 2.775 0.675
17.325 2.775 0.075
17.325 2.775 0.525
17.325 2.775 -0.975
17.325 2.775 -0.225
17.325 2.775 0.825
18.375 2.925 0.525
18.375 2.925 -0.225
18.375 2.925 -0.075
17.475 2.775 -0.225
16.575 2.775 0.375
16.575 2.775 -0.375
17.475 2.775 0.525
16.575 2.775 0.225
13.425 3.975 0.675
17.625 2.775 -0.375
17.625 2.775 0.675
16.425 2.775 0.675
17.625 2.775 -0.225
16.425 2.775 0.825
18.975 3.075 0.075
18.975 3.075 -0.225
15.525 2.925 0.375
15.525 2.925 -0.225
15.525 2.925 0.075
18.525 2.925 0.075
18.525 2.925 -0.525
16.275 2.775 0.675
17.775 2.775 0.225
16.275 2.775 -0.375
17.775 2.775 0.825
17.775 2.775 0.675
14.625 3.225 -0.075
14.625 3.225 -0.225
20.025 3.525 0.975
20.025 3.525 0.825
16.125 2.775 0.525
16.125 2.775 0.675
17.925 2.775 0.375
17.925 2.775 0.525
17.925 2.775 0.675
14.925 3.075 1.575
14.925 3.075 0.675
15.375 2.925 0.975
19.125 3.075 -0.375
19.125 3.075 0.225
18.675 2.925 -0.375
19.125 3.075 -0.225
18.675 2.925 0.675
19.125 3.075 0.075
19.125 3.075 -0.975
18.075 2.775 -0.225
15.975 2.775 -0.075
15.975 2.775 -0.375
15.975 2.775 1.125
18.075 2.775 0.675
15.975 2.775 0.675
18.075 2.775 -0.675
12.075 5.325 0.825
13.725 3.675 -0.375
15.825 2.775 0.675
15.825 2.775 1.425
18.225 2.775 1.425
18.225 2.775 0.525
18.225 2.775 0.825
18.225 2.775 -0.975
19.575 3.225 -0.825
14.175 3.375 0.225
21.675 4.875 -3.975
15.225 2.925 -2.025
15.225 2.925 0.525
18.825 2.925 0.525
18.825 2.925 0.675
18.825 2.925 -0.975
14.775 3.075 0.225
14.775 3.075 0.675
19.275 3.075 -0.375
19.275 3.075 -0.675
13.875 3.525 0.375
17.025 2.625 0.525
17.025 2.625 0.675
17.025 2.625 -1.425
17.025 2.625 -0.075
17.175 2.625 -0.375
17.175 2.625 0.825
16.875 2.625 0.675
17.175 2.625 0.675
16.875 2.625 1.125
16.875 2.625 0.825
16.875 2.625 2.475
17.175 2.625 0.525
16.875 2.625 0.225
15.675 2.775 -1.125
15.675 2.775 2.175
15.675 2.775 0.825
15.675 2.775 -1.275
15.675 2.775 -0.375
18.375 2.775 0.525
16.725 2.625 0.825
16.725 2.625 0.675
17.325 2.625 0.525
17.325 2.625 0.075
17.325 2.625 -0.075
16.575 2.625 0.525
18.975 2.925 0.525
18.975 2.925 -0.075
18.975 2.925 -0.525
18.975 2.925 0.075
18.975 2.925 1.425
17.625 2.625 0.225
16.425 2.625 0.675
17.625 2.625 0.675
17.625 2.625 -0.375
17.625 2.625 0.375
13.575 3.675 -0.075
20.475 3.675 -1.875
14.325 3.225 0.225
14.325 3.225 -0.075
19.725 3.225 -0.525
19.725 3.225 -0.675
15.525 2.775 0.825
15.525 2.775 0.675
15.525 2.775 0.225
15.525 2.775 0.525
18.525 2.775 -0.375
18.525 2.775 -1.125
18.525 2.775 0.225
18.525 2.775 0.675
18.525 2.775 0.525
17.775 2.625 -0.675
16.275 2.625 0.675
16.275 2.625 0.225
16.275 2.625 -0.375
16.275 2.625 0.525
16.275 2.625 -0.225
19.425 3.075 0.825
21.075 4.125 -3.225
16.125 2.625 -0.525
16.125 2.625 0.525
16.125 2.625 0.675
17.925 2.625 0.675
13.125 3.975 -0.825
14.925 2.925 0.075
13.725 3.525 -0.225
14.925 2.925 -0.225
13.725 3.525 -0.075
19.125 2.925 -1.125
19.125 2.925 -0.525
19.125 2.925 0.675
15.375 2.775 -0.675
15.375 2.775 0.675
18.675 2.775 0.075
18.675 2.775 -0.825
18.675 2.775 0.375
18.675 2.775 0.675
18.675 2.775 0.525
18.675 2.775 1.275
13.275 3.825 -0.375
12.225 4.875 -1.275
15.975 2.625 -0.075
15.975 2.625 -1.125
15.975 2.625 0.675
18.075 2.625 -0.225
14.175 3.225 -0.225
14.175 3.225 0.675
14.175 3.225 0.225
14.175 3.225 -0.075
14.175 3.225 0.375
14.475 3.075 0.075
14.475 3.075 0.525
14.475 3.075 -0.375
19.575 3.075 -0.525
19.575 3.075 -0.825
15.825 2.625 -0.225
15.825 2.625 0.675
18.225 2.625 0.525
18.225 2.625 -0.225
18.225 2.625 0.675
13.425 3.675 -0.675
12.075 5.025 1.275
18.825 2.775 0.525
18.825 2.775 0.075
18.825 2.775 -0.225
20.175 3.375 0.225
14.775 2.925 1.125
14.775 2.925 2.175
19.275 2.925 -0.675
19.275 2.925 -0.225
19.275 2.925 0.675
19.275 2.925 0.525
15.675 2.625 0.525
15.675 2.625 -0.075
18.375 2.625 0.675
17.025 2.475 0.675
17.025 2.475 -0.225
17.025 2.475 -0.675
17.025 2.475 1.425
17.175 2.475 0.075
17.175 2.475 -0.375
17.175 2.475 -0.075
16.875 2.475 0.525
17.175 2.475 0.525
17.175 2.475 0.675
16.875 2.475 0.675
16.875 2.475 -2.025
17.175 2.475 -0.225
12.825 4.125 6.825
21.525 4.425 -0.675
21.525 4.425 1.275
11.925 5.175 0.825
16.725 2.475 0.375
16.725 2.475 -0.525
16.725 2.475 0.675
16.725 2.475 0.225
17.325 2.475 0.675
17.325 2.475 -0.225
15.075 2.775 0.825
15.075 2.775 0.225
17.475 2.475 0.525
17.475 2.475 1.725
16.575 2.475 -0.675
16.575 2.475 0.675
16.575 2.475 -0.375
18.975 2.775 0.375
18.975 2.775 0.525
18.975 2.775 -0.675
17.475 2.475 0.675
16.575 2.475 0.525
14.325 3.075 0.525
14.325 3.075 0.075
14.325 3.075 -0.825
14.325 3.075 -0.075
14.025 3.225 0.375
14.025 3.225 0.525
14.025 3.225 -1.425
14.025 3.225 -0.675
20.025 3.225 0.675
20.025 3.225 -0.075
16.425 2.475 -0.075
17.625 2.475 -0.375
17.625 2.475 0.975
17.625 2.475 -1.875
17.625 2.475 0.675
16.425 2.475 -0.975
16.425 2.475 0.675
16.425 2.475 0.525
14.625 2.925 2.325
14.625 2.925 -0.075
14.625 2.925 -0.675
15.525 2.625 0.525
15.525 2.625 -0.075
15.525 2.625 0.675
15.525 2.625 -0.375
15.525 2.625 0.075
18.525 2.625 0.675
18.525 2.625 1.725
18.525 2.625 0.525
18.525 2.625 -0.225
19.425 2.925 -0.075
19.425 2.925 -0.525
19.425 2.925 0.525
16.275 2.475 -0.525
16.275 2.475 0.675
16.275 2.475 -0.375
17.775 2.475 -0.075
16.275 2.475 0.525
16.275 2.475 -0.075
17.775 2.475 0.675
16.275 2.475 -0.825
17.775 2.475 0.525
13.725 3.375 0.075
20.325 3.375 0.075
20.325 3.375 -1.725
14.925 2.775 0.075
16.125 2.475 -0.675
16.125 2.475 0.525
16.125 2.475 0.675
19.125 2.775 -0.525
19.125 2.775 0.675
17.925 2.475 0.525
17.925 2.475 0.675
17.925 2.475 -0.525
15.375 2.625 0.375
15.375 2.625 0.525
18.675 2.625 0.525
14.175 3.075 0.225
14.175 3.075 -0.525
14.175 3.075 -0.975
15.975 2.475 -0.375
15.975 2.475 2.475
18.075 2.475 0.675
18.075 2.475 -0.375
18.075 2.475 -1.575
18.075 2.475 0.525
15.975 2.475 0.525
15.975 2.475 0.975
15.975 2.475 -1.275
19.875 3.075 -0.525
15.975 2.475 0.675
19.875 3.075 0.525
18.075 2.475 -0.225
13.425 3.525 -0.675
22.125 5.025 3.075
14.475 2.925 0.075
19.575 2.925 0.525
11.625 5.475 5.025
13.875 3.225 0.525
13.875 3.225 0.225
20.175 3.225 -0.075
21.525 4.275 -1.275
15.225 2.625 0.675
15.225 2.625 -0.375
15.225 2.625 0.525
15.225 2.625 0.075
18.825 2.625 0.825
18.825 2.625 1.125
15.825 2.475 0.525
15.825 2.475 0.675
18.225 2.475 -0.375
18.225 2.475 0.675
18.225 2.475 0.225
18.225 2.475 -0.075
18.225 2.475 0.525
18.225 2.475 -0.675
14.775 2.775 0.525
14.775 2.775 -1.125
14.775 2.775 1.125
14.775 2.775 0.675
14.775 2.775 -0.225
19.275 2.775 0.825
19.275 2.775 -0.225
19.275 2.775 -0.525
19.275 2.775 0.525
19.275 2.775 0.675
12.975 3.825 1.125
13.575 3.375 0.225
13.575 3.375 0.525
20.475 3.375 -0.975
15.675 2.475 -0.825
15.675 2.475 0.525
15.675 2.475 -0.225
15.675 2.475 -0.375
15.675 2.475 0.675
15.675 2.475 -0.675
18.375 2.475 0.075
18.375 2.475 -0.525
18.375 2.475 0.675
18.375 2.475 -0.825
18.375 2.475 0.525
18.375 2.475 -0.225
17.025 2.325 0.675
17.025 2.325 1.725
17.025 2.325 -0.375
17.025 2.325 -0.225
16.875 2.325 1.875
16.875 2.325 1.575
16.875 2.325 1.725
16.875 2.325 0.675
17.175 2.325 0.075
17.175 2.325 0.675
17.175 2.325 1.425
16.725 2.325 -0.075
16.725 2.325 0.675
16.725 2.325 -0.375
16.725 2.325 1.725
16.725 2.325 0.825
16.725 2.325 -0.225
16.725 2.325 1.575
16.725 2.325 1.875
17.325 2.325 -0.525
17.325 2.325 1.725
17.325 2.325 1.575
17.325 2.325 0.675
17.325 2.325 1.425
14.325 2.925 0.825
14.325 2.925 0.525
19.725 2.925 0.525
19.725 2.925 -0.525
19.725 2.925 0.075
19.725 2.925 -0.675
11.475 5.625 -0.075
14.025 3.075 -0.225
14.025 3.075 0.225
20.025 3.075 0.675
20.025 3.075 0.825
15.075 2.625 0.825
15.075 2.625 0.675
23.025 6.675 1.425
18.975 2.625 0.525
18.975 2.625 -0.675
17.475 2.325 -0.225
17.475 2.325 1.725
17.475 2.325 0.675
17.475 2.325 -0.675
16.575 2.325 1.725
16.575 2.325 1.575
16.575 2.325 -0.825
16.575 2.325 0.675
16.575 2.325 1.125
14.625 2.775 -0.525
14.625 2.775 -0.675
14.625 2.775 -0.075
14.625 2.775 1.125
19.425 2.775 0.525
19.425 2.775 1.275
19.425 2.775 0.375
17.625 2.325 -0.675
17.625 2.325 1.725
17.625 2.325 1.575
16.425 2.325 -0.825
16.425 2.325 0.225
16.425 2.325 -0.075
16.425 2.325 0.675
17.625 2.325 0.225
13.725 3.225 1.125
13.725 3.225 -0.225
17.625 2.325 -0.375
17.625 2.325 0.675
17.625 2.325 0.375
20.325 3.225 -0.075
20.325 3.225 0.825
20.325 3.225 -0.225
15.525 2.475 -0.075
15.525 2.475 2.025
15.525 2.475 0.225
15.525 2.475 0.525
15.525 2.475 -0.375
18.525 2.475 -0.975
18.525 2.475 -0.525
18.525 2.475 0.525
18.525 2.475 -1.275
18.525 2.475 -0.375
18.525 2.475 0.675
16.275 2.325 -0.675
17.775 2.325 2.925
17.775 2.325 -1.725
17.775 2.325 -0.525
17.775 2.325 0.675
17.775 2.325 1.725
17.775 2.325 0.075
17.775 2.325 0.375
17.775 2.325 -0.825
17.775 2.325 -0.375
17.775 2.325 -0.075
16.275 2.325 -0.075
16.275 2.325 1.875
16.275 2.325 0.675
16.275 2.325 -0.375
16.275 2.325 0.075
14.925 2.625 0.675
14.925 2.625 -0.225
14.925 2.625 0.375
14.925 2.625 -0.075
19.125 2.625 0.075
19.125 2.625 -1.575
19.125 2.625 0.525
19.125 2.625 -0.225
19.125 2.625 1.575
19.125 2.625 2.475
16.125 2.325 -0.375
16.125 2.325 -0.825
16.125 2.325 0.675
16.125 2.325 1.425
16.125 2.325 -0.075
16.125 2.325 -0.225
17.925 2.325 -0.525
17.925 2.325 0.675
17.925 2.325 -0.225
17.925 2.325 -0.075
20.625 3.375 -0.225
15.375 2.475 -0.075
15.375 2.475 2.025
15.375 2.475 0.525
15.375 2.475 0.675
15.375 2.475 1.425
15.375 2.475 -0.375
18.675 2.475 0.075
18.675 2.475 -0.675
18.675 2.475 1.575
18.675 2.475 0.525
18.675 2.475 0.675
14.175 2.925 -0.525
19.875 2.925 0.375
13.875 3.075 0.675
13.875 3.075 0.225
13.875 3.075 -0.375
14.475 2.775 0.675
14.475 2.775 -0.225
19.575 2.775 0.525
20.175 3.075 0.225
15.975 2.325 1.425
15.975 2.325 1.875
15.975 2.325 -0.075
15.975 2.325 1.725
15.975 2.325 -0.975
18.075 2.325 1.725
15.975 2.325 0.675
18.075 2.325 -0.825
18.075 2.325 -0.075
18.075 2.325 0.675
18.075 2.325 1.575
18.075 2.325 0.225
21.075 3.675 1.425
14.775 2.625 0.825
14.775 2.625 0.675
14.775 2.625 1.725
14.775 2.625 -0.225
14.775 2.625 -0.075
15.225 2.475 0.525
15.225 2.475 -0.375
15.225 2.475 0.825
19.275 2.625 0.525
19.275 2.625 0.375
19.275 2.625 -0.225
19.275 2.625 2.325
13.575 3.225 0.225
13.575 3.225 0.375
13.575 3.225 0.075
18.825 2.475 -0.525
18.825 2.475 0.525
18.825 2.475 0.675
20.475 3.225 0.075
20.475 3.225 0.975
20.475 3.225 -0.225
20.475 3.225 -0.375
15.825 2.325 0.375
15.825 2.325 -0.375
15.825 2.325 0.675
18.225 2.325 -0.525
18.225 2.325 0.975
18.225 2.325 3.075
18.225 2.325 0.675
18.225 2.325 1.425
18.225 2.325 -0.075
14.025 2.925 0.525
20.025 2.925 -0.075
20.025 2.925 -0.975
20.025 2.925 0.075
20.025 2.925 0.375
20.025 2.925 0.525
11.175 5.925 1.575
15.675 2.325 -0.525
15.675 2.325 0.675
15.675 2.325 1.575
14.325 2.775 2.775
14.325 2.775 -0.975
14.325 2.775 0.375
14.325 2.775 -0.375
14.325 2.775 0.675
18.375 2.325 2.325
18.375 2.325 -0.675
18.375 2.325 2.025
18.375 2.325 -0.075
18.375 2.325 1.575
18.375 2.325 0.525
18.375 2.325 0.675
19.725 2.775 0.525
19.725 2.775 0.675
19.725 2.775 0.825
17.025 2.175 0.675
17.025 2.175 1.425
17.025 2.175 1.125
17.025 2.175 1.275
13.275 3.375 1.275
16.875 2.175 1.125
16.875 2.175 0.225
17.175 2.175 0.675
20.775 3.375 0.075
20.775 3.375 -0.225
17.175 2.175 -0.675
17.175 2.175 1.275
17.175 2.175 1.425
20.775 3.375 -0.375
16.875 2.175 0.675
15.075 2.475 0.525
15.075 2.475 0.675
17.175 2.175 1.125
18.975 2.475 -0.675
18.975 2.475 0.675
18.975 2.475 0.375
18.975 2.475 0.975
16.725 2.175 1.125
16.725 2.175 0.675
16.725 2.175 1.725
16.725 2.175 0.075
16.725 2.175 -0.675
13.725 3.075 -0.675
13.725 3.075 0.525
17.325 2.175 -0.075
17.325 2.175 1.125
17.325 2.175 1.275
20.325 3.075 0.525
17.325 2.175 1.575
17.325 2.175 1.425
20.325 3.075 0.675
20.325 3.075 -0.075
20.325 3.075 -0.375
17.325 2.175 0.675
14.625 2.625 -0.825
14.625 2.625 -0.525
14.625 2.625 0.675
19.425 2.625 0.525
16.575 2.175 -0.075
17.475 2.175 1.125
17.475 2.175 -0.525
17.475 2.175 -0.975
16.575 2.175 -1.425
17.475 2.175 0.675
16.575 2.175 0.675
16.575 2.175 -0.375
16.575 2.175 1.425
17.475 2.175 -0.375
16.575 2.175 -0.525
15.525 2.325 0.675
15.525 2.325 1.875
15.525 2.325 -0.075
15.525 2.325 0.075
15.525 2.325 0.225
15.525 2.325 1.725
18.525 2.325 0.525
18.525 2.325 -0.525
18.525 2.325 1.575
18.525 2.325 -0.375
16.425 2.175 1.425
16.425 2.175 1.575
16.425 2.175 0.675
17.625 2.175 -0.075
17.625 2.175 1.125
17.625 2.175 -0.675
17.625 2.175 0.675
17.625 2.175 0.225
17.625 2.175 -0.525
17.625 2.175 -0.975
20.625 3.225 -0.375
16.275 2.175 1.725
17.775 2.175 1.125
17.775 2.175 1.425
17.775 2.175 -0.525
17.775 2.175 0.675
16.275 2.175 0.975
16.275 2.175 -0.375
16.275 2.175 1.425
16.275 2.175 -0.075
16.275 2.175 0.675
16.275 2.175 -0.525
14.925 2.475 -0.375
14.925 2.475 0.675
14.925 2.475 0.525
14.925 2.475 0.375
19.125 2.475 0.525
19.125 2.475 0.675
19.125 2.475 -0.225
19.125 2.475 -0.525
14.175 2.775 0.075
14.175 2.775 0.675
14.175 2.775 -0.375
14.175 2.775 1.575
14.175 2.775 0.225
19.875 2.775 0.525
19.875 2.775 -0.525
19.875 2.775 0.675
13.875 2.925 -0.225
12.975 3.525 1.875
16.125 2.175 -1.875
16.125 2.175 0.675
16.125 2.175 1.875
16.125 2.175 1.425
15.375 2.325 0.225
15.375 2.325 -0.675
15.375 2.325 1.725
15.375 2.325 0.675
15.375 2.325 2.025
15.375 2.325 -0.825
17.925 2.175 1.425
17.925 2.175 -0.075
17.925 2.175 0.675
18.675 2.325 1.725
18.675 2.325 0.525
18.675 2.325 1.425
18.675 2.325 0.225
18.675 2.325 -0.825
18.675 2.325 1.575
18.675 2.325 0.075
18.675 2.325 -0.675
21.075 3.525 -0.225
18.675 2.325 -0.375
20.175 2.925 0.675
14.475 2.625 -0.225
14.475 2.625 0.675
14.475 2.625 -0.075
14.475 2.625 0.825
14.475 2.625 -1.125
19.575 2.625 -1.275
19.575 2.625 2.175
19.575 2.625 0.675
19.575 2.625 0.525
19.575 2.625 -0.375
13.575 3.075 0.225
18.075 2.175 0.675
18.075 2.175 -0.525
18.075 2.175 0.075
18.075 2.175 -0.075
18.075 2.175 1.425
18.075 2.175 -0.825
18.075 2.175 1.125
15.975 2.175 1.725
15.975 2.175 2.025
15.975 2.175 0.675
15.975 2.175 1.575
15.975 2.175 -0.225
20.475 3.075 0.075
20.475 3.075 -1.125
20.925 3.375 -0.075
14.775 2.475 1.125
14.775 2.475 -0.075
14.775 2.475 0.075
14.775 2.475 2.175
14.775 2.475 -0.225
14.775 2.475 1.275
14.775 2.475 0.675
19.275 2.475 0.675
19.275 2.475 0.525
15.225 2.325 2.175
15.225 2.325 -0.825
15.225 2.325 0.675
15.225 2.325 -0.525
15.225 2.325 -0.225
15.225 2.325 -0.075
18.825 2.325 1.425
18.825 2.325 1.575
18.825 2.325 0.525
18.825 2.325 2.625
15.825 2.175 -0.525
15.825 2.175 0.675
15.825 2.175 0.225
15.825 2.175 0.075
15.825 2.175 -0.675
15.825 2.175 -0.825
15.825 2.175 -0.225
18.225 2.175 0.675
18.225 2.175 1.125
18.225 2.175 -0.525
18.225 2.175 1.425
18.225 2.175 -0.675
14.025 2.775 -0.675
14.025 2.775 0.525
14.025 2.775 2.325
20.025 2.775 0.375
20.025 2.775 0.675
20.025 2.775 0.525
20.025 2.775 0.975
20.775 3.225 1.275
14.325 2.625 1.725
14.325 2.625 -1.725
14.325 2.625 0.675
14.325 2.625 -0.225
19.725 2.625 0.525
13.725 2.925 0.375
13.725 2.925 -0.675
13.725 2.925 0.225
13.725 2.925 -0.375
15.675 2.175 1.575
15.675 2.175 0.075
15.675 2.175 0.675
15.675 2.175 0.225
15.675 2.175 -0.075
15.675 2.175 -0.225
15.675 2.175 1.425
15.675 2.175 -0.375
18.375 2.175 1.125
18.375 2.175 -1.275
18.375 2.175 0.525
18.375 2.175 0.675
18.375 2.175 -0.525
21.375 3.675 -0.525
15.075 2.325 2.175
15.075 2.325 0.975
15.075 2.325 1.725
15.075 2.325 0.675
15.075 2.325 -0.675
18.975 2.325 -0.375
18.975 2.325 0.075
18.975 2.325 -0.225
18.975 2.325 0.525
18.975 2.325 0.375
18.975 2.325 1.725
18.975 2.325 1.575
17.025 2.025 0.675
17.025 2.025 -0.375
17.025 2.025 1.125
17.025 2.025 -0.525
17.025 2.025 0.375
17.025 2.025 -0.225
16.875 2.025 -0.375
17.175 2.025 -0.525
16.875 2.025 1.125
17.175 2.025 -0.975
17.175 2.025 0.375
17.175 2.025 1.125
17.175 2.025 0.675
16.875 2.025 0.225
17.175 2.025 -0.225
16.875 2.025 0.675
14.625 2.475 -0.375
14.625 2.475 0.675
14.625 2.475 -0.675
14.625 2.475 0.525
14.625 2.475 0.075
19.425 2.475 0.675
19.425 2.475 0.525
19.425 2.475 -0.375
19.425 2.475 1.575
16.725 2.025 0.375
16.725 2.025 0.675
16.725 2.025 -0.825
16.725 2.025 -0.375
16.725 2.025 -0.075
16.725 2.025 1.125
17.325 2.025 -0.525
17.325 2.025 2.025
17.325 2.025 0.675
17.325 2.025 -0.975
17.325 2.025 0.375
17.325 2.025 0.225
17.325 2.025 -0.375
17.325 2.025 1.125
21.225 3.525 0.225
17.475 2.025 -0.375
17.475 2.025 1.125
17.475 2.025 0.675
17.475 2.025 0.375
16.575 2.025 -0.075
16.575 2.025 0.525
16.575 2.025 1.125
16.575 2.025 -1.725
16.575 2.025 0.375
16.575 2.025 -0.825
16.575 2.025 1.275
16.575 2.025 0.675
17.475 2.025 -0.225
17.475 2.025 -0.525
20.625 3.075 1.275
20.625 3.075 -0.375
15.525 2.175 0.675
15.525 2.175 0.075
15.525 2.175 1.575
15.525 2.175 2.325
15.525 2.175 -0.075
15.525 2.175 1.725
18.525 2.175 1.425
18.525 2.175 -0.225
18.525 2.175 -0.825
18.525 2.175 0.525
18.525 2.175 -0.525
18.525 2.175 1.125
18.525 2.175 0.675
18.525 2.175 0.975
16.425 2.025 0.675
16.425 2.025 2.175
16.425 2.025 -1.275
16.425 2.025 -0.525
17.625 2.025 0.225
17.625 2.025 -0.525
17.625 2.025 -0.975
17.625 2.025 -0.675
17.625 2.025 -0.225
17.625 2.025 -2.025
17.625 2.025 0.675
17.625 2.025 1.125
17.625 2.025 0.975
17.625 2.025 1.725
16.425 2.025 -1.125
16.425 2.025 1.275
16.425 2.025 -0.375
21.075 3.375 -0.075
21.075 3.375 0.375
21.075 3.375 -0.225
14.925 2.325 -0.525
14.925 2.325 -0.375
14.925 2.325 0.975
14.925 2.325 0.675
19.125 2.325 0.525
19.125 2.325 1.575
19.125 2.325 1.425
19.125 2.325 -0.675
19.125 2.325 -0.375
11.025 5.775 0.375
14.175 2.625 0.675
14.175 2.625 -0.675
14.175 2.625 0.075
17.775 2.025 -1.275
17.775 2.025 0.225
17.775 2.025 -0.375
17.775 2.025 -0.225
17.775 2.025 -0.675
17.775 2.025 0.675
17.775 2.025 -0.075
17.775 2.025 -0.525
17.775 2.025 1.125
16.275 2.025 -0.525
16.275 2.025 1.275
16.275 2.025 0.675
16.275 2.025 1.125
17.775 2.025 0.375
19.875 2.625 0.675
13.875 2.775 -0.675
13.875 2.775 2.325
13.875 2.775 0.675
20.175 2.775 0.525
15.375 2.175 0.675
15.375 2.175 1.725
15.375 2.175 2.175
15.375 2.175 -0.525
15.375 2.175 2.025
15.375 2.175 1.575
15.375 2.175 -0.375
18.675 2.175 1.275
18.675 2.175 -0.375
18.675 2.175 -1.125
18.675 2.175 0.525
18.675 2.175 1.125
18.675 2.175 0.675
18.675 2.175 0.975
14.475 2.475 0.525
14.475 2.475 0.675
19.575 2.475 -0.975
19.575 2.475 -0.375
19.575 2.475 -0.675
19.575 2.475 0.525
19.575 2.475 -0.075
13.125 3.225 -0.075
16.125 2.025 0.675
16.125 2.025 -0.375
16.125 2.025 1.125
16.125 2.025 0.375
16.125 2.025 -1.275
16.125 2.025 0.975
16.125 2.025 -0.225
16.125 2.025 -0.975
16.125 2.025 0.075
17.925 2.025 0.075
17.925 2.025 -0.525
17.925 2.025 -0.225
17.925 2.025 -0.375
17.925 2.025 0.375
17.925 2.025 1.125
17.925 2.025 0.675
20.925 3.225 0.525
20.925 3.225 -0.375
20.925 3.225 -0.225
20.925 3.225 -0.075
13.575 2.925 -1.275
13.575 2.925 -0.375
20.475 2.925 -0.675
20.475 2.925 -0.075
20.475 2.925 0.075
20.475 2.925 0.675
15.975 2.025 -1.875
15.975 2.025 -0.225
15.975 2.025 -0.675
15.975 2.025 -0.825
15.975 2.025 0.675
15.975 2.025 1.125
15.975 2.025 0.975
15.975 2.025 1.275
15.975 2.025 -0.525
18.075 2.025 0.075
18.075 2.025 0.825
18.075 2.025 1.125
18.075 2.025 0.375
18.075 2.025 0.675
14.775 2.325 0.675
14.775 2.325 -1.575
14.775 2.325 -0.525
19.275 2.325 0.525
19.275 2.325 1.725
19.275 2.325 -0.525
19.275 2.325 0.825
15.225 2.175 0.675
15.225 2.175 0.375
15.225 2.175 1.425
15.225 2.175 1.575
15.225 2.175 0.075
18.825 2.175 -0.375
18.825 2.175 -0.075
18.825 2.175 0.975
18.825 2.175 0.675
18.825 2.175 1.125
18.825 2.175 0.525
18.825 2.175 -0.675
13.275 3.075 0.225
13.275 3.075 -0.075
13.275 3.075 1.125
20.775 3.075 0.375
21.375 3.525 -0.975
14.025 2.625 0.525
15.825 2.025 0.225
15.825 2.025 -0.075
15.825 2.025 -0.525
15.825 2.025 1.275
15.825 2.025 0.675
15.825 2.025 -0.825
15.825 2.025 1.125
18.225 2.025 0.825
18.225 2.025 0.225
18.225 2.025 -0.375
18.225 2.025 1.125
18.225 2.025 -0.075
18.225 2.025 0.675
18.225 2.025 -0.225
18.225 2.025 -0.675
20.025 2.625 -0.225
20.025 2.625 -0.375
20.025 2.625 0.675
20.025 2.625 -0.075
13.725 2.775 0.675
20.325 2.775 0.675
20.325 2.775 -0.525
20.325 2.775 0.525
14.325 2.475 -0.075
14.325 2.475 -0.525
14.325 2.475 0.525
19.725 2.475 0.225
19.725 2.475 0.525
19.725 2.475 2.325
19.725 2.475 1.725
19.725 2.475 0.675
21.225 3.375 -0.375
21.225 3.375 0.225
15.675 2.025 -0.675
15.675 2.025 0.675
15.675 2.025 0.375
15.675 2.025 -0.375
15.675 2.025 1.125
15.675 2.025 0.075
18.375 2.025 0.975
18.375 2.025 -0.375
18.375 2.025 -0.825
18.375 2.025 0.225
18.375 2.025 0.525
18.375 2.025 -0.225
18.375 2.025 -0.075
18.375 2.025 -0.675
15.075 2.175 0.675
15.075 2.175 -0.825
15.075 2.175 -0.075
15.075 2.175 -0.675
15.075 2.175 0.075
15.075 2.175 1.725
15.075 2.175 -0.375
15.075 2.175 1.425
18.975 2.175 1.125
18.975 2.175 -0.225
18.975 2.175 -0.975
18.975 2.175 0.675
18.975 2.175 0.525
14.625 2.325 -1.875
14.625 2.325 -0.375
14.625 2.325 -0.225
14.625 2.325 -0.675
14.625 2.325 0.675
14.625 2.325 0.525
13.425 2.925 0.375
19.425 2.325 1.425
19.425 2.325 -0.675
19.425 2.325 0.075
19.425 2.325 1.575
19.425 2.325 -0.075
19.425 2.325 -1.725
19.425 2.325 0.525
20.625 2.925 0.525
20.625 2.925 0.675
22.725 5.025 3.525
17.025 1.875 -0.375
17.025 1.875 -0.525
17.025 1.875 0.375
21.075 3.225 0.075
21.075 3.225 -0.075
21.075 3.225 0.375
21.075 3.225 -0.225
17.175 1.875 -0.075
17.175 1.875 -0.675
17.175 1.875 -0.525
16.875 1.875 -0.825
16.875 1.875 -0.375
16.875 1.875 -0.225
16.875 1.875 -1.875
16.725 1.875 -0.525
16.725 1.875 -0.675
16.725 1.875 -0.375
17.325 1.875 -0.375
17.325 1.875 -1.425
17.325 1.875 -0.525
17.325 1.875 -0.225
17.325 1.875 0.225
17.325 1.875 0.075
17.475 1.875 -0.375
17.475 1.875 -0.525
17.475 1.875 -0.225
16.575 1.875 -0.825
16.575 1.875 -0.225
16.575 1.875 -0.525
15.525 2.025 0.675
15.525 2.025 0.375
15.525 2.025 1.125
15.525 2.025 -0.525
15.525 2.025 0.225
15.525 2.025 -0.975
18.525 2.025 -0.375
18.525 2.025 -0.525
18.525 2.025 0.225
18.525 2.025 0.075
18.525 2.025 0.525
13.875 2.625 0.675
13.875 2.625 0.825
13.875 2.625 -0.075
13.875 2.625 -0.225
17.625 1.875 -0.375
17.625 1.875 -0.825
17.625 1.875 -0.225
16.425 1.875 -0.375
16.425 1.875 -0.975
16.425 1.875 -0.225
16.425 1.875 -1.125
20.175 2.625 -0.075
20.175 2.625 0.525
14.175 2.475 -0.225
14.175 2.475 0.675
14.175 2.475 0.525
14.175 2.475 -0.375
14.175 2.475 -0.525
19.875 2.475 1.875
19.875 2.475 1.575
19.875 2.475 -0.375
19.875 2.475 0.525
19.875 2.475 2.625
19.875 2.475 1.425
14.925 2.175 1.425
14.925 2.175 -0.525
14.925 2.175 -0.375
14.925 2.175 -0.675
14.925 2.175 0.075
14.925 2.175 0.975
14.925 2.175 0.675
19.125 2.175 2.625
19.125 2.175 0.675
19.125 2.175 0.525
19.125 2.175 -0.525
19.125 2.175 1.125
19.125 2.175 0.975
19.125 2.175 1.275
20.925 3.075 -0.375
21.825 3.825 -0.525
13.575 2.775 2.625
13.575 2.775 0.825
13.575 2.775 0.675
13.575 2.775 -0.075
13.575 2.775 1.275
17.775 1.875 -1.425
17.775 1.875 -0.525
17.775 1.875 -0.675
17.775 1.875 -4.575
16.275 1.875 -0.525
16.275 1.875 -0.375
16.275 1.875 -0.225
16.275 1.875 -0.675
16.275 1.875 -1.125
20.475 2.775 0.675
20.475 2.775 -0.825
20.475 2.775 0.825
10.725 6.075 0.825
14.475 2.325 0.675
14.475 2.325 -0.675
14.475 2.325 -0.525
14.475 2.325 -0.225
19.575 2.325 1.125
19.575 2.325 1.275
19.575 2.325 -0.075
19.575 2.325 -0.375
19.575 2.325 -0.675
19.575 2.325 0.525
21.525 3.525 0.375
21.525 3.525 -0.075
15.375 2.025 0.375
15.375 2.025 0.075
15.375 2.025 1.125
15.375 2.025 -0.225
15.375 2.025 -0.375
15.375 2.025 0.675
18.675 2.025 0.075
18.675 2.025 -0.075
18.675 2.025 -1.125
18.675 2.025 -0.975
18.675 2.025 -0.825
18.675 2.025 0.525
18.675 2.025 -0.375
18.675 2.025 0.675
18.675 2.025 0.225
16.125 1.875 0.075
16.125 1.875 1.425
16.125 1.875 -0.075
16.125 1.875 -0.525
17.925 1.875 -0.825
17.925 1.875 -0.375
17.925 1.875 -0.675
17.925 1.875 -0.225
17.925 1.875 0.375
17.925 1.875 -1.125
17.925 1.875 0.825
21.375 3.375 0.525
21.375 3.375 -0.225
20.775 2.925 0.825
14.775 2.175 1.725
14.775 2.175 -0.225
14.775 2.175 0.675
14.775 2.175 0.825
14.775 2.175 -0.525
19.275 2.175 0.975
19.275 2.175 1.425
19.275 2.175 1.125
19.275 2.175 0.675
19.275 2.175 0.525
19.275 2.175 -0.525
18.075 1.875 -0.225
18.075 1.875 -0.375
18.075 1.875 1.125
18.075 1.875 -0.975
18.075 1.875 0.225
15.975 1.875 -0.525
15.975 1.875 -1.275
15.975 1.875 -0.375
15.225 2.025 2.925
15.225 2.025 1.125
15.225 2.025 0.375
15.225 2.025 0.675
15.225 2.025 0.525
15.225 2.025 1.275
18.825 2.025 -0.825
18.825 2.025 0.225
18.825 2.025 -0.375
18.825 2.025 -0.225
18.825 2.025 -0.975
18.825 2.025 -1.275
18.825 2.025 0.075
18.825 2.025 0.525
12.825 3.225 -0.525
21.225 3.225 -0.375
14.025 2.475 0.225
14.025 2.475 0.075
14.025 2.475 0.675
20.025 2.475 -0.075
20.025 2.475 0.975
20.025 2.475 1.725
20.025 2.475 0.525
20.025 2.475 -0.375
13.725 2.625 0.825
13.725 2.625 1.725
13.725 2.625 0.675
13.725 2.625 -1.275
13.725 2.625 0.225
13.725 2.625 -0.525
13.725 2.625 0.525
20.325 2.625 -0.075
20.325 2.625 -0.375
20.325 2.625 0.225
14.325 2.325 0.375
14.325 2.325 -1.275
14.325 2.325 0.675
14.325 2.325 -0.375
14.325 2.325 -0.225
19.725 2.325 -0.375
19.725 2.325 1.425
19.725 2.325 -0.525
19.725 2.325 -0.075
19.725 2.325 -1.275
19.725 2.325 2.775
19.725 2.325 0.525
19.725 2.325 -0.975
19.725 2.325 0.825
15.825 1.875 -0.525
15.825 1.875 -0.375
15.825 1.875 -0.225
15.825 1.875 0.075
15.825 1.875 0.225
15.825 1.875 -0.675
15.825 1.875 -0.825
18.225 1.875 -0.225
18.225 1.875 0.675
18.225 1.875 -1.275
18.225 1.875 -0.525
18.225 1.875 -0.675
18.225 1.875 -0.375
13.425 2.775 1.875
13.425 2.775 -0.225
13.425 2.775 -0.075
20.625 2.775 0.525
20.625 2.775 -0.225
12.975 3.075 0.075
12.975 3.075 -0.075
12.975 3.075 1.875
21.075 3.075 0.525
21.075 3.075 0.075
21.075 3.075 0.225
21.075 3.075 -0.525
21.075 3.075 -1.125
15.075 2.025 -0.225
15.075 2.025 1.275
15.075 2.025 0.375
15.075 2.025 1.125
15.075 2.025 0.675
14.625 2.175 -0.525
14.625 2.175 0.675
14.625 2.175 -0.375
14.625 2.175 -0.075
14.625 2.175 1.425
18.975 2.025 -0.375
18.975 2.025 -0.675
18.975 2.025 0.525
18.975 2.025 0.225
18.975 2.025 0.075
18.975 2.025 -0.525
18.975 2.025 0.975
18.975 2.025 -0.075
18.975 2.025 -0.975
19.425 2.175 0.975
19.425 2.175 1.125
19.425 2.175 0.675
19.425 2.175 0.525
15.675 1.875 1.425
15.675 1.875 -0.375
15.675 1.875 -0.225
15.675 1.875 -0.525
15.675 1.875 -1.125
15.675 1.875 0.075
15.675 1.875 0.225
15.675 1.875 -0.825
15.675 1.875 -0.675
15.675 1.875 -1.275
18.375 1.875 -0.375
18.375 1.875 -0.525
17.025 1.725 -0.675
17.025 1.725 -0.375
17.025 1.725 -0.525
17.175 1.725 -0.525
17.175 1.725 -0.375
17.175 1.725 -1.875
17.175 1.725 -0.225
17.175 1.725 0.225
17.175 1.725 -1.125
16.875 1.725 -0.075
16.875 1.725 -0.825
13.125 2.925 -0.675
16.725 1.725 -0.225
16.725 1.725 -0.525
16.725 1.725 -1.125
17.325 1.725 -0.825
17.325 1.725 0.375
17.325 1.725 -0.225
17.325 1.725 3.825
20.925 2.925 0.525
20.925 2.925 -0.675
20.925 2.925 0.675
13.875 2.475 -0.375
13.875 2.475 0.675
20.175 2.475 -0.675
20.175 2.475 -0.375
20.175 2.475 1.125
20.175 2.475 1.725
20.175 2.475 0.525
20.175 2.475 -0.525
20.175 2.475 -0.225
14.175 2.325 -0.375
14.175 2.325 0.225
14.175 2.325 -0.525
14.175 2.325 -0.675
14.175 2.325 -0.075
14.175 2.325 0.675
15.525 1.875 -0.075
15.525 1.875 0.225
15.525 1.875 0.375
15.525 1.875 0.525
15.525 1.875 -0.675
15.525 1.875 2.625
15.525 1.875 -0.375
15.525 1.875 0.825
18.525 1.875 -0.225
18.525 1.875 -0.375
18.525 1.875 2.475
18.525 1.875 -0.525
18.525 1.875 -0.075
21.525 3.375 0.075
19.875 2.325 1.275
19.875 2.325 -0.375
19.875 2.325 1.575
19.875 2.325 -0.525
19.875 2.325 0.525
19.875 2.325 -0.075
17.475 1.725 -0.975
17.475 1.725 -0.075
16.575 1.725 -0.075
16.575 1.725 -0.825
16.575 1.725 0.675
13.575 2.625 0.675
13.575 2.625 0.825
13.575 2.625 -0.525
20.475 2.625 0.225
20.475 2.625 0.075
20.475 2.625 0.525
20.475 2.625 -0.825
14.925 2.025 1.275
14.925 2.025 1.425
14.925 2.025 -0.375
14.925 2.025 1.125
14.925 2.025 0.675
14.925 2.025 -0.525
19.125 2.025 0.225
19.125 2.025 -0.975
19.125 2.025 -0.375
19.125 2.025 -0.075
19.125 2.025 0.525
17.625 1.725 -0.675
17.625 1.725 -0.375
16.425 1.725 -0.825
16.425 1.725 0.075
16.425 1.725 -0.525
16.425 1.725 2.175
23.625 6.525 0.375
14.475 2.175 0.675
14.475 2.175 -0.075
14.475 2.175 1.725
14.475 2.175 -0.975
19.575 2.175 0.525
19.575 2.175 0.975
19.575 2.175 -0.375
19.575 2.175 -0.225
19.575 2.175 -0.675
19.575 2.175 1.125
19.575 2.175 0.675
19.575 2.175 1.275
17.775 1.725 -0.525
16.275 1.725 0.075
16.275 1.725 -2.175
16.275 1.725 -0.375
16.275 1.725 2.625
16.275 1.725 0.375
16.275 1.725 -0.525
13.275 2.775 -0.075
13.275 2.775 0.525
20.775 2.775 -0.225
20.775 2.775 0.525
20.775 2.775 3.525
15.375 1.875 -0.675
15.375 1.875 -1.275
15.375 1.875 -0.375
15.375 1.875 -0.525
15.375 1.875 3.225
18.675 1.875 0.375
18.675 1.875 0.075
18.675 1.875 -0.375
16.125 1.725 -0.525
16.125 1.725 0.375
16.125 1.725 -0.825
16.125 1.725 -0.375
17.925 1.725 -0.225
14.775 2.025 -0.525
14.775 2.025 0.675
14.775 2.025 0.975
14.775 2.025 1.575
14.775 2.025 1.125
14.775 2.025 0.225
14.775 2.025 -0.075
19.275 2.025 -0.525
19.275 2.025 0.525
19.275 2.025 -0.375
19.275 2.025 0.225
14.025 2.325 0.675
14.025 2.325 0.375
14.025 2.325 0.825
14.025 2.325 0.975
14.025 2.325 0.225
14.025 2.325 1.425
14.025 2.325 1.725
14.025 2.325 -0.375
14.025 2.325 -0.675
14.025 2.325 -0.825
20.025 2.325 1.575
20.025 2.325 1.425
20.025 2.325 0.525
20.025 2.325 -0.225
20.025 2.325 1.725
20.025 2.325 2.925
20.025 2.325 -0.075
20.025 2.325 -0.975
20.025 2.325 2.775
13.725 2.475 -0.375
13.725 2.475 0.525
13.725 2.475 -0.525
13.725 2.475 -0.825
15.975 1.725 -0.225
15.975 1.725 0.225
20.325 2.475 -0.975
20.325 2.475 0.675
20.325 2.475 2.325
20.325 2.475 0.525
20.325 2.475 1.575
20.325 2.475 -0.525
10.275 6.825 -0.075
15.225 1.875 -1.575
15.225 1.875 -0.375
15.225 1.875 -0.225
15.225 1.875 -0.525
15.225 1.875 0.525
18.825 1.875 -0.225
18.825 1.875 -0.525
18.825 1.875 0.075
18.825 1.875 -0.075
18.825 1.875 1.275
18.825 1.875 -0.675
18.825 1.875 -0.375
14.325 2.175 1.725
14.325 2.175 0.075
14.325 2.175 -0.525
14.325 2.175 1.575
14.325 2.175 0.225
14.325 2.175 0.675
12.975 2.925 -0.525
12.975 2.925 1.275
12.975 2.925 -0.075
19.725 2.175 1.425
19.725 2.175 0.675
19.725 2.175 -0.375
19.725 2.175 -0.525
19.725 2.175 0.975
19.725 2.175 1.125
19.725 2.175 0.525
21.075 2.925 0.675
21.075 2.925 -0.825
21.075 2.925 1.425
13.425 2.625 -0.525
13.425 2.625 -0.675
13.425 2.625 0.675
20.625 2.625 0.225
20.625 2.625 -0.375
20.625 2.625 -1.425
20.625 2.625 0.975
20.625 2.625 0.525
15.825 1.725 -0.075
15.825 1.725 0.825
15.825 1.725 3.075
15.825 1.725 0.375
15.825 1.725 -0.225
21.825 3.525 0.225
18.225 1.725 -1.425
18.225 1.725 -0.225
21.675 3.375 0.225
14.625 2.025 0.675
14.625 2.025 1.125
14.625 2.025 1.275
19.425 2.025 -0.825
19.425 2.025 -0.675
19.425 2.025 -0.525
19.425 2.025 0.225
19.425 2.025 0.525
19.425 2.025 -0.375
19.425 2.025 -0.225
15.075 1.875 -0.825
15.075 1.875 0.075
15.075 1.875 -0.525
15.075 1.875 -0.375
15.075 1.875 0.675
15.075 1.875 1.125
15.075 1.875 0.225
23.775 6.675 1.125
18.975 1.875 1.725
18.975 1.875 -0.075
18.975 1.875 0.075
18.975 1.875 -0.525
11.625 4.125 -4.125
21.525 3.225 0.225
21.525 3.225 0.075
13.125 2.775 -0.075
13.125 2.775 0.675
15.675 1.725 0.225
15.675 1.725 -0.825
15.675 1.725 0.375
15.675 1.725 -0.225
18.375 1.725 -0.525
18.375 1.725 0.525
18.375 1.725 -0.375
20.925 2.775 -0.375
20.925 2.775 -0.225
20.925 2.775 0.375
20.925 2.775 0.525
20.925 2.775 0.075
13.875 2.325 1.425
13.875 2.325 1.575
13.875 2.325 0.675
20.175 2.325 1.275
20.175 2.325 0.075
20.175 2.325 0.225
20.175 2.325 -0.075
20.175 2.325 1.875
20.175 2.325 2.775
20.175 2.325 0.525
17.025 1.575 -0.225
14.175 2.175 -2.025
14.175 2.175 -0.675
14.175 2.175 0.675
14.175 2.175 1.725
13.575 2.475 0.675
13.575 2.475 -0.525
13.575 2.475 0.525
13.575 2.475 -0.075
13.575 2.475 1.125
17.175 1.575 0.225
16.875 1.575 -0.375
16.875 1.575 0.525
16.875 1.575 -0.975
16.875 1.575 0.225
19.875 2.175 1.125
19.875 2.175 0.675
19.875 2.175 0.525
21.375 3.075 -0.075
19.875 2.175 1.275
19.875 2.175 -0.375
19.875 2.175 0.975
20.475 2.475 -1.575
20.475 2.475 -0.075
20.475 2.475 0.675
20.475 2.475 2.175
16.725 1.575 -0.975
16.725 1.575 0.225
16.725 1.575 0.375
16.725 1.575 -0.375
16.725 1.575 1.875
16.725 1.575 0.525
17.325 1.575 -1.875
17.325 1.575 0.075
17.325 1.575 2.625
17.325 1.575 -0.375
15.525 1.725 0.525
15.525 1.725 -0.075
16.575 1.575 0.075
17.475 1.575 -0.525
16.575 1.575 -0.075
14.925 1.875 -0.525
14.925 1.875 0.675
19.125 1.875 0.225
19.125 1.875 -0.525
19.125 1.875 -0.375
19.125 1.875 -0.825
19.125 1.875 -0.225
14.475 2.025 -0.075
14.475 2.025 0.075
14.475 2.025 -0.225
14.475 2.025 1.275
14.475 2.025 -0.825
14.475 2.025 1.125
14.475 2.025 -0.675
13.275 2.625 0.675
13.275 2.625 0.825
13.275 2.625 -0.225
14.475 2.025 1.425
14.475 2.025 0.675
20.775 2.625 -0.825
20.775 2.625 0.225
20.775 2.625 0.525
20.775 2.625 -0.375
20.775 2.625 -0.525
17.625 1.575 -0.675
17.625 1.575 -0.525
16.425 1.575 -0.675
16.425 1.575 -0.075
16.425 1.575 -0.825
19.575 2.025 0.075
19.575 2.025 0.225
19.575 2.025 0.525
19.575 2.025 -0.375
19.575 2.025 -0.075
19.575 2.025 -0.225
19.575 2.025 -0.525
19.575 2.025 -0.675
19.575 2.025 0.975
12.825 2.925 -0.525
12.825 2.925 0.675
12.825 2.925 0.525
21.225 2.925 0.525
17.775 1.575 1.425
17.775 1.575 0.375
17.775 1.575 -0.825
16.275 1.575 0.225
16.275 1.575 0.525
16.275 1.575 -0.525
15.375 1.725 -0.375
18.675 1.725 0.525
18.675 1.725 1.575
18.675 1.725 -0.675
