# .PCD v0.7 - Point Cloud Data file format
VERSION 0.7
FIELDS x y z
SIZE 4 4 4
TYPE F F F
COUNT 1 1 1
WIDTH 2048
HEIGHT 1
VIEWPOINT 0 0 0 1 0 0 0
POINTS 2048
DATA ascii
-3.675 26.325 0.975
-3.675 26.325 0.675
-3.825 26.475 1.575
-3.525 26.325 0.225
-3.525 26.325 1.425
-3.975 26.475 1.575
-3.675 26.475 1.875
-3.675 26.475 1.125
-4.125 26.475 1.575
-4.125 26.475 1.125
-3.525 26.475 2.025
-3.525 26.475 0.975
-3.525 25.875 2.325
-3.825 26.625 1.125
-3.975 26.625 1.125
-3.975 26.625 -0.525
-3.375 26.325 1.575
-4.275 26.325 1.125
-4.125 25.725 0.675
-4.125 26.625 1.125
-4.125 26.625 -0.225
-4.275 26.475 1.125
-3.375 26.475 2.025
-4.275 26.475 0.825
-3.375 26.475 0.975
-4.425 26.175 -0.225
-3.675 26.775 1.125
-3.225 26.325 0.075
-3.225 26.325 1.725
-3.375 26.625 0.975
-4.275 25.725 -0.075
-4.125 26.775 -0.375
-3.225 25.875 -0.225
-3.225 26.475 0.375
-3.225 26.625 0.975
-3.225 26.625 0.225
-3.075 26.175 0.975
-3.825 26.925 0.525
-4.575 26.175 2.775
-3.075 26.175 0.675
-3.825 26.925 0.075
-3.075 26.325 1.125
-3.075 26.325 0.225
-3.675 25.425 -0.075
-4.125 26.925 0.825
-4.125 25.425 0.825
-3.525 26.925 0.975
-3.525 25.425 -0.075
-3.075 26.475 2.025
-3.225 26.775 0.225
-4.425 25.575 -0.075
-4.425 25.575 0.825
-3.225 25.575 2.775
-4.575 26.625 1.725
-3.825 27.075 -0.075
-2.925 26.175 0.975
-2.925 26.175 1.425
-2.925 26.175 1.575
-3.825 25.275 0.375
-3.975 27.075 1.275
-3.975 27.075 0.525
-3.675 27.075 0.675
-3.675 27.075 0.375
-2.925 26.325 0.975
-3.975 25.275 -0.075
-3.975 25.275 0.075
-3.675 25.275 0.375
-4.125 27.075 1.425
-3.525 27.075 0.825
-4.125 25.275 0.825
-3.525 25.275 0.375
-3.075 26.775 1.125
-4.575 26.775 2.175
-4.575 26.775 2.025
-4.425 25.425 -0.075
-4.425 25.425 0.075
-3.225 26.925 0.375
-4.575 25.575 -0.225
-4.575 25.575 0.975
-4.575 25.575 0.075
-3.075 25.575 0.375
-4.275 27.075 0.525
-4.275 27.075 1.125
-4.725 26.625 1.875
-3.375 25.275 0.075
-2.775 26.175 0.675
-3.825 27.225 0.375
-4.575 26.925 1.275
-3.075 25.425 0.975
-4.575 25.425 0.375
-4.575 25.425 0.225
-2.775 26.325 1.125
-3.075 25.425 0.525
-2.775 26.325 0.975
-2.775 26.025 0.975
-3.975 27.225 0.525
-3.975 25.125 0.375
-3.675 25.125 0.075
-4.425 27.075 1.125
-3.225 27.075 -0.225
-2.925 26.775 0.975
-4.725 25.575 -0.075
-4.875 25.875 -0.225
-2.775 26.475 0.975
-3.525 27.225 0.225
-3.525 27.225 1.725
-4.875 26.625 1.725
-4.875 25.725 0.075
-4.875 25.725 1.575
-4.875 25.725 1.425
-4.875 25.725 3.825
-4.875 25.725 -0.525
-4.875 25.725 0.225
-4.275 25.125 -0.225
-3.375 27.225 1.125
-3.375 27.225 0.525
-4.725 26.925 1.125
-2.925 25.425 1.275
-2.925 25.425 0.375
-3.075 25.275 -0.225
-3.825 27.375 0.675
-2.625 26.175 0.975
-2.625 26.175 1.575
-4.875 26.775 0.075
-4.875 26.775 1.125
-3.975 27.375 -0.225
-3.975 27.375 0.675
-2.625 26.325 1.725
-2.625 26.325 2.175
-2.625 26.325 0.975
-5.025 26.025 0.825
-4.875 25.575 1.125
-4.425 25.125 0.075
-3.225 27.225 0.975
-3.525 27.375 1.275
-3.525 27.375 0.675
-3.525 27.375 0.825
-2.625 26.475 0.975
-5.025 25.875 0.825
-2.625 26.475 -0.225
-2.625 25.875 -0.525
-2.625 26.475 2.625
-2.925 25.275 0.075
-3.375 27.375 1.125
-4.275 27.375 1.275
-3.375 27.375 0.675
-3.375 27.375 0.975
-3.375 27.375 1.275
-5.025 26.625 1.575
-5.025 25.725 0.675
-2.625 26.625 0.825
-5.025 25.725 4.425
-5.025 26.625 1.125
-5.025 25.725 0.375
-5.025 25.725 2.925
-4.875 25.425 1.275
-2.775 25.425 0.975
-2.775 26.925 0.975
-3.075 25.125 2.775
-4.575 27.225 -0.225
-3.075 25.125 0.075
-4.575 25.125 0.525
-5.025 26.775 1.725
-3.225 27.375 0.525
-3.225 24.975 0.525
-3.825 27.525 0.375
-3.825 27.525 0.825
-3.825 27.525 -0.075
-2.475 26.175 1.575
-2.475 26.175 1.425
-3.975 27.525 1.275
-3.975 27.525 0.525
-3.675 27.525 0.675
-5.175 26.025 2.325
-2.475 26.325 1.875
-2.475 26.325 0.975
-5.175 26.025 0.975
-3.675 24.825 0.675
-4.125 27.525 1.275
-4.725 27.225 1.125
-2.925 27.225 0.825
-2.925 27.225 -0.075
-2.925 25.125 1.125
-4.875 25.275 1.275
-3.075 24.975 0.825
-4.575 27.375 -0.075
-3.075 27.375 0.825
-3.075 27.375 0.975
-3.075 27.375 0.075
-2.625 26.925 0.075
-5.025 25.425 0.975
-4.275 27.525 1.275
-4.275 27.525 0.375
-4.275 27.525 0.825
-3.375 27.525 0.675
-4.275 27.525 0.675
-5.175 26.625 1.125
-5.175 26.625 0.825
-5.175 25.725 -0.225
-4.425 27.525 0.075
-4.425 27.525 1.275
-5.175 26.775 1.275
-4.875 27.225 1.125
-4.875 27.225 -0.525
-2.775 27.225 0.825
-4.725 27.375 0.525
-4.725 27.375 1.275
-2.625 27.075 1.275
-5.025 27.075 1.125
-2.625 27.075 0.225
-2.625 27.075 0.675
-2.925 27.375 0.525
-2.925 27.375 1.575
-3.825 27.675 0.975
-2.325 26.175 1.575
-3.825 27.675 1.425
-3.825 27.675 1.275
-2.325 26.325 0.975
-3.975 24.675 0.825
-3.975 27.675 0.525
-3.975 27.675 -1.875
-5.325 26.025 -0.225
-5.325 26.025 0.075
-5.325 26.025 2.475
-4.125 24.675 0.375
-4.125 27.675 1.425
-5.325 25.875 -0.225
-2.325 26.475 2.175
-3.525 24.675 0.825
-4.575 27.525 0.075
-4.575 27.525 0.525
-3.075 27.525 0.675
-5.175 26.925 1.125
-5.175 25.425 0.825
-5.175 25.425 0.225
-5.175 26.925 2.175
-2.475 25.425 1.275
-3.075 24.825 0.825
-2.325 26.625 0.825
-4.275 27.675 1.425
-3.375 27.675 0.675
-4.275 27.675 0.675
-4.275 24.675 0.375
-2.775 27.375 1.725
-2.775 27.375 0.825
-2.775 27.375 0.675
-2.625 27.225 0.675
-5.325 26.775 1.575
-2.325 26.775 0.975
-5.325 26.775 1.125
-5.325 26.775 1.725
-4.425 27.675 1.575
-4.425 27.675 0.825
-4.425 24.675 0.525
-3.225 24.675 0.075
-3.225 27.675 1.125
-4.725 27.525 0.075
-4.725 27.525 0.675
-4.725 27.525 0.825
-2.925 27.525 0.525
-2.475 27.075 1.275
-2.175 26.175 1.125
-3.825 24.525 -0.225
-3.675 27.825 -0.075
-3.675 27.825 1.575
-2.175 26.025 1.125
-2.175 26.025 0.675
-3.975 24.525 0.225
-3.675 24.525 0.525
-5.475 25.875 -0.375
-5.325 25.425 1.425
-3.075 24.675 0.975
-4.575 27.675 0.975
-2.325 26.925 0.675
-2.325 26.925 0.375
-5.325 25.425 0.675
-5.325 25.425 0.075
-2.175 26.475 0.975
-4.125 24.525 0.225
-3.525 24.525 0.525
-3.525 24.525 -0.075
-5.025 27.375 2.625
-2.625 27.375 0.825
-5.025 24.975 0.225
-2.625 27.375 0.675
-2.625 27.375 0.525
-2.625 27.375 0.225
-2.775 27.525 1.425
-4.275 27.825 2.325
-4.275 27.825 0.225
-5.475 26.625 0.825
-5.475 26.625 1.125
-5.475 25.725 0.225
-2.175 26.625 1.575
-2.175 26.625 0.975
-2.475 25.125 -0.075
-2.475 27.225 0.075
-2.475 27.225 0.525
-2.475 27.225 0.375
-4.275 24.525 0.375
-2.325 27.075 0.525
-2.325 27.075 0.675
-2.325 27.075 0.375
-2.325 27.075 1.425
-5.325 27.075 0.225
-2.325 27.075 1.275
-4.725 27.675 0.975
-4.725 27.675 1.275
-2.925 24.675 1.125
-4.425 27.825 1.575
-5.475 26.775 1.275
-2.175 26.775 2.325
-2.175 26.775 2.175
-5.625 26.175 -0.975
-2.025 26.175 0.975
-2.025 26.175 2.175
-5.025 27.525 0.675
-2.475 27.375 1.425
-2.025 26.025 1.575
-2.025 26.025 -0.225
-2.025 26.025 1.425
-3.675 24.375 0.975
-3.675 24.375 0.525
-5.025 24.825 1.425
-4.575 27.825 1.275
-4.575 27.825 1.125
-3.075 27.825 0.825
-2.175 26.925 0.525
-2.175 26.925 0.975
-5.625 25.875 -0.075
-4.125 24.375 0.675
-4.125 27.975 2.325
-4.125 24.375 0.825
-3.525 24.375 0.525
-4.875 27.675 0.825
-2.775 27.675 1.575
-2.025 26.625 0.975
-3.375 24.375 0.225
-3.375 24.375 0.675
-3.375 24.375 0.825
-4.725 27.825 -2.175
-4.725 27.825 0.375
-4.725 27.825 1.875
-4.725 27.825 1.125
-2.925 27.825 0.675
-2.175 27.075 1.125
-2.175 27.075 0.825
-2.175 25.275 0.525
-4.425 27.975 1.875
-4.425 27.975 2.175
-2.475 27.525 1.425
-2.475 27.525 1.275
-2.325 27.375 0.975
-2.325 27.375 0.375
-2.325 27.375 1.575
-2.325 27.375 1.875
-2.325 27.375 1.275
-5.025 27.675 0.975
-5.025 27.675 0.075
-2.625 27.675 2.475
-5.025 27.675 -0.075
-1.875 26.175 1.875
-1.875 26.175 0.975
-5.775 26.175 0.375
-2.025 26.925 0.675
-4.575 27.975 2.175
-4.875 27.825 2.025
-4.875 27.825 0.675
-4.875 27.825 0.825
-4.875 27.825 1.125
-1.875 26.325 0.975
-5.475 25.125 2.775
-1.875 26.025 1.125
-5.775 26.025 -0.225
-1.875 26.025 0.675
-2.175 27.225 0.675
-2.175 27.225 0.825
-2.175 27.225 1.575
-2.175 25.125 -0.075
-2.775 24.525 0.375
-3.525 24.225 0.825
-3.525 24.225 0.975
-1.875 25.875 0.975
-5.775 25.875 0.675
-4.275 28.125 1.575
-5.775 25.725 0.075
-5.775 25.725 -0.075
-1.875 26.625 0.825
-2.025 27.075 0.975
-2.025 27.075 1.125
-4.725 27.975 0.975
-2.925 24.375 0.375
-2.925 24.375 1.275
-2.325 27.525 1.275
-5.175 27.675 0.225
-5.175 27.675 0.825
-5.325 24.825 -0.075
-5.325 24.825 0.975
-5.025 27.825 0.825
-5.475 27.375 0.975
-2.175 27.375 1.425
-2.175 24.975 -0.375
-2.175 27.375 0.525
-2.175 27.375 0.675
-2.625 24.525 0.525
-5.625 27.225 1.125
-2.025 27.225 0.525
-2.025 25.125 -0.225
-2.025 27.225 0.375
-1.875 25.425 0.825
-1.875 26.925 1.125
-5.775 26.925 2.175
-5.775 26.925 1.875
-1.725 26.175 2.175
-3.825 24.075 0.375
-5.925 26.325 0.975
-5.925 26.025 0.975
-5.925 26.025 1.125
-1.725 26.325 1.125
-1.725 26.025 1.425
-1.725 26.025 0.975
-3.675 24.075 0.975
-3.525 28.275 1.275
-4.125 28.275 2.325
-4.125 28.275 1.725
-5.925 25.875 0.375
-5.325 27.675 0.675
-3.525 24.075 0.225
-5.475 27.525 -0.075
-5.175 27.825 1.125
-5.175 27.825 0.825
-2.475 27.825 2.175
-2.175 27.525 1.875
-4.275 28.275 1.575
-1.875 27.075 0.825
-1.875 27.075 1.275
-1.875 27.075 0.975
-5.775 27.075 1.125
-2.925 24.225 2.625
-5.625 24.975 2.325
-2.025 24.975 0.225
-5.025 27.975 1.425
-3.225 28.275 0.975
-5.925 25.575 0.075
-5.925 25.575 0.525
-5.925 25.575 0.675
-3.225 24.075 1.125
-4.875 24.225 0.825
-2.775 28.125 0.825
-5.775 27.225 1.125
-3.075 28.275 1.125
-5.325 27.825 0.975
-5.325 27.825 2.175
-5.325 27.825 0.675
-5.925 25.425 1.575
-5.475 27.675 0.675
-5.475 27.675 0.375
-1.725 26.925 0.825
-1.725 26.925 0.975
-5.625 27.525 0.525
-2.025 27.525 1.425
-1.575 26.175 0.975
-1.575 26.175 2.025
-5.175 27.975 0.975
-2.475 24.375 0.525
-2.475 27.975 2.325
-2.475 27.975 2.175
-3.675 23.925 0.675
-1.575 26.025 1.425
-6.075 26.025 1.125
-1.575 26.025 1.575
-3.525 23.925 1.125
-1.575 26.475 0.975
-2.925 28.275 1.125
-5.925 27.075 1.125
-1.725 27.075 0.825
-1.725 27.075 0.975
-1.725 25.275 0.225
-2.925 24.075 0.975
-1.875 24.975 0.225
-1.875 27.375 0.825
-6.075 25.725 0.375
-3.375 23.925 0.675
-3.375 28.425 0.675
-6.075 26.775 1.725
-6.075 26.775 -0.075
-6.075 25.575 0.075
-5.475 27.825 0.975
-5.475 27.825 2.175
-5.475 27.825 0.225
-5.475 27.825 0.375
-5.625 27.675 0.975
-2.325 24.375 0.825
-5.325 27.975 1.125
-1.725 27.225 0.675
-2.775 24.075 1.275
-4.875 24.075 1.425
-6.075 26.925 2.175
-3.075 28.425 3.825
-4.575 23.925 0.675
-6.075 26.925 0.375
-1.575 26.925 1.275
-1.575 26.925 0.975
-1.575 26.925 1.125
-4.575 28.425 1.725
-6.225 26.175 0.825
-1.425 26.175 0.975
-1.425 26.025 1.575
-1.725 27.375 2.025
-1.725 24.975 -0.225
-1.725 27.375 0.525
-5.025 24.075 1.125
-6.075 27.075 -0.225
-6.075 27.075 0.075
-6.075 27.075 1.125
-1.575 27.075 0.375
-1.575 27.075 0.825
-1.575 27.075 0.975
-5.625 27.825 0.825
-5.625 27.825 0.675
-5.625 27.825 -0.075
-6.225 25.725 0.975
-5.475 27.975 3.975
-5.475 27.975 0.675
-1.425 26.625 0.975
-1.425 26.625 0.825
-2.325 24.225 0.525
-5.775 27.675 2.325
-5.775 27.675 0.825
-5.775 27.675 0.225
-5.775 27.675 1.125
-4.425 28.575 1.575
-6.225 26.775 1.575
-4.425 23.775 0.525
-3.225 23.775 1.125
-2.775 23.925 1.725
-2.775 23.925 0.975
-1.725 24.825 0.225
-5.175 24.075 0.975
-2.475 24.075 0.675
-3.075 28.575 1.575
-4.575 28.575 1.575
-6.225 26.925 1.125
-1.425 26.925 0.675
-3.075 23.775 2.325
-5.625 27.975 0.825
-5.625 27.975 0.375
-2.025 27.975 1.575
-1.575 24.975 -0.375
-1.575 27.375 1.425
-2.625 23.925 1.575
-5.025 28.425 1.575
-1.275 26.175 2.025
-5.475 28.125 -0.075
-5.775 27.825 0.975
-6.375 26.025 0.225
-1.275 26.325 0.975
-1.275 26.025 1.725
-1.275 26.025 -1.425
-4.725 28.575 1.725
-2.925 28.575 -3.225
-6.225 27.075 -0.225
-1.425 27.075 0.975
-1.425 27.075 1.425
-6.225 25.275 2.325
-1.425 25.275 -0.675
-2.925 23.775 0.975
-2.925 23.775 1.575
-6.375 25.875 0.075
-6.375 25.875 0.375
-1.275 26.475 0.975
-5.925 27.675 0.525
-5.925 27.675 0.225
-5.925 27.675 0.975
-5.925 27.675 0.675
-1.725 24.675 -0.225
-6.375 25.725 -0.225
-1.275 26.625 0.975
-4.875 28.575 3.075
-6.375 26.775 1.125
-6.375 26.775 0.825
-1.275 26.775 0.375
-6.375 25.575 0.225
-1.425 27.225 0.975
-1.425 27.225 1.125
-1.425 27.225 0.825
-2.775 23.775 0.675
-5.175 28.425 0.825
-5.625 24.225 0.825
-5.775 27.975 0.225
-5.775 27.975 0.975
-5.775 27.975 0.075
-5.775 27.975 0.825
-5.775 24.375 2.175
-5.775 27.975 5.025
-6.375 26.925 1.275
-1.275 26.925 0.975
-1.275 26.925 1.125
-1.275 26.925 0.675
-3.075 23.625 1.275
-4.575 28.725 3.075
-4.575 28.725 1.425
-5.925 27.825 -0.075
-5.925 27.825 0.975
-2.175 24.075 0.525
-5.025 28.575 1.725
-5.025 28.575 1.125
-6.225 27.375 1.125
-1.425 24.975 -0.525
-1.425 24.975 -0.225
-1.125 26.175 2.175
-6.525 26.175 0.525
-3.975 23.475 1.125
-6.375 27.075 1.875
-1.275 27.075 0.975
-5.325 28.425 3.075
-5.325 28.425 2.775
-1.575 27.675 0.825
-2.325 28.425 0.225
-2.325 23.925 0.675
-6.075 27.675 0.975
-1.125 26.325 0.975
-4.725 28.725 3.075
-4.725 28.725 0.825
-4.725 28.725 1.875
-6.375 25.275 1.725
-2.925 23.625 1.875
-2.925 23.625 0.975
-2.925 23.625 0.525
-2.925 23.625 1.275
-6.525 25.875 -0.225
-1.125 26.475 -0.075
-6.525 26.475 -0.075
-6.525 25.725 0.825
-6.225 27.525 1.125
-2.475 28.575 1.575
-1.425 27.525 0.825
-1.425 24.825 -0.375
-1.425 24.825 0.375
-2.475 23.775 -0.675
-2.475 23.775 1.275
-5.775 24.225 1.275
-5.775 28.125 0.525
-6.375 27.225 2.025
-1.275 25.125 -0.375
-1.125 26.775 0.525
-6.525 26.775 -0.375
-5.925 27.975 1.425
-5.925 27.975 0.675
-5.925 27.975 0.825
-2.025 24.075 0.375
-6.075 27.825 0.825
-6.075 27.825 1.425
-1.575 24.525 1.275
-3.075 23.475 0.975
-4.575 28.875 1.575
-1.125 26.925 0.675
-6.525 25.425 1.425
-6.375 27.375 0.975
-6.375 24.975 0.825
-1.275 24.975 0.075
-2.625 23.625 1.875
-2.625 23.625 0.525
-5.025 28.725 1.425
-6.225 27.675 0.225
-4.725 28.875 2.325
-4.725 28.875 1.275
-4.725 28.875 2.175
-1.125 27.075 1.125
-1.125 27.075 0.975
-1.125 27.075 0.225
-6.525 27.075 1.725
-2.925 28.875 3.825
-6.525 25.275 1.425
-6.675 26.325 -2.025
-6.675 26.325 0.675
-6.675 26.025 0.375
-5.775 28.275 0.825
-6.675 25.875 0.375
-6.675 25.875 0.075
-0.975 26.475 0.975
-5.775 24.075 1.425
-5.625 23.925 1.575
-6.075 27.975 0.375
-6.075 27.975 0.825
-6.075 27.975 0.525
-6.075 27.975 0.975
-1.575 27.975 0.825
-1.275 27.525 0.525
-6.675 25.725 1.575
-6.675 25.725 0.525
-0.975 26.625 1.125
-0.975 26.625 0.075
-2.475 28.725 1.575
-2.475 23.625 1.125
-2.475 23.625 0.825
-4.875 28.875 2.025
-4.875 28.875 2.325
-1.125 27.225 0.975
-6.525 27.225 1.125
-6.225 27.825 0.825
-6.225 27.825 1.425
-0.975 26.775 0.525
-0.975 26.775 0.675
-3.075 29.025 1.125
-4.575 29.025 2.175
-6.675 26.925 1.725
-6.675 26.925 0.225
-0.975 26.925 -0.075
-0.975 26.925 1.125
-0.975 26.925 0.525
-0.975 26.925 5.925
-0.975 26.925 0.675
-0.975 26.925 0.375
-3.075 23.325 1.875
-3.075 23.325 1.125
-1.275 24.675 0.525
-5.325 28.725 2.025
-2.325 23.625 0.675
-5.325 23.625 1.275
-2.325 23.625 0.825
-5.925 28.275 1.125
-6.075 28.125 1.125
-6.075 28.125 1.275
-6.075 28.125 1.425
-1.875 23.925 0.525
-6.675 27.075 1.875
-0.975 27.075 1.125
-0.975 27.075 0.525
-6.225 27.975 0.975
-6.225 27.975 0.525
-6.825 26.175 -0.075
-1.425 24.375 0.675
-6.825 26.025 0.375
-6.825 26.025 0.075
-6.825 25.875 0.075
-5.175 28.875 1.575
-5.175 28.875 1.425
-1.125 24.825 0.675
-6.825 25.725 0.225
-0.825 26.625 0.825
-0.825 26.625 -0.075
-4.875 29.025 2.325
-4.875 29.025 3.525
-2.775 29.025 3.375
-6.675 27.225 1.125
-5.475 28.725 2.175
-0.975 27.225 1.275
-5.475 28.725 2.325
-2.175 23.625 0.525
-2.175 23.625 1.125
-4.875 23.325 1.725
-0.825 26.775 1.725
-0.825 26.775 0.075
-0.825 26.775 0.675
-6.825 25.575 0.375
-5.925 28.425 1.725
-2.325 23.475 0.525
-2.325 28.875 1.125
-6.525 27.675 1.125
-6.675 27.375 1.125
-0.825 26.925 0.675
-0.825 26.925 0.825
-4.575 29.175 2.025
-0.825 26.925 1.275
-4.575 29.175 2.175
-6.825 26.925 1.575
-6.825 26.925 1.125
-0.825 26.925 0.975
-2.625 23.325 1.575
-1.275 27.975 2.775
-0.825 27.075 1.275
-0.825 27.075 1.125
-6.825 27.075 1.125
-0.825 27.075 0.975
-4.725 29.175 2.025
-4.725 23.175 1.425
-2.925 29.175 -3.975
-6.675 27.525 -1.875
-6.675 27.525 1.125
-6.975 26.025 0.525
-6.975 26.025 0.675
-2.475 23.325 0.675
-2.475 23.325 1.275
-2.475 23.325 1.575
-6.525 27.825 0.675
-2.175 28.875 0.825
-0.675 25.875 1.125
-1.125 24.525 3.525
-1.125 24.525 1.575
-4.875 29.175 2.475
-6.075 28.425 0.975
-0.675 25.725 0.675
-0.675 25.725 0.975
-3.375 23.025 0.675
-6.225 28.275 0.825
-5.925 28.575 2.025
-6.225 24.075 1.425
-1.725 23.775 0.525
-6.975 25.575 0.675
-0.675 26.775 0.675
-0.675 26.775 0.975
-0.675 26.775 1.275
-0.675 26.775 0.525
-6.375 28.125 0.525
-1.275 24.225 1.125
-5.775 28.725 2.475
-5.325 29.025 2.175
-5.325 29.025 2.025
-5.325 29.025 2.625
-2.325 29.025 2.625
-6.825 27.375 1.125
-0.825 24.975 -0.225
-0.825 24.975 2.025
-2.625 29.175 1.425
-2.625 29.175 2.175
-4.575 29.325 1.575
-4.575 29.325 1.425
-6.975 26.925 0.825
-6.975 26.925 1.125
-0.675 26.925 0.975
-0.675 26.925 1.275
-3.075 23.025 0.825
-5.625 28.875 2.325
-2.025 23.475 0.975
-2.025 28.875 0.825
-6.975 27.075 1.275
-6.975 27.075 1.575
-0.675 27.075 1.275
-0.675 25.275 -0.525
-5.175 29.175 2.325
-5.475 29.025 3.975
-5.475 29.025 2.925
-2.175 29.025 0.825
-6.675 27.825 0.225
-6.675 27.825 1.575
-6.675 27.825 0.675
-0.975 27.825 0.825
-2.175 23.325 0.675
-7.125 26.175 0.375
-6.375 28.275 0.675
-6.375 28.275 0.975
-7.125 26.325 -0.075
-7.125 26.025 0.675
-5.925 28.725 3.375
-1.275 24.075 0.075
-7.125 26.475 -0.375
-0.525 26.475 -0.225
-0.525 25.875 0.975
-6.975 25.125 -1.275
-0.675 27.225 0.975
-0.675 27.225 1.125
-6.525 28.125 0.375
-6.525 28.125 0.825
-1.875 28.875 0.975
-1.125 24.225 0.975
-0.525 25.725 0.975
-0.525 25.725 1.425
-0.525 25.725 0.225
-2.325 29.175 1.125
-0.525 26.775 0.525
-0.525 26.775 0.975
-0.525 26.775 1.575
-5.325 29.175 1.725
-0.825 24.675 0.375
-5.325 29.175 2.325
-0.525 26.775 0.375
-5.625 29.025 2.475
-5.025 29.325 0.375
-5.025 29.325 0.825
-6.975 27.375 1.125
-0.675 24.975 0.825
-6.675 27.975 0.225
-6.675 27.975 1.125
-0.675 27.375 1.875
-0.525 26.925 0.525
-0.525 26.925 0.375
-0.525 26.925 1.125
-4.575 29.475 1.575
-6.375 28.425 1.275
-6.525 28.275 0.975
-5.925 28.875 3.375
-5.925 28.875 3.225
-1.725 28.875 1.125
-0.525 27.075 0.675
-0.525 27.075 1.275
-1.125 24.075 0.975
-6.825 27.825 0.225
-6.825 27.825 0.675
-0.825 27.825 0.975
-5.475 29.175 2.625
-5.475 29.175 1.725
-0.825 24.525 3.525
-2.475 29.325 0.375
-5.175 29.325 2.175
-0.675 24.825 1.125
-2.475 23.025 0.525
-7.275 26.175 0.225
-5.775 29.025 3.225
-6.675 28.125 0.525
-6.675 28.125 0.675
-7.275 26.325 -0.075
-7.275 26.325 0.375
-7.275 26.025 -0.825
-3.525 22.725 1.725
-3.525 22.725 2.325
-7.125 27.225 1.125
-7.125 27.225 2.325
-0.375 25.875 0.975
-4.875 29.475 0.975
-3.375 22.725 2.025
-0.375 25.725 1.575
-0.375 25.725 0.225
-0.375 26.625 0.825
-0.375 25.725 1.125
-0.375 26.625 0.375
-0.375 26.625 0.675
-5.325 29.325 2.775
-6.975 27.675 -2.625
-6.975 24.675 1.425
-6.825 27.975 0.525
-6.825 27.975 0.225
-6.375 28.575 0.825
-0.375 26.775 0.375
-6.225 28.725 0.825
-0.375 25.575 0.975
-1.425 28.725 0.525
-1.275 23.775 0.075
-0.525 24.975 0.825
-0.525 27.375 1.725
-2.625 29.475 1.575
-2.625 22.875 -0.225
-3.075 29.625 1.275
-0.375 26.925 1.125
-0.375 26.925 0.825
-0.375 26.925 1.275
-0.375 26.925 0.675
-1.725 23.325 0.825
-5.475 29.325 2.925
-6.975 27.825 1.275
-7.275 27.075 1.725
-7.275 27.075 1.575
-7.275 27.075 2.175
-0.375 27.075 1.275
-0.375 27.075 0.675
-7.275 25.275 1.575
-6.825 28.125 0.975
-7.425 26.175 0.375
-3.825 22.575 2.925
-3.825 22.575 2.475
-0.225 26.325 1.275
-0.225 26.025 0.975
-3.975 22.575 3.675
-0.375 25.125 -0.075
-7.275 27.225 1.125
-7.425 25.875 1.125
-7.425 25.875 1.275
-0.225 26.475 0.225
-3.525 22.575 1.725
-2.325 29.475 0.825
-2.025 29.325 0.675
-6.975 27.975 0.975
-0.225 25.725 1.575
-3.375 22.575 0.825
-6.675 28.425 -0.375
-0.975 23.925 0.225
-0.225 26.775 0.975
-0.225 26.775 0.675
-0.225 26.775 0.825
-0.225 25.575 0.975
-0.225 25.575 0.675
-0.375 27.375 1.425
-0.375 27.375 0.825
-6.825 28.275 1.425
-5.925 29.175 3.675
-5.925 29.175 3.525
-7.425 26.925 1.125
-0.225 26.925 1.425
-5.475 29.475 4.425
-2.175 29.475 1.125
-0.525 24.525 1.275
-1.875 29.325 1.275
-6.975 28.125 0.825
-6.975 24.225 1.875
-7.275 27.525 0.525
-0.375 24.825 0.075
-7.425 27.075 1.125
-7.425 27.075 0.825
-7.425 27.075 0.075
-0.225 27.075 0.825
-6.225 29.025 4.125
-7.425 27.225 1.275
-0.825 23.925 0.225
-6.825 28.425 1.575
-0.825 23.925 0.525
-6.825 28.425 1.425
-6.825 28.425 0.525
-6.075 29.175 4.125
-7.575 26.175 0.975
-0.225 25.125 1.125
-0.225 25.125 0.375
-7.575 26.325 0.525
-0.075 26.025 0.825
-0.075 26.025 0.975
-7.125 27.975 0.525
-7.125 27.975 0.825
-2.025 29.475 1.275
-2.325 29.625 0.675
-0.075 26.475 0.225
-0.375 27.675 1.275
-7.275 27.675 0.525
-0.075 25.725 1.725
-0.075 25.725 0.975
-3.375 22.425 1.725
-3.375 29.925 -1.575
-6.975 28.275 1.275
-6.975 28.275 0.525
-5.925 29.325 2.025
-0.225 24.975 0.225
-0.075 26.775 0.675
-0.075 26.775 1.125
-3.225 22.425 1.125
-3.225 22.425 1.275
-0.075 25.575 1.425
-7.575 25.575 5.475
-6.375 29.025 0.675
-5.475 29.625 2.175
-0.075 26.925 0.975
-0.075 26.925 1.125
-0.075 26.925 1.275
-6.675 28.725 1.275
-6.675 28.725 1.125
-0.975 23.625 1.425
-7.125 28.125 0.675
-1.875 29.475 1.275
-5.775 29.475 1.425
-0.225 27.525 1.125
-0.225 24.825 0.825
-0.225 24.825 0.075
-7.575 27.075 0.075
-0.675 23.925 0.525
-5.625 22.725 2.625
-2.025 29.625 1.275
-0.375 24.375 0.225
-0.375 27.975 0.525
-7.575 25.125 1.425
-7.725 26.175 0.225
-7.725 26.175 0.975
-7.725 26.175 -0.075
-0.225 24.675 0.375
0.075 26.175 0.825
-5.325 22.575 1.275
-3.825 22.275 2.175
-7.125 28.275 0.825
-7.125 28.275 0.675
-7.125 28.275 1.425
-7.125 28.275 0.975
-7.725 26.475 -0.075
0.075 25.875 0.975
0.075 25.875 1.725
-3.525 22.275 2.325
-3.525 22.275 1.725
-7.725 25.725 1.275
0.075 25.725 2.025
0.075 26.625 0.675
0.075 26.625 0.525
0.075 26.625 0.225
-3.375 22.275 1.875
-1.275 23.175 0.525
-7.725 25.575 1.575
0.075 26.775 0.825
0.075 25.575 1.575
-3.225 22.275 1.275
-6.225 29.325 4.275
-6.225 29.325 3.825
-6.225 29.325 3.975
-7.425 27.825 0.375
-7.425 27.825 0.675
-0.225 27.825 0.075
-0.675 23.775 0.225
0.075 26.925 1.275
0.075 26.925 1.575
-7.575 27.525 0.375
-7.125 28.425 0.525
-7.125 28.425 0.675
-5.625 22.575 1.875
-0.975 23.325 0.525
-7.275 28.275 0.675
-5.925 29.625 0.825
-7.575 27.675 1.275
-2.325 29.925 1.125
-7.575 27.675 0.675
0.225 26.175 0.825
-7.875 26.025 1.425
-7.875 26.025 0.975
-7.875 26.025 -0.075
0.225 26.325 -0.375
0.225 26.025 0.975
-7.875 26.325 0.375
0.225 25.875 1.725
0.225 26.475 0.375
0.225 26.475 1.125
0.225 26.475 0.675
0.225 25.875 -1.125
0.225 25.875 0.975
-7.875 25.875 0.375
-7.875 25.875 0.975
0.225 25.725 1.725
-7.725 27.375 0.075
0.225 26.775 0.675
0.225 26.775 1.125
-7.425 28.125 0.675
-7.425 28.125 1.125
-7.875 25.575 1.125
0.225 26.925 0.825
-7.875 26.925 0.225
-4.575 22.125 3.675
-7.725 27.525 0.375
-6.675 29.175 5.475
-6.975 28.875 0.825
0.225 25.275 0.375
-7.875 25.275 5.625
-7.575 27.975 0.525
-7.575 27.975 0.225
-7.575 27.975 1.875
-2.025 29.925 0.825
-5.925 29.775 0.825
-7.425 28.275 0.675
-7.125 28.725 1.125
-7.725 27.675 2.025
0.075 24.675 0.375
0.075 24.675 -0.225
0.075 24.675 -0.375
-7.875 27.225 -0.825
-8.025 26.175 -0.525
-8.025 26.175 0.675
0.375 26.025 0.825
-8.025 26.025 0.825
-8.025 26.325 -0.375
-7.875 27.375 1.875
0.375 26.625 1.125
-7.575 28.125 0.225
-7.575 28.125 1.125
-2.175 30.075 2.175
-7.725 27.825 -0.075
0.075 27.825 0.525
0.075 24.525 -0.525
0.375 26.775 0.825
0.375 26.775 0.675
-8.025 26.775 1.275
0.375 25.575 1.125
-7.425 28.425 1.425
-7.425 28.425 6.375
-0.225 23.925 0.975
-0.225 23.925 0.825
0.375 25.425 0.975
-8.025 25.425 1.275
0.375 26.925 1.275
0.375 26.925 2.025
0.375 26.925 1.425
0.375 25.425 0.675
-7.275 28.725 0.975
0.375 27.075 1.125
-7.725 27.975 -0.075
-8.025 27.075 0.675
-8.025 27.075 0.825
0.075 24.375 -0.525
-5.625 22.275 2.025
-7.575 28.275 0.675
-7.575 28.275 0.825
-7.425 28.575 0.825
0.525 26.175 0.975
-0.675 23.175 0.375
-8.175 26.325 0.675
-8.175 26.325 -0.225
0.525 26.325 1.125
-7.125 29.025 1.275
-7.125 29.025 1.125
-7.725 28.125 0.525
0.525 26.475 0.525
-2.625 30.375 2.325
-8.025 24.975 1.275
0.375 24.975 -0.975
0.375 24.975 -0.225
-8.025 27.375 1.875
0.225 27.825 0.675
-7.875 27.825 0.825
-7.875 27.825 1.125
-0.075 23.925 0.675
-0.075 23.925 0.825
-7.575 28.425 0.525
0.525 26.625 1.275
0.525 25.575 0.975
-8.175 25.575 1.125
-8.175 25.575 1.275
-5.175 30.375 1.125
-8.025 27.525 1.125
-7.425 28.725 0.825
-8.175 26.925 0.225
0.525 26.925 0.825
0.525 25.425 1.425
-7.725 28.275 0.825
-5.925 30.075 5.025
-7.875 24.375 2.325
0.225 27.975 0.525
-7.875 27.975 0.525
-8.175 27.075 -0.225
-7.575 28.575 1.425
-7.575 28.575 2.175
-0.075 28.575 1.275
-6.225 22.425 1.275
-2.325 30.375 2.625
-0.525 23.175 0.375
-0.375 29.025 4.275
0.525 27.225 2.775
-8.175 27.225 1.575
-7.875 28.125 0.675
-5.775 22.125 1.725
-8.325 26.175 0.375
-8.325 26.175 -0.375
-7.725 23.925 1.725
-8.325 26.325 0.825
-8.325 26.325 -0.375
-8.325 26.325 2.025
-8.325 26.325 0.675
-8.325 26.325 -0.225
-8.325 25.875 1.275
0.675 26.475 1.125
-5.025 30.525 1.275
-8.175 27.375 1.125
0.375 24.525 -0.075
0.375 24.525 -0.225
0.675 26.625 0.825
0.675 25.725 0.975
-7.575 28.725 1.875
0.675 26.775 1.425
0.675 26.775 1.275
0.675 26.775 0.975
0.675 26.775 0.075
-8.325 25.575 0.375
0.675 25.575 1.425
-2.475 30.525 2.475
-2.475 30.525 2.175
-8.175 27.525 1.125
0.525 24.825 0.075
-8.325 26.925 2.475
-8.325 26.925 2.775
0.675 26.925 1.425
0.675 26.925 0.975
-0.525 23.025 0.525
-8.025 24.375 2.325
-8.025 27.975 0.375
-0.825 29.625 0.825
-6.225 30.075 0.825
-7.725 28.575 0.675
0.075 28.575 0.975
-6.225 22.275 0.975
0.075 23.775 0.375
-8.325 25.275 2.325
0.675 27.075 0.675
-2.925 30.675 2.925
-0.975 22.575 0.525
-2.325 30.525 2.025
0.525 24.675 0.975
-7.575 28.875 0.675
-8.325 27.225 1.575
0.675 27.225 0.525
-8.025 28.125 0.975
-7.875 23.925 2.025
-7.875 28.425 0.975
-7.875 28.425 -0.075
-7.875 28.425 0.525
-8.475 26.175 0.825
-8.475 26.175 0.225
-8.475 26.325 0.525
-8.475 26.325 2.025
-8.475 26.325 0.075
-8.475 26.325 0.375
-8.475 26.325 0.225
0.825 26.325 1.125
0.825 26.325 1.725
0.525 24.525 0.525
-8.325 27.375 1.125
-8.475 26.475 0.825
-8.475 25.875 1.425
-8.475 25.875 0.075
-7.725 28.725 0.375
-7.725 28.725 2.175
0.825 26.475 1.125
0.825 26.475 0.825
0.825 25.875 0.975
0.825 26.475 0.075
0.075 23.625 0.375
-0.525 22.875 0.825
-0.525 22.875 -0.225
-7.425 29.175 0.975
-7.425 29.175 1.575
0.825 26.775 1.125
0.825 26.775 0.975
0.825 25.575 1.575
0.825 25.575 0.975
-8.025 28.275 0.225
-8.025 28.275 0.525
-8.175 27.975 0.375
-8.175 27.975 0.225
0.525 24.375 -0.375
-8.475 25.425 1.125
0.825 25.425 0.675
0.825 25.425 0.975
0.825 26.925 1.275
-7.725 28.875 0.675
0.075 28.875 2.025
-8.025 28.425 0.675
-8.025 28.425 0.075
-2.775 30.825 2.325
-8.475 27.225 0.825
-8.475 27.225 0.375
-8.475 27.225 1.125
-8.175 28.125 0.525
0.825 25.125 0.225
-0.525 22.725 1.725
-0.525 22.725 0.375
-0.525 22.725 -0.375
-7.425 29.325 0.975
-0.225 23.025 0.975
-7.875 28.725 0.675
0.675 24.525 -0.825
0.675 24.525 0.675
0.975 26.175 0.975
-8.475 24.975 1.275
-8.475 27.375 1.275
-8.625 26.325 0.525
-8.625 26.325 0.225
-8.625 26.325 1.575
-8.625 26.325 -0.075
-8.625 26.325 -0.225
0.975 26.025 0.975
-8.625 26.325 0.675
-0.075 23.175 0.975
0.975 26.475 1.425
0.975 26.475 1.275
-8.625 26.475 -0.075
-8.625 26.475 0.825
0.975 26.625 1.275
0.975 25.725 -0.825
0.975 25.725 2.025
-8.625 26.625 1.575
-8.175 28.275 0.525
-8.175 28.275 0.375
-8.175 28.275 0.075
-0.975 22.275 1.275
-8.025 28.575 1.425
-8.025 28.575 0.375
-8.025 28.575 0.825
0.975 26.775 0.975
0.975 25.575 0.975
-8.475 27.525 2.025
0.825 27.525 0.675
-8.325 27.975 1.275
-8.325 27.975 1.125
-8.325 27.975 0.075
0.975 25.425 0.975
-8.625 26.925 -0.075
0.975 25.425 1.275
-7.875 28.875 0.675
-7.875 28.875 0.825
-7.125 29.775 1.425
0.975 27.075 1.125
-7.425 29.475 0.825
-7.425 29.475 1.275
-7.425 29.475 1.125
-0.525 22.575 0.825
0.825 24.675 0.525
0.825 27.675 1.725
-8.175 28.425 0.525
-0.075 23.025 0.825
-0.075 23.025 1.125
-8.325 24.225 2.025
-8.325 28.125 0.525
-8.325 28.125 1.425
-1.275 30.375 2.325
-8.625 25.125 1.275
0.975 27.225 2.475
-8.025 28.725 0.225
-8.025 28.725 2.025
-7.725 29.175 0.975
0.075 29.175 1.875
0.825 24.525 0.375
1.125 26.175 0.975
-8.775 26.175 0.825
1.125 26.325 1.125
1.125 26.325 0.225
1.125 26.025 2.175
1.125 26.025 0.975
-8.775 26.325 -0.225
-0.975 30.225 1.275
-0.975 22.125 1.275
1.125 26.475 0.825
1.125 25.875 1.725
-8.325 28.275 0.375
0.675 24.075 0.375
0.675 24.075 -0.375
1.125 26.625 0.975
1.125 26.625 0.675
1.125 26.625 -0.225
1.125 26.625 0.225
1.125 25.725 1.725
1.125 25.725 0.975
-7.275 29.775 1.425
-7.425 29.625 1.125
-8.625 27.525 1.875
0.975 27.525 2.025
1.125 26.775 0.675
1.125 26.775 0.975
-8.475 27.975 1.125
1.125 25.575 1.875
-0.375 22.575 2.925
-8.025 28.875 2.325
-0.525 22.425 0.825
1.125 26.925 1.125
1.125 25.425 1.425
-7.725 29.325 1.575
-8.625 24.675 1.725
-8.625 27.675 0.075
-8.625 27.675 1.125
0.675 23.925 0.225
1.125 25.275 1.725
0.225 23.175 0.375
0.225 23.175 1.275
0.225 29.175 0.975
-8.475 28.125 1.125
1.125 25.125 -0.225
1.125 27.225 0.975
-8.625 24.525 1.275
-8.625 24.525 2.025
0.975 24.525 1.425
-0.225 22.575 0.525
1.125 27.375 0.225
-0.075 22.725 2.475
-7.575 29.625 0.825
-8.325 28.575 0.525
-8.325 28.575 0.825
1.275 26.175 0.975
0.675 23.775 -0.075
-8.475 28.275 0.225
1.275 26.325 1.125
1.275 26.325 0.825
1.275 26.325 1.275
-8.925 26.025 2.925
1.275 26.475 0.975
1.275 26.475 0.675
1.275 26.475 1.125
1.275 25.875 -0.225
1.275 25.875 0.975
-8.925 25.875 0.975
-8.925 26.475 0.375
0.075 22.875 1.425
1.275 26.625 1.275
0.525 28.875 3.225
-8.925 25.725 0.825
-8.925 26.625 -0.075
-8.925 26.625 0.075
-8.625 27.975 1.125
-8.775 27.525 2.025
-8.775 27.525 1.125
1.275 26.775 0.825
1.275 26.775 0.975
1.275 25.575 0.975
-8.925 26.775 0.825
1.275 26.925 1.425
1.275 25.425 0.525
1.275 25.425 1.425
0.375 23.175 0.375
0.375 23.175 0.825
0.375 29.175 1.425
-8.475 28.425 0.525
-8.475 28.425 0.375
-8.475 28.425 0.675
0.825 23.925 0.375
-8.325 23.625 1.725
-8.325 28.725 0.825
1.125 24.675 0.675
-8.775 27.675 0.375
-8.775 27.675 1.125
0.675 23.625 2.025
1.275 27.075 0.525
1.275 27.075 0.975
-8.925 25.275 0.975
0.975 24.225 0.375
-8.625 28.125 0.375
-8.625 28.125 1.125
-8.625 28.125 0.525
-8.625 28.125 0.225
-0.225 22.425 0.675
-0.075 22.575 1.275
-0.975 30.525 1.425
-8.175 29.025 0.525
0.525 29.025 3.825
-7.725 29.625 0.825
1.275 25.125 0.675
-8.775 27.825 0.375
-8.775 27.825 0.525
1.125 24.525 2.175
1.125 24.525 -0.075
-8.775 24.525 1.575
0.225 29.475 0.975
0.225 29.475 1.275
-0.525 22.125 2.625
-8.475 28.575 0.525
0.825 28.575 3.075
0.825 23.775 0.075
-8.625 28.275 0.675
-8.625 28.275 -0.075
-8.925 27.375 1.725
-8.925 27.375 1.575
0.975 24.075 0.075
0.975 24.075 0.525
-9.075 26.175 1.275
1.425 26.175 0.975
0.375 23.025 0.225
-9.075 26.325 -0.075
1.425 26.025 0.825
1.425 26.325 0.825
-9.075 26.475 0.075
-9.075 26.475 -0.375
1.425 26.475 1.425
1.425 26.475 1.575
-9.075 26.625 -0.075
-9.075 26.625 -0.825
1.425 25.725 0.075
-8.925 27.525 1.125
1.425 26.775 0.525
1.425 25.575 0.825
0.525 29.175 0.825
0.525 29.175 1.725
0.975 28.425 2.475
-8.625 28.425 0.375
-8.475 28.725 2.475
1.425 26.925 0.825
1.425 25.425 0.825
-8.775 28.125 0.075
-8.775 28.125 0.225
-8.325 29.025 2.625
-9.075 25.275 1.125
1.425 27.075 0.825
0.375 22.875 0.375
-9.075 25.125 0.825
-8.925 27.825 0.525
0.975 28.575 2.775
-8.625 28.575 0.075
-8.625 28.575 0.375
-6.225 30.975 5.025
0.525 29.325 1.275
-8.175 29.325 0.675
0.525 23.025 0.675
-8.775 28.275 0.825
-8.775 28.275 0.225
-8.775 28.275 0.675
0.825 23.475 0.075
-9.075 27.375 0.825
-9.075 27.375 1.275
-9.075 27.375 0.375
-9.075 27.375 1.125
-9.075 27.375 0.075
-9.075 27.375 0.225
-9.075 24.975 0.375
1.425 27.375 0.375
-9.225 26.175 0.975
1.575 26.175 0.825
1.575 26.325 0.825
-8.325 29.175 0.675
0.675 29.175 1.875
1.575 26.475 1.425
1.575 26.475 0.375
1.575 26.475 0.825
1.575 26.475 1.275
1.575 25.875 0.825
-8.925 24.375 1.725
0.225 29.775 0.525
1.575 26.625 1.125
1.575 25.725 0.825
-9.075 27.525 1.275
-9.225 26.775 -0.075
-9.225 25.575 0.375
1.575 26.775 1.575
1.575 25.575 1.275
1.575 25.575 0.825
-8.025 29.625 0.975
0.975 23.625 -0.525
0.975 28.725 1.275
-8.625 28.725 0.525
-8.775 28.425 1.275
1.125 23.925 0.225
-9.225 26.925 2.475
1.575 26.925 0.525
-9.075 24.675 0.975
-8.925 28.125 1.125
0.525 22.875 0.225
0.525 29.475 1.575
-9.225 27.075 2.775
-9.225 27.075 -0.525
-9.225 25.275 0.525
-2.925 20.775 3.225
-9.225 25.125 0.675
-8.775 28.575 1.125
-8.775 23.775 1.125
1.425 27.825 0.825
1.425 27.825 1.125
0.975 23.475 1.125
0.975 23.475 0.075
-6.525 30.975 -1.425
-8.925 28.275 1.275
-8.925 28.275 0.825
-8.925 28.275 1.125
1.275 24.075 0.375
0.375 29.775 1.275
1.575 27.375 0.825
1.575 27.375 0.525
0.375 22.575 0.825
-8.475 29.175 0.675
1.425 27.975 1.725
1.425 27.975 0.975
1.425 27.975 0.675
1.725 26.175 0.525
-8.175 29.625 0.675
-9.375 26.325 0.375
-9.375 26.025 0.825
1.725 26.325 0.975
1.725 26.325 0.525
1.725 26.025 0.225
1.725 26.025 0.825
1.725 26.325 1.125
-9.375 25.875 0.375
-9.375 25.875 0.975
1.725 26.475 0.675
1.725 26.475 1.575
1.725 25.875 0.825
1.725 26.475 1.275
-9.225 27.525 0.075
-9.375 25.725 -0.375
1.125 23.625 1.875
1.125 28.725 2.775
-8.775 28.725 0.225
1.725 26.625 0.525
1.725 25.725 -0.825
1.275 23.925 0.525
-9.375 25.575 -0.525
0.975 23.325 1.575
0.975 23.325 0.225
1.725 25.575 0.825
-9.075 28.125 1.275
-9.075 28.125 0.225
-9.075 28.125 0.075
1.425 28.125 0.675
-9.375 25.425 0.375
1.725 26.925 1.425
1.725 25.425 0.525
1.725 25.425 0.825
-9.225 24.675 -0.375
-9.225 27.675 1.875
1.575 27.675 4.875
0.225 30.075 -0.075
-9.375 25.275 -0.825
1.725 27.075 0.975
1.275 28.575 4.125
1.275 28.575 1.425
-8.925 28.575 0.375
1.725 27.225 0.525
-9.075 28.275 1.275
-9.075 28.275 0.225
-9.075 28.275 0.825
-9.075 28.275 0.375
-9.075 28.275 0.075
1.425 28.275 0.975
0.675 29.625 2.025
-9.225 27.975 1.125
-9.225 27.975 1.275
1.575 24.375 -0.675
1.575 24.375 -0.075
1.875 26.175 0.825
1.875 26.175 0.675
1.875 26.025 -0.675
-8.475 29.475 -3.225
1.875 26.325 0.375
1.875 26.325 1.425
1.275 28.725 1.725
-9.525 26.025 0.075
1.875 26.475 0.525
1.875 26.475 1.125
1.875 26.475 0.675
1.875 25.875 0.825
-9.525 26.475 0.375
-9.075 28.425 1.275
-9.075 28.425 0.975
-9.075 28.425 0.225
1.875 26.625 0.375
1.875 25.725 0.825
1.875 26.775 0.675
1.875 25.575 1.275
0.375 22.275 0.675
-8.625 29.325 0.525
-9.225 28.125 -3.825
-9.225 28.125 1.125
1.575 28.125 1.275
-9.375 27.675 0.825
-9.375 27.675 1.725
-9.525 25.425 -0.225
0.675 22.575 1.275
1.875 27.075 1.125
1.275 28.875 3.375
1.875 27.075 0.675
-9.075 28.575 0.225
1.425 28.575 0.525
1.425 28.575 3.825
-9.375 27.825 2.325
-9.375 27.825 1.275
0.825 22.725 0.825
-9.225 28.275 -0.075
-9.225 28.275 0.075
-9.225 28.275 1.275
1.575 28.275 1.275
-9.525 27.375 -1.425
-9.525 27.375 2.625
0.975 22.875 1.275
-9.375 27.975 1.275
-9.375 27.975 0.375
-9.375 27.975 0.675
1.725 24.375 0.675
1.725 24.375 0.225
1.425 28.725 2.925
1.275 29.025 2.325
1.275 23.325 1.125
-6.075 31.575 2.775
2.025 26.175 0.975
2.025 26.175 0.675
-9.225 28.425 0.825
-9.225 28.425 0.375
1.575 28.425 1.875
2.025 26.025 0.825
2.025 26.025 0.675
2.025 26.325 1.575
2.025 26.325 1.275
2.025 26.325 0.525
-9.675 26.325 0.375
-9.675 26.325 1.275
-9.675 26.025 0.225
2.025 26.475 0.975
-9.525 24.825 0.375
-9.675 26.475 1.125
-9.675 25.875 1.125
-9.675 25.875 0.675
-9.675 25.875 0.975
2.025 26.625 1.575
2.025 26.625 0.675
2.025 25.725 1.275
-9.675 26.625 0.075
-9.675 25.725 0.975
-9.675 26.625 -0.525
-9.675 25.725 1.575
2.025 26.775 0.675
2.025 25.575 0.975
-9.675 26.775 0.075
-9.375 28.125 0.975
-9.375 28.125 0.375
1.725 28.125 1.275
-9.525 27.675 1.725
-9.525 27.675 1.275
1.875 27.675 0.675
2.025 26.925 0.525
2.025 26.925 0.975
-9.675 25.425 0.225
-9.075 28.875 -0.225
1.425 28.875 4.125
-9.225 28.575 0.525
1.575 28.575 2.175
1.575 23.775 -0.075
1.275 29.175 0.825
2.025 27.075 0.675
-9.675 25.275 -0.225
-9.375 28.275 1.125
-9.525 27.825 1.275
1.875 27.825 2.475
1.725 28.275 1.275
1.875 24.525 -0.375
1.875 24.525 -0.075
2.025 25.125 2.175
0.525 22.125 0.075
-8.775 29.475 1.275
-9.225 28.725 2.175
1.575 23.625 1.125
1.425 23.325 0.675
1.875 27.975 1.275
-9.375 28.425 0.075
1.725 23.925 0.675
1.725 23.925 2.175
1.725 28.425 1.275
-0.675 31.275 2.325
0.975 29.775 2.625
2.175 26.175 0.825
2.175 26.325 0.825
2.175 26.325 0.675
2.175 26.325 1.725
2.175 26.025 0.975
2.025 27.525 0.825
2.025 27.525 0.675
-9.675 27.525 0.975
-9.675 27.525 1.275
-9.675 24.825 1.275
-9.825 26.475 0.825
2.175 26.475 1.725
2.175 26.475 0.825
2.175 26.475 1.125
2.175 25.875 -0.075
2.175 26.475 0.525
2.175 26.475 1.275
2.175 25.875 0.225
-9.825 26.625 0.525
-9.825 26.625 0.375
-9.825 25.725 0.075
2.175 26.625 1.275
2.175 25.725 0.825
2.175 26.625 2.625
2.175 26.625 1.125
2.175 26.625 1.575
2.175 26.625 0.975
1.875 24.225 0.075
-9.525 28.125 0.525
-9.825 26.775 0.525
2.175 26.775 0.825
2.175 26.775 0.525
2.175 25.575 0.825
1.125 22.725 1.725
-9.225 23.475 1.725
-9.225 28.875 0.825
-9.675 27.675 1.725
-9.675 27.675 1.275
-9.375 28.575 0.525
-9.375 28.575 0.675
-9.375 28.575 0.975
1.725 28.575 1.275
2.175 25.425 0.525
2.175 25.425 0.825
1.725 28.575 1.725
1.725 28.575 1.575
1.725 28.575 2.475
1.725 28.575 2.025
1.425 29.175 0.675
2.175 26.925 0.825
1.725 23.775 0.825
1.725 23.775 -0.075
2.175 27.075 1.125
2.175 27.075 0.525
-9.525 28.275 0.375
-9.525 28.275 0.075
-9.525 28.275 0.525
-9.525 28.275 -0.075
-9.525 28.275 1.275
1.875 28.275 3.225
1.875 24.075 -0.225
1.275 22.875 -0.225
-9.525 24.075 1.275
-9.675 27.825 2.325
-9.675 27.825 2.175
-9.675 27.825 2.025
-9.675 27.825 1.275
-9.675 24.525 0.225
2.175 25.125 1.125
-9.225 29.025 1.725
1.575 29.025 2.925
1.725 23.625 0.075
1.725 28.725 2.625
2.175 24.975 1.725
2.175 27.375 0.975
2.175 27.375 0.525
-9.675 27.975 2.325
-9.675 27.975 1.275
-9.675 27.975 0.525
1.425 23.025 1.575
-9.525 28.425 0.225
1.875 28.425 1.275
-9.825 27.525 1.275
-9.825 24.825 0.975
2.325 26.175 0.825
2.175 24.825 0.975
2.325 26.175 1.275
2.325 26.325 1.575
2.325 26.325 0.975
2.325 26.325 0.675
2.325 26.025 0.825
2.325 26.325 0.825
-9.975 26.475 5.475
2.325 26.475 0.975
2.325 26.475 0.825
2.325 26.475 1.725
2.325 25.875 0.825
2.025 24.225 0.375
-9.975 26.625 0.525
-9.975 26.625 0.825
2.025 28.125 2.625
-9.675 28.125 0.975
-9.675 28.125 1.125
-9.675 28.125 0.525
2.325 26.625 1.275
2.325 26.625 -0.825
2.325 26.625 1.575
2.325 25.725 0.825
2.325 26.625 0.825
0.825 22.125 2.025
-9.375 28.875 0.975
-9.375 28.875 0.825
-9.375 28.875 0.525
-9.225 23.175 1.575
-9.225 29.175 0.525
-9.975 26.775 0.225
2.325 26.775 1.275
2.325 25.575 0.975
2.325 25.575 1.275
2.325 25.575 1.425
-9.825 27.675 0.975
-9.825 27.675 1.275
-9.825 27.675 -0.675
-9.525 28.575 1.125
-9.525 28.575 0.225
-9.975 25.425 1.575
2.325 25.425 0.525
2.325 25.425 0.825
2.325 26.925 0.525
1.425 22.875 0.975
2.025 28.275 1.125
2.025 28.275 0.525
2.325 27.075 0.525
-9.675 24.075 0.075
2.175 27.825 0.975
1.275 22.575 1.875
-9.525 28.725 1.125
1.875 28.725 1.275
1.875 28.725 1.725
-9.825 27.975 1.275
-9.825 24.375 0.225
-9.975 27.375 1.125
0.825 21.975 0.075
2.325 27.375 0.675
2.025 23.925 0.075
-9.675 28.425 0.225
-9.675 28.425 0.825
-9.675 23.925 0.675
-9.075 22.725 0.825
-9.975 24.825 0.975
2.475 26.175 0.825
2.475 26.175 1.125
2.475 26.325 0.975
2.475 26.325 0.825
1.125 22.275 0.975
1.875 23.475 -0.075
-9.525 28.875 1.725
-9.525 28.875 0.375
-9.525 28.875 1.125
-9.525 28.875 1.875
2.475 26.475 0.825
2.475 26.475 0.975
2.475 26.475 0.675
2.475 25.875 -0.375
-9.825 28.125 1.425
-10.125 26.625 0.675
-10.125 26.625 0.375
2.475 25.725 0.825
2.475 26.625 0.975
-9.675 28.575 0.525
-9.675 28.575 1.425
-10.125 25.575 1.125
-9.225 22.875 2.325
-10.125 26.775 0.375
2.475 26.775 0.975
2.475 25.575 0.825
1.575 22.875 1.575
-9.975 27.675 1.725
2.475 25.425 1.425
2.475 25.425 0.825
2.475 25.425 1.275
2.175 28.275 2.775
-9.825 24.075 0.075
2.175 24.075 0.525
1.425 22.575 1.575
-9.975 27.825 1.275
-9.975 27.825 0.525
-9.975 27.825 2.325
2.025 23.625 0.675
-9.675 28.725 0.825
-9.675 28.725 0.975
1.725 23.025 1.275
2.475 25.125 0.525
1.125 22.125 2.025
-9.825 28.425 1.575
-9.825 28.425 0.375
-9.825 28.425 0.075
-9.975 24.375 -0.225
-10.125 24.975 0.525
2.475 24.975 5.475
1.875 23.175 0.675
-9.525 29.175 1.125
-10.125 27.525 0.825
2.025 23.475 0.075
-9.675 23.475 0.525
2.625 26.175 0.975
2.625 26.175 0.675
2.625 26.175 0.825
2.625 26.325 0.975
2.625 26.325 0.825
2.625 26.325 1.125
2.325 24.225 0.075
-10.275 26.475 0.975
2.625 26.475 0.675
2.625 25.875 0.975
2.625 26.475 0.825
2.625 25.875 0.825
1.725 29.475 2.325
-10.275 26.625 1.275
-10.275 26.625 0.525
2.625 26.625 0.675
-10.125 27.675 1.725
-10.125 27.675 1.275
2.475 24.675 2.475
2.475 24.675 1.125
-10.275 26.775 0.675
-10.275 25.575 -0.525
-10.275 26.775 0.375
2.625 26.775 1.125
-10.275 25.425 0.825
2.625 26.925 1.575
2.625 26.925 0.675
2.625 26.925 0.825
-9.975 28.275 1.875
-9.975 28.275 0.525
2.325 24.075 -0.225
2.325 24.075 0.375
-10.125 27.825 -2.475
2.625 27.075 0.675
2.625 27.075 0.525
-10.275 25.275 1.275
-9.825 28.725 0.975
-9.825 28.725 0.525
-9.825 23.625 -2.775
1.725 29.625 3.075
1.425 22.275 1.725
-9.975 28.425 0.975
-9.975 28.425 0.375
-9.975 28.425 0.525
2.325 28.425 1.125
