# .PCD v0.7 - Point Cloud Data file format
VERSION 0.7
FIELDS x y z
SIZE 4 4 4
TYPE F F F
COUNT 1 1 1
WIDTH 2048
HEIGHT 1
VIEWPOINT 0 0 0 1 0 0 0
POINTS 2048
DATA ascii
9.975 37.425 -0.075
9.525 37.425 1.725
10.125 37.125 0.375
9.525 37.275 1.125
10.275 37.125 0.525
9.375 37.275 1.575
9.375 37.275 1.725
9.975 36.825 2.025
10.425 36.975 2.625
9.225 37.425 1.575
10.275 36.825 2.175
9.375 36.975 1.575
10.875 37.725 1.575
10.875 37.425 1.875
10.875 37.425 1.275
9.825 36.675 1.725
10.875 37.875 1.575
10.875 37.275 1.275
9.075 37.275 1.425
10.275 36.675 2.325
10.275 36.675 2.775
10.575 36.825 2.025
9.225 36.975 0.525
10.425 36.675 1.875
11.025 37.575 1.125
11.025 37.575 1.725
10.725 36.825 2.175
10.875 36.975 2.175
10.575 36.675 1.875
11.025 37.275 1.125
11.025 37.275 1.875
11.025 37.275 1.275
11.025 37.125 2.475
10.875 36.825 1.875
10.725 36.675 1.725
9.225 36.675 1.575
8.775 37.425 1.425
11.025 36.975 2.925
11.175 37.425 1.725
11.175 37.425 1.125
10.575 36.525 1.275
11.175 37.275 1.425
10.875 36.675 1.575
10.425 36.375 1.575
11.025 36.825 2.175
11.025 36.825 2.325
11.025 36.825 2.475
11.025 36.825 1.875
11.025 36.825 1.725
10.725 36.525 2.325
10.725 36.525 1.125
11.175 36.975 2.325
8.625 37.275 1.425
10.875 36.525 1.725
10.875 36.525 1.425
11.025 36.675 2.175
11.025 36.675 1.575
11.025 36.675 1.875
11.175 36.825 1.875
11.175 36.825 1.725
10.725 36.375 1.575
10.725 36.375 0.375
9.225 36.375 1.575
11.325 37.125 2.325
11.325 36.975 2.325
10.575 36.225 2.175
11.025 36.525 1.725
9.075 36.375 0.375
11.175 36.675 1.575
11.475 37.275 2.325
11.325 36.825 1.575
11.325 36.825 2.325
9.225 36.225 0.975
11.025 36.375 1.575
11.025 36.375 1.725
11.025 36.375 1.875
11.175 36.525 1.575
11.175 36.525 1.875
10.575 36.075 0.975
11.475 36.975 2.625
11.325 36.675 1.875
11.325 36.675 1.425
8.325 37.425 1.425
9.825 35.925 1.875
11.475 36.825 1.875
11.475 36.825 1.725
8.325 37.275 1.875
11.025 36.225 1.875
11.025 36.225 2.025
11.025 36.225 1.425
11.325 36.525 1.875
8.475 38.475 2.175
9.075 36.075 0.675
11.475 36.675 1.725
11.625 36.975 2.325
11.625 36.975 2.025
9.375 35.925 0.825
11.175 36.225 1.425
11.175 36.225 1.275
9.225 35.925 0.525
8.925 36.075 2.025
11.025 36.075 -0.075
9.525 35.775 1.425
8.325 38.475 2.175
11.775 36.975 2.175
11.325 36.225 0.675
11.325 36.225 1.275
11.475 36.375 1.425
11.625 36.525 1.725
11.025 35.925 0.525
9.675 35.625 1.875
10.725 35.625 0.675
9.075 35.625 1.725
11.775 36.375 1.725
8.925 35.625 1.575
11.025 35.625 0.225
9.975 35.325 1.575
9.375 35.325 1.575
9.675 35.175 1.575
9.525 35.175 1.575
11.025 35.325 -0.075
11.175 35.325 0.525
10.875 35.175 -0.375
12.525 37.875 3.375
12.525 37.275 1.575
12.525 37.125 1.125
9.525 35.025 1.425
9.375 35.025 1.425
11.025 35.175 0.225
12.675 37.875 -1.875
12.675 37.275 1.575
9.675 34.875 2.775
12.675 37.125 1.725
12.525 36.525 2.025
11.025 35.025 0.825
12.675 36.975 1.725
12.675 36.975 1.875
12.675 36.825 1.125
12.675 36.825 1.425
11.175 35.025 0.075
12.825 37.575 3.225
12.825 37.725 3.225
12.825 37.425 2.925
12.825 37.275 2.475
12.825 37.275 1.125
12.825 37.125 2.775
12.825 37.125 0.675
12.825 37.125 1.875
12.825 37.125 1.425
11.025 34.875 -0.075
12.825 38.175 0.075
12.825 36.975 2.625
12.825 36.975 1.875
12.825 36.975 1.575
12.825 36.975 2.025
12.825 36.975 1.725
12.825 36.825 1.875
12.825 36.825 -3.675
12.825 36.825 2.175
12.825 36.675 1.125
12.825 36.675 -0.375
12.975 37.425 1.575
12.975 37.425 2.475
12.975 37.275 1.575
12.975 37.275 1.275
11.325 34.875 0.375
12.975 38.025 1.125
12.975 37.125 1.725
12.975 37.125 1.275
12.975 37.125 1.425
12.975 37.125 2.175
12.975 37.125 1.575
12.975 37.125 2.325
12.975 37.125 1.875
12.825 36.525 1.125
12.975 38.175 0.675
12.975 36.975 1.125
12.975 36.975 1.875
12.975 36.975 1.575
12.975 36.975 2.025
12.975 36.975 2.475
12.975 36.825 1.725
12.975 36.825 2.475
12.975 36.825 1.275
12.825 36.375 0.075
11.175 34.725 0.225
12.975 36.675 2.175
12.975 36.675 0.975
12.975 36.675 1.275
12.975 36.675 1.725
12.825 36.225 1.725
13.125 37.725 6.975
12.825 36.225 0.075
13.125 37.725 4.425
13.125 37.425 1.575
13.125 37.425 1.725
13.125 37.425 1.425
13.125 37.275 1.425
13.125 37.275 2.925
13.125 37.275 1.275
13.125 37.275 1.575
12.975 36.525 1.125
12.975 36.525 1.425
13.125 38.025 4.575
13.125 37.125 1.125
13.125 37.125 3.075
13.125 37.125 1.575
13.125 37.125 1.425
13.125 37.125 1.725
13.125 36.975 1.125
12.825 36.075 1.725
12.825 36.075 2.175
12.975 36.375 0.675
12.975 36.375 -3.525
12.975 36.375 1.125
13.125 38.325 0.675
13.125 36.825 1.725
13.125 36.825 1.275
13.125 36.825 1.125
12.675 39.375 -0.375
13.125 36.675 1.725
13.125 36.675 1.125
13.125 36.675 1.575
12.975 36.225 0.825
12.975 36.225 1.125
12.975 36.225 -0.525
12.825 35.925 1.275
13.275 37.725 0.825
13.275 37.725 4.425
13.275 37.425 1.425
13.275 37.425 -3.675
13.275 37.275 1.725
13.275 37.275 1.575
13.275 37.275 1.425
13.275 37.275 -1.575
13.125 36.525 2.025
13.125 36.525 1.575
13.125 36.525 1.725
13.275 38.025 0.825
13.275 37.125 1.875
13.275 37.125 1.275
12.975 36.075 1.275
12.975 36.075 0.225
12.975 36.075 0.675
12.975 39.075 -0.375
13.275 36.975 2.475
13.275 36.975 1.575
13.275 36.975 0.075
13.125 36.375 1.725
13.125 36.375 2.175
13.125 36.375 1.425
13.125 36.375 1.575
13.125 36.375 -0.825
13.125 36.375 -3.675
13.275 36.825 2.475
13.275 36.825 0.525
13.275 38.325 4.575
13.275 36.825 1.725
12.375 35.175 1.575
12.225 35.025 0.975
12.675 39.675 0.225
13.275 38.475 -0.375
13.275 38.475 -0.225
13.275 36.675 1.725
13.275 36.675 1.275
12.975 39.225 -0.525
13.125 36.225 2.025
13.125 36.225 -3.375
13.125 36.225 -0.225
13.125 36.225 1.125
13.125 36.225 1.275
13.425 37.725 -1.575
13.425 37.425 1.575
13.425 37.875 0.375
13.425 37.875 0.675
13.425 37.275 3.375
13.275 36.525 1.275
13.275 36.525 2.625
13.275 36.525 1.725
13.425 37.125 3.525
13.425 37.125 1.125
13.425 37.125 1.425
13.425 37.125 2.025
13.425 37.125 2.325
13.125 36.075 0.975
13.425 38.175 0.675
13.425 38.175 4.575
13.425 36.975 -1.125
13.275 38.775 0.375
13.275 36.375 1.725
13.425 38.325 -0.525
13.425 38.325 -0.075
13.275 38.925 0.375
13.275 36.225 1.875
13.275 36.225 1.575
13.275 36.225 2.175
13.275 36.225 -0.825
13.275 36.225 1.425
13.275 36.225 2.475
13.425 36.675 2.925
13.575 37.575 -1.425
13.575 37.725 0.675
13.425 38.625 1.125
13.425 38.625 0.375
13.425 38.625 -0.225
13.425 36.525 1.875
13.425 36.525 1.125
13.575 37.875 3.075
13.575 37.275 0.525
13.575 37.275 -1.275
13.275 36.075 1.275
13.275 39.075 0.075
13.275 36.075 0.525
13.125 39.375 4.725
13.575 38.025 0.675
13.575 38.025 4.875
13.575 37.125 2.775
13.575 36.975 0.825
13.575 36.975 2.175
13.575 36.975 2.325
13.425 38.775 0.525
13.575 36.825 1.875
13.125 39.525 2.775
13.425 38.925 0.075
13.425 36.225 -3.525
13.425 36.225 1.275
13.425 36.225 -3.375
13.125 35.625 0.675
13.575 36.675 2.025
13.575 36.675 2.175
13.575 36.675 1.875
12.675 35.025 0.225
12.675 35.025 1.575
12.375 34.725 1.275
13.575 38.625 -0.375
12.225 34.575 0.825
13.725 37.725 0.225
13.725 37.425 -1.275
13.725 37.425 0.825
13.725 37.275 3.975
13.425 36.075 -0.075
13.425 39.075 -0.075
13.425 39.075 0.225
13.425 39.075 -4.425
13.725 37.125 -1.125
12.075 40.725 1.275
13.575 36.375 3.075
13.725 38.175 -0.075
13.725 36.825 1.575
13.425 35.925 0.225
13.425 35.775 -5.175
13.725 38.625 -0.225
11.025 41.325 1.425
13.575 39.075 -0.075
13.875 37.875 -0.525
13.875 37.275 -1.575
13.875 38.025 -0.075
13.875 38.175 -0.375
13.875 38.175 0.975
13.125 39.975 -0.225
11.325 33.825 5.775
13.725 36.225 1.125
13.725 36.225 1.875
13.275 39.825 0.375
13.275 39.825 0.075
13.275 39.825 -0.075
13.875 38.475 -0.375
13.875 38.475 -0.225
13.875 36.675 3.225
13.875 36.675 -1.275
13.875 38.625 -0.075
13.725 39.075 1.275
13.725 36.075 1.875
13.875 36.525 1.725
13.125 40.125 0.225
14.025 37.875 2.175
14.025 37.875 -0.225
14.025 37.275 0.225
14.025 38.025 -0.375
14.025 37.125 -0.825
13.575 39.525 -0.075
14.025 38.175 0.525
14.025 36.975 2.775
14.025 38.325 -2.775
14.025 38.475 -4.875
14.025 36.675 -0.075
14.025 36.675 2.775
13.725 39.375 -0.075
13.575 39.675 -0.225
13.575 39.675 0.525
13.275 40.125 0.225
13.875 39.075 0.675
14.025 36.525 1.725
14.175 37.575 0.225
13.425 39.975 -0.075
14.175 37.425 0.375
14.175 37.425 0.825
14.175 37.725 -0.225
14.175 37.425 1.275
14.175 37.725 0.375
14.175 37.875 0.375
14.175 37.875 -0.075
14.175 38.025 -3.975
13.875 35.925 -0.375
14.175 38.175 0.525
12.975 40.575 0.075
14.175 38.175 -0.225
14.175 38.175 0.675
14.175 36.975 -1.725
13.575 35.325 0.675
13.575 39.825 -0.225
13.275 40.275 -1.125
14.175 36.825 -0.975
14.175 38.325 -0.675
11.325 41.625 1.125
14.025 36.225 -0.525
14.175 38.475 0.525
14.175 38.475 -0.525
14.175 38.475 0.375
14.175 36.675 -0.075
14.025 36.075 0.075
13.575 39.975 -1.725
11.025 41.775 1.425
14.175 38.625 -0.225
14.175 36.525 5.325
14.175 36.525 -0.075
14.325 37.425 -3.975
14.325 37.425 -0.075
14.325 37.425 1.125
14.325 37.725 0.225
13.875 39.525 -0.225
14.325 37.875 0.075
13.875 35.625 1.575
13.875 35.625 -3.375
12.825 34.275 0.825
11.175 41.775 1.275
14.175 36.375 -0.375
14.325 38.025 0.075
14.325 38.025 0.675
13.725 35.325 1.125
13.725 35.325 2.175
14.325 37.125 -0.375
14.025 39.225 -0.375
14.025 39.225 0.525
14.025 35.925 -0.525
14.325 38.175 0.225
14.325 38.175 0.375
14.175 38.925 2.475
14.175 38.925 -0.075
14.175 38.925 2.325
14.325 38.325 2.475
14.325 36.825 -0.525
14.325 36.825 -0.075
13.875 39.675 -0.375
13.875 39.675 0.225
13.875 35.475 2.175
14.025 39.375 -0.225
14.025 35.775 -0.225
14.025 35.775 0.225
14.025 35.775 -3.375
10.875 41.925 1.875
14.325 38.475 -0.225
14.325 36.675 1.425
14.325 36.675 5.625
14.325 38.625 -0.825
14.325 38.625 -0.075
14.325 38.625 -0.375
14.325 38.625 0.675
14.325 38.625 0.225
14.025 39.525 2.025
14.025 35.625 0.075
14.475 37.575 0.675
14.475 37.575 0.225
14.475 37.725 0.375
14.475 37.725 5.325
14.475 37.875 5.925
14.475 37.875 -0.375
14.475 37.875 0.525
14.475 37.875 0.075
14.475 37.275 -3.825
14.475 37.275 0.075
14.325 36.375 -0.375
14.325 36.375 0.225
14.175 35.925 -0.075
14.475 38.025 -0.375
14.475 38.025 0.375
14.475 38.025 1.125
14.475 38.175 0.375
10.575 42.075 1.725
14.475 36.975 -1.875
14.475 36.975 0.825
14.325 38.925 -0.525
14.325 38.925 0.075
14.325 36.225 -0.375
14.025 39.675 -0.375
14.025 39.675 -0.075
14.475 36.825 0.975
14.475 38.325 0.375
10.725 42.075 1.425
14.475 38.325 0.525
14.475 36.825 0.825
14.475 36.825 -5.475
14.475 36.825 0.675
13.125 34.275 1.725
13.275 34.425 -0.675
13.275 34.425 4.125
13.875 39.975 -0.525
14.475 38.475 0.075
14.475 38.475 0.825
14.475 38.475 1.125
14.475 38.475 -0.075
14.475 36.675 5.625
14.475 36.675 0.375
14.325 39.075 0.075
14.475 38.625 -4.575
14.475 36.525 0.525
14.475 36.525 1.275
14.025 39.825 2.775
14.625 37.575 1.125
14.625 37.575 0.825
14.625 37.575 0.225
14.325 39.225 -0.525
14.625 37.425 0.825
14.625 37.425 1.125
14.625 37.425 1.575
14.625 37.725 -3.825
14.625 37.725 -0.375
14.475 38.775 0.675
14.475 38.775 0.075
14.475 36.375 -0.225
14.475 36.375 0.225
14.625 37.875 1.425
14.625 37.875 1.575
14.625 37.275 1.575
14.625 37.275 0.975
14.625 37.275 -2.025
13.875 35.025 -1.575
13.125 41.025 -0.225
14.625 38.025 0.825
14.625 38.025 1.125
14.625 38.025 -3.975
14.625 38.025 0.375
14.625 38.025 4.725
14.625 38.025 0.075
14.625 37.125 0.825
14.625 37.125 1.275
14.625 37.125 -0.825
14.625 37.125 0.525
14.625 37.125 1.125
14.625 37.125 0.975
14.625 37.125 0.675
13.575 34.575 1.275
14.625 38.175 -0.675
14.625 38.175 0.075
14.625 38.175 1.575
14.625 38.175 1.125
14.625 38.175 0.375
14.625 38.175 4.725
14.625 36.975 1.575
14.625 36.975 0.675
14.625 36.975 1.725
14.625 36.975 1.125
14.625 36.975 0.825
14.625 36.975 0.375
14.625 36.975 0.975
14.625 36.975 1.875
14.175 35.475 0.075
14.175 35.475 -0.225
14.475 38.925 1.425
14.475 38.925 0.075
14.475 38.925 0.975
14.475 38.925 0.675
14.475 38.925 -0.075
14.475 36.225 0.375
14.475 36.225 0.225
11.775 41.925 1.275
14.025 39.975 0.825
14.625 38.325 0.375
14.625 36.825 0.525
14.625 38.325 1.575
14.625 38.325 -0.825
14.625 36.825 1.125
14.625 36.825 0.975
14.625 38.325 1.425
14.625 36.825 0.825
14.625 36.825 0.675
14.625 36.825 1.725
14.625 38.475 0.075
14.625 38.475 1.125
14.625 36.675 0.975
14.625 36.675 0.825
14.625 36.675 1.725
14.625 36.675 1.575
14.625 36.675 0.075
14.625 36.675 0.375
14.475 39.075 1.425
14.475 39.075 0.975
14.475 36.075 -0.075
11.475 42.075 2.175
12.225 41.775 0.825
14.175 39.825 0.975
14.175 35.325 2.325
11.025 42.225 2.325
14.625 38.625 1.575
14.625 38.625 1.125
14.625 38.625 3.075
14.625 36.525 1.875
14.625 36.525 0.825
14.625 36.525 1.125
14.625 36.525 0.525
14.625 36.525 0.225
14.625 36.525 1.275
13.125 41.175 -0.375
13.575 34.425 4.575
13.575 34.425 -0.375
14.025 35.025 -1.575
14.025 35.025 -0.225
14.475 39.225 0.975
14.475 39.225 1.425
14.475 39.225 0.675
11.625 42.075 1.425
14.475 35.925 -0.525
14.475 35.925 0.975
14.775 37.575 0.075
14.775 37.575 1.275
14.775 37.575 -0.075
14.625 38.775 1.575
14.775 37.425 0.225
14.775 37.425 0.075
14.775 37.425 1.125
14.775 37.425 -0.225
14.775 37.425 1.575
14.775 37.425 -0.075
14.625 36.375 1.125
14.625 36.375 1.575
14.625 36.375 0.225
14.775 37.875 0.675
14.775 37.875 1.125
14.775 37.875 1.725
14.775 37.875 2.025
14.775 37.275 -0.825
14.775 37.275 0.825
14.775 37.275 1.125
14.775 37.275 2.175
14.775 37.275 1.725
14.775 37.275 0.675
14.775 37.275 1.425
14.775 37.275 1.575
14.775 38.025 1.125
14.775 38.025 0.675
14.775 38.025 0.225
14.775 38.025 0.075
14.775 37.125 0.375
14.775 37.125 0.525
14.775 37.125 0.975
14.775 37.125 -0.525
14.775 37.125 1.425
14.775 37.125 1.275
14.775 37.125 0.825
12.075 41.925 1.275
13.875 40.425 -0.825
14.325 35.475 -0.075
13.875 34.725 -0.375
12.375 41.775 0.525
14.775 38.175 0.675
14.775 38.175 6.075
14.775 38.175 2.175
14.175 39.975 0.675
14.775 36.975 0.375
14.775 36.975 0.075
14.775 36.975 1.425
14.775 36.975 1.875
14.775 36.975 0.975
14.775 36.975 0.525
14.775 36.975 1.275
14.775 36.975 1.725
14.775 36.975 0.825
14.775 36.975 0.675
14.775 36.975 1.125
14.175 35.175 -1.875
11.325 42.225 0.825
14.625 38.925 -0.225
14.625 38.925 1.575
14.625 38.925 1.425
14.625 38.925 0.975
14.625 38.925 0.675
14.625 36.225 1.725
14.475 39.375 -1.275
14.475 39.375 1.425
14.475 39.375 0.675
14.475 39.375 0.975
11.775 42.075 0.675
14.475 35.775 -0.375
14.475 35.775 -0.075
14.775 38.325 -4.575
14.775 36.825 0.225
14.775 38.325 2.025
14.775 38.325 1.125
14.775 36.825 0.825
14.775 36.825 1.125
14.775 36.825 0.975
14.775 36.825 0.675
14.025 40.275 -0.375
14.025 34.875 -0.225
14.025 34.875 0.075
13.425 41.025 0.075
13.275 41.175 -0.075
14.775 38.475 1.875
14.775 38.475 0.075
14.775 38.475 -0.225
14.775 38.475 1.125
14.775 36.675 1.125
14.775 36.675 2.325
14.775 36.675 0.675
14.775 36.675 0.975
13.575 34.275 0.525
11.475 42.225 1.275
14.625 39.075 1.575
14.625 36.075 0.075
14.625 39.075 1.125
14.325 35.325 0.525
14.475 39.525 0.675
14.475 39.525 0.975
11.925 42.075 1.425
11.925 42.075 1.125
11.025 42.375 2.025
11.025 42.375 1.575
14.175 40.125 0.375
14.775 38.625 1.725
14.775 38.625 1.875
14.775 36.525 1.725
14.775 36.525 3.825
14.775 36.525 2.175
13.875 34.575 -0.675
14.625 39.225 1.575
14.625 39.225 0.075
14.625 39.225 2.025
14.625 39.225 0.975
14.625 35.925 0.675
14.625 35.925 1.125
11.175 42.375 2.025
11.175 42.375 1.275
14.775 38.775 0.975
14.775 38.775 -0.075
14.775 36.375 0.825
14.775 36.375 1.125
14.775 36.375 2.325
14.925 37.575 0.075
14.925 37.575 0.525
14.925 37.575 0.225
14.925 37.575 0.975
14.925 37.425 1.125
14.925 37.725 0.825
14.025 34.725 -1.575
14.925 37.875 1.125
14.925 37.275 0.825
14.925 37.275 0.975
14.925 37.275 1.125
14.475 39.675 -0.975
14.475 39.675 0.975
14.475 35.475 -0.075
14.325 39.975 -0.225
14.325 35.175 2.325
14.325 35.175 2.025
14.925 38.025 -0.075
14.925 37.125 0.975
14.925 37.125 2.025
14.925 37.125 0.375
14.925 37.125 0.825
14.925 37.125 1.275
14.925 37.125 1.875
13.575 41.025 0.825
14.625 39.375 1.575
14.625 39.375 0.225
14.625 39.375 1.125
14.625 39.375 -0.075
11.775 42.225 1.425
14.625 39.375 0.975
11.775 42.225 0.975
14.775 38.925 0.975
14.625 39.375 0.075
11.775 42.225 2.025
14.775 38.925 1.875
14.775 38.925 2.025
14.625 39.375 0.675
14.925 38.175 1.125
14.925 38.175 0.075
14.925 38.175 0.975
14.925 38.175 -0.075
14.925 36.975 1.425
14.925 36.975 0.825
14.925 36.975 6.075
14.925 36.975 0.975
14.925 36.975 0.675
14.625 35.775 0.975
14.625 35.775 1.425
14.625 35.775 -0.225
14.625 35.775 0.225
14.175 40.275 0.075
14.175 40.275 -4.575
14.175 34.875 -0.225
13.725 34.275 2.625
13.725 34.275 3.675
10.725 42.525 2.775
14.925 38.325 0.075
14.925 36.825 0.825
14.925 36.825 1.125
14.925 36.825 0.525
14.925 36.825 0.225
13.875 34.425 -0.375
13.125 33.675 3.375
11.475 42.375 1.875
14.775 36.075 1.725
14.775 39.075 0.975
14.775 39.075 2.025
14.775 36.075 0.075
14.775 39.075 1.875
14.775 36.075 0.975
14.775 36.075 1.875
10.875 42.525 1.575
12.225 42.075 1.275
14.475 35.325 0.225
14.475 35.325 0.975
14.925 38.475 0.075
14.925 36.675 0.675
14.925 36.675 1.125
14.925 36.675 0.225
14.025 34.575 -0.075
14.325 40.125 -0.075
14.625 39.525 1.125
11.925 42.225 1.275
11.925 42.225 1.125
14.625 35.625 0.225
14.625 35.625 1.575
14.325 35.025 -0.225
11.025 42.525 1.425
11.025 42.525 2.325
11.025 42.525 2.175
14.925 38.625 0.975
11.625 42.375 1.425
11.625 42.375 2.475
11.625 42.375 1.125
14.175 40.425 -0.975
14.175 40.425 0.075
14.175 40.425 0.225
14.775 39.225 1.875
14.775 39.225 0.975
14.775 39.225 2.025
11.175 42.525 2.175
11.175 42.525 1.425
11.175 42.525 1.725
11.175 42.525 2.025
11.175 42.525 2.325
14.925 38.775 1.575
14.925 38.775 0.225
14.925 38.775 -0.225
14.475 39.975 -0.225
12.375 42.075 0.825
14.475 35.175 -0.225
14.475 35.175 1.275
14.625 39.675 1.125
14.625 39.675 1.575
12.075 42.225 0.975
15.075 37.425 0.675
15.075 37.725 0.675
15.075 37.725 -2.625
15.075 37.725 0.825
15.075 37.725 1.125
15.075 37.725 0.975
15.075 37.425 1.875
14.625 35.475 0.975
14.625 35.475 -0.075
15.075 37.275 0.375
15.075 37.275 1.125
15.075 37.275 -2.175
13.875 34.275 -0.375
13.875 34.275 0.225
14.325 40.275 1.425
14.325 40.275 0.525
14.325 40.275 0.075
15.075 38.025 0.975
15.075 38.025 -0.075
15.075 37.125 1.275
15.075 37.125 0.525
15.075 37.125 0.975
14.325 34.875 0.225
14.325 34.875 -1.275
11.775 42.375 0.825
14.775 39.375 0.375
14.775 39.375 2.325
14.775 39.375 -0.225
14.775 39.375 0.975
14.775 35.775 0.975
14.775 35.775 -2.775
14.775 35.775 -0.375
11.325 42.525 2.325
11.325 42.525 2.175
11.325 42.525 1.875
11.325 42.525 1.425
11.325 42.525 2.025
14.925 38.925 0.975
14.925 38.925 2.025
14.925 38.925 0.225
14.925 36.225 1.125
13.125 33.525 0.075
15.075 36.975 0.975
15.075 36.825 0.975
15.075 36.825 1.275
14.175 34.575 0.375
14.175 34.575 -0.075
12.975 33.375 0.375
12.225 42.225 1.425
12.225 42.225 0.825
14.625 35.325 0.075
14.625 35.325 1.425
14.625 35.325 0.975
14.625 39.825 1.425
14.625 39.825 1.575
14.475 40.125 0.675
14.925 39.075 0.975
14.925 36.075 -1.275
14.925 36.075 -3.225
14.475 35.025 0.075
15.075 38.475 0.225
15.075 38.475 0.375
15.075 38.475 -0.225
15.075 36.675 3.675
15.075 36.675 1.275
14.775 39.525 0.075
14.775 35.625 2.025
14.775 35.625 2.175
14.775 35.625 -2.325
13.725 41.175 0.675
13.575 33.825 -0.075
14.325 40.425 -0.075
14.325 40.425 0.975
14.325 40.425 0.675
14.325 34.725 -0.375
12.825 33.225 -0.075
12.825 33.225 0.375
15.075 38.625 2.325
15.075 38.625 0.825
15.075 38.625 2.925
15.075 36.525 -0.225
15.075 36.525 0.225
15.075 36.525 1.275
13.875 34.125 -0.075
13.875 34.125 0.225
13.875 34.125 -0.525
13.875 34.125 -0.225
11.625 42.525 1.575
14.925 39.225 0.375
14.925 35.925 0.075
14.925 35.925 2.025
14.025 40.875 -0.225
14.025 34.275 0.675
14.025 34.275 0.825
14.625 39.975 0.975
14.625 39.975 0.675
14.625 39.975 0.525
14.625 35.175 0.075
14.625 35.175 1.425
12.075 42.375 0.675
12.075 42.375 1.125
14.775 39.675 1.725
14.775 39.675 0.975
15.075 38.775 0.975
15.075 38.775 0.525
15.075 38.775 0.375
15.075 36.375 3.675
14.775 35.475 -2.775
14.775 35.475 0.225
14.775 35.475 -2.925
15.225 37.575 0.975
14.175 34.425 -0.225
15.225 37.875 0.975
15.225 37.275 0.825
11.775 42.525 1.425
11.775 42.525 1.275
14.925 39.375 0.375
14.925 35.775 1.875
15.225 38.025 0.975
15.225 38.025 0.225
15.225 37.125 1.125
15.225 37.125 1.275
15.075 38.925 4.725
15.075 38.925 0.975
15.075 38.925 0.825
15.075 36.225 0.375
14.325 34.575 5.025
15.225 36.975 1.125
15.225 36.975 -0.075
15.225 36.975 0.975
15.225 36.975 0.825
12.225 42.375 1.125
14.775 39.825 -0.375
14.775 39.825 0.975
14.775 39.825 1.575
14.775 35.325 1.875
14.775 35.325 0.525
14.625 40.125 0.975
14.625 40.125 1.425
12.525 42.225 0.225
15.225 36.825 0.975
15.225 38.325 4.725
15.225 38.325 0.975
15.225 36.825 1.125
14.625 35.025 -0.525
13.875 41.175 -0.225
15.075 36.075 1.125
14.025 41.025 -0.375
14.925 39.525 0.075
14.925 39.525 2.025
14.925 39.525 0.975
14.925 35.625 0.075
14.925 35.625 0.975
14.475 40.425 2.475
14.475 40.425 0.225
12.825 42.075 1.875
15.225 38.475 -0.225
15.225 38.475 0.975
14.475 34.725 0.075
14.475 34.725 0.375
15.225 36.675 0.825
15.225 36.675 0.975
14.175 34.275 0.525
15.225 38.625 0.225
15.225 38.625 0.525
15.225 38.625 0.975
11.025 42.825 1.425
15.225 36.525 1.125
15.225 36.525 0.075
15.225 36.525 1.275
15.225 36.525 0.375
15.225 36.525 0.975
15.075 39.225 6.375
15.075 39.225 -0.375
15.075 39.225 0.975
15.075 35.925 -0.225
15.075 35.925 -0.675
12.375 42.375 1.125
12.375 42.375 0.675
14.775 39.975 0.975
14.775 39.975 1.575
14.775 39.975 0.525
14.775 35.175 0.675
14.775 35.175 0.975
14.775 35.175 5.475
13.125 41.925 5.025
13.125 33.225 0.525
14.325 34.425 0.075
14.325 34.425 -0.225
14.625 40.275 0.975
14.625 40.275 0.675
14.925 39.675 0.375
14.925 39.675 0.975
14.925 39.675 2.025
14.625 34.875 -0.675
14.925 35.475 -0.225
15.225 38.775 0.975
15.225 36.375 1.275
15.225 36.375 0.975
15.225 36.375 0.225
15.375 37.575 0.975
15.375 37.575 0.825
15.375 37.725 1.425
15.375 37.725 4.425
11.775 42.675 1.425
9.675 42.975 0.975
10.275 42.975 -2.475
15.075 39.375 0.975
15.075 39.375 0.225
15.375 37.875 0.975
13.725 41.475 0.525
13.725 41.475 1.425
13.575 41.625 -0.225
15.375 38.025 0.075
15.375 38.025 -2.325
15.375 37.125 1.125
15.375 37.125 0.975
11.325 42.825 1.875
15.225 36.225 0.975
15.225 36.225 0.225
15.225 36.225 -2.025
15.225 36.225 -1.275
15.225 36.225 0.675
15.375 36.975 -0.375
15.375 36.975 1.125
14.175 41.025 0.225
14.775 40.125 1.125
14.775 40.125 0.975
14.175 34.125 0.225
14.175 34.125 0.375
14.175 34.125 0.075
14.775 35.025 1.575
14.775 35.025 2.025
12.225 42.525 1.125
14.925 39.825 0.975
14.925 35.325 -0.375
15.375 36.825 1.425
15.375 36.825 0.075
15.375 38.325 1.125
14.625 34.725 0.525
14.625 34.725 0.075
14.625 34.725 0.975
11.925 42.675 1.575
11.925 42.675 1.275
15.075 39.525 0.825
15.075 39.525 -0.225
15.075 39.525 0.525
15.075 39.525 2.025
15.075 39.525 0.975
15.225 39.075 1.275
15.225 39.075 0.975
14.325 34.275 0.525
14.325 34.275 -0.075
14.325 34.275 -0.225
15.375 36.675 1.575
15.375 36.675 0.075
15.375 36.675 1.125
14.475 40.725 0.225
14.475 34.425 0.225
14.925 39.975 0.225
14.925 39.975 2.025
15.375 36.525 1.125
15.375 36.525 -0.075
15.375 36.525 0.525
15.225 39.225 1.275
12.675 42.375 0.975
14.775 40.275 1.125
14.775 40.275 1.575
14.775 34.875 0.975
12.075 42.675 1.425
12.075 42.675 1.275
15.075 39.675 0.375
15.075 39.675 0.675
15.075 35.475 1.125
15.075 35.475 -0.525
15.075 35.475 0.225
14.025 41.325 0.225
13.725 33.525 -1.125
14.175 41.175 0.225
15.375 38.775 1.125
15.375 38.775 4.575
15.375 36.375 0.675
15.375 36.375 -2.325
15.375 36.375 0.825
14.175 33.975 0.225
14.175 33.975 0.075
13.575 33.375 0.525
14.625 40.575 0.225
14.625 34.575 -2.025
12.975 32.925 0.225
12.975 32.925 0.375
15.225 39.375 1.275
15.225 39.375 0.825
14.325 41.025 0.375
15.525 37.725 4.125
15.525 37.425 0.975
14.325 34.125 0.375
14.325 34.125 -0.225
13.425 33.225 0.225
15.375 36.225 1.125
15.375 36.225 1.275
12.525 42.525 0.975
14.925 40.125 0.075
14.925 40.125 2.025
15.525 37.125 1.125
15.525 37.125 0.675
14.925 35.025 2.025
14.925 35.025 0.975
15.075 35.325 -0.225
14.775 40.425 -0.075
14.775 40.425 0.825
14.775 40.425 0.225
14.775 40.425 1.425
15.525 36.975 1.125
15.525 36.975 0.825
15.525 36.975 2.175
14.775 34.725 0.975
10.725 43.125 2.475
15.225 39.525 0.825
15.225 39.525 1.275
11.925 42.825 1.425
15.525 38.325 0.975
15.525 38.325 4.575
15.375 36.075 0.975
15.375 36.075 0.375
14.625 34.425 5.325
13.875 41.625 1.275
15.525 36.675 1.275
14.025 33.675 2.625
13.725 41.775 -0.225
13.725 41.775 0.375
14.175 33.825 0.375
14.175 33.825 0.675
14.175 41.325 -0.225
12.375 42.675 1.575
12.375 42.675 -0.075
15.075 39.975 0.975
15.075 35.175 0.375
14.925 40.275 0.675
14.925 40.275 0.375
14.925 40.275 0.525
14.925 40.275 0.975
14.925 34.875 -0.225
15.375 39.225 0.975
14.325 33.975 -0.225
14.325 33.975 0.675
14.325 33.975 0.525
14.325 33.975 0.075
13.575 33.225 0.375
15.375 35.925 1.125
12.075 42.825 1.125
12.075 42.825 1.275
15.225 35.475 0.975
15.225 35.475 1.125
12.975 42.375 0.975
14.775 40.575 1.425
14.775 40.575 0.975
14.775 40.575 0.675
14.775 34.575 1.425
14.775 34.575 1.275
14.475 41.025 0.525
13.425 33.075 0.225
14.475 34.125 -0.225
15.525 38.775 0.525
15.525 36.375 1.275
15.675 37.575 3.975
12.525 42.675 1.425
12.525 42.675 1.125
12.525 42.675 0.225
15.075 40.125 0.975
15.075 40.125 -0.225
14.625 40.875 1.275
15.075 35.025 0.975
15.075 35.025 0.225
15.075 35.025 0.075
15.675 37.875 1.425
12.825 42.525 1.725
14.925 40.425 0.975
15.225 39.825 0.825
15.225 39.825 0.375
15.225 35.325 5.625
15.525 36.225 0.375
15.525 36.225 0.675
15.525 36.225 0.975
15.525 36.225 1.275
14.925 34.725 0.225
10.425 43.275 2.325
15.675 37.125 1.275
15.675 37.125 0.975
14.025 33.525 -0.075
14.025 33.525 0.075
10.575 43.275 2.325
15.675 36.975 1.125
15.675 36.975 1.275
15.675 36.975 1.575
15.375 39.525 0.525
11.925 42.975 1.575
14.775 40.725 0.975
13.725 41.925 -0.525
13.725 41.925 0.975
13.725 41.925 -1.125
14.325 33.825 0.525
15.675 36.825 0.825
15.525 39.075 -0.075
13.575 33.075 0.525
14.475 33.975 -0.375
14.475 33.975 -0.525
12.675 42.675 0.375
12.675 42.675 0.825
15.075 40.275 1.275
15.075 40.275 0.225
15.075 40.275 0.075
15.225 39.975 0.825
15.225 39.975 0.375
12.375 42.825 0.975
15.225 35.175 -0.375
15.225 35.175 1.425
15.225 35.175 -0.225
12.975 42.525 2.325
14.925 34.575 0.825
14.925 34.575 2.325
14.925 34.575 2.475
14.925 34.575 0.975
14.625 41.025 0.075
14.625 34.125 -0.075
15.525 35.925 1.125
13.425 32.925 1.125
15.375 39.675 0.975
15.375 39.675 0.525
12.075 32.175 2.775
12.075 32.175 4.725
15.675 36.525 0.225
11.175 43.275 4.125
14.775 40.875 0.225
14.775 40.875 0.075
15.675 36.375 -0.375
15.675 36.375 0.825
14.775 34.275 3.225
15.525 35.775 1.875
15.525 35.775 0.375
14.175 33.525 0.225
11.775 32.025 4.125
12.525 42.825 0.975
15.225 35.025 0.075
14.325 41.475 0.225
15.075 34.725 5.325
15.075 34.725 -1.575
14.325 33.675 0.825
12.225 42.975 1.275
15.375 35.325 0.975
15.375 35.325 -0.075
15.375 39.825 0.825
15.375 39.825 0.525
15.675 38.925 6.225
13.725 33.075 0.375
14.475 41.325 0.375
14.475 33.825 -0.375
15.825 37.275 0.975
15.675 36.225 0.225
10.425 43.425 2.325
14.925 40.725 0.525
14.925 40.725 0.975
14.925 40.725 0.225
14.925 40.725 1.425
14.925 34.425 1.425
14.925 34.425 0.225
15.825 36.975 1.125
14.625 33.975 0.525
14.625 33.975 -0.225
14.625 33.975 -0.075
14.625 33.975 -0.525
13.575 32.925 2.475
15.525 35.625 0.375
15.675 36.075 2.025
15.225 40.275 0.075
12.675 42.825 1.125
12.675 42.825 0.825
12.375 42.975 1.425
12.375 42.975 0.975
15.375 35.175 0.375
14.775 34.125 0.975
14.775 34.125 0.525
15.075 34.575 0.225
15.075 40.575 -0.225
15.075 40.575 0.225
15.525 35.475 0.975
15.675 35.925 0.675
12.075 32.025 4.125
14.175 41.775 1.425
14.175 41.775 0.525
14.175 33.375 0.075
14.025 41.925 -0.225
14.025 41.925 0.075
14.325 41.625 -0.225
15.825 36.525 0.975
15.825 36.525 0.525
14.025 33.225 0.675
14.025 33.225 0.375
14.025 33.225 0.075
14.325 33.525 0.075
14.325 33.525 0.825
14.925 40.875 1.425
14.925 34.275 0.525
14.925 34.275 0.975
14.925 34.275 1.425
14.475 41.475 -0.075
14.475 41.475 1.575
14.475 33.675 0.225
12.525 42.975 0.375
12.525 42.975 1.725
15.375 40.125 0.825
15.375 40.125 1.125
15.825 36.375 1.125
15.825 36.375 0.525
15.225 40.425 0.975
15.225 40.425 0.075
12.825 42.825 0.825
12.825 42.825 0.375
14.625 41.325 0.975
15.225 34.725 2.025
15.225 34.725 0.825
13.725 32.925 -1.725
15.525 35.325 1.125
12.225 32.025 4.425
13.125 42.675 0.375
13.125 42.675 0.075
15.075 40.725 0.975
15.075 34.425 2.025
15.075 34.425 0.975
15.075 34.425 1.875
14.775 33.975 0.975
14.775 33.975 0.525
15.825 36.225 1.575
15.825 36.225 -2.175
9.675 43.575 0.825
15.975 38.025 -0.075
15.675 35.625 1.275
9.375 43.575 1.275
14.925 41.025 -0.075
14.925 41.025 1.425
14.925 41.025 0.975
14.925 34.125 1.725
14.925 34.125 0.975
15.375 40.275 -0.075
15.375 40.275 0.825
15.375 34.875 2.925
15.825 36.075 2.175
15.825 36.075 1.425
14.325 41.775 0.675
14.175 41.925 -0.375
12.375 43.125 0.975
15.225 40.575 0.975
12.975 42.825 0.375
12.975 42.825 0.975
14.175 33.225 0.375
14.175 33.225 -0.075
15.525 35.175 -0.075
15.525 35.175 -0.225
14.025 42.075 -0.075
14.475 33.525 0.225
14.475 33.525 2.775
14.475 33.525 0.675
14.475 33.525 1.875
14.475 33.525 0.825
14.625 41.475 -0.225
14.625 41.475 -0.075
14.625 33.675 0.225
13.875 32.925 0.075
12.075 43.275 1.725
15.075 40.875 1.575
15.075 40.875 0.975
15.675 35.475 1.425
13.725 42.375 -0.975
15.975 36.525 0.825
12.825 42.975 1.575
12.825 42.975 1.125
15.375 34.725 0.825
12.525 43.125 0.525
12.525 43.125 1.275
15.525 35.025 6.075
15.975 36.375 0.675
15.975 36.375 0.375
14.925 41.175 0.675
14.925 41.175 0.975
14.925 33.975 0.825
14.925 33.975 1.725
14.925 33.975 1.275
14.925 33.975 4.575
14.925 33.975 1.425
15.225 34.425 0.825
15.225 34.425 -0.225
12.225 43.275 1.575
12.225 31.875 1.725
9.975 43.725 0.825
8.625 43.575 0.525
9.825 43.725 0.825
14.475 41.775 -0.375
14.175 33.075 -0.075
14.475 33.375 1.575
15.075 41.025 -0.075
15.075 41.025 0.975
15.075 41.025 0.075
15.075 41.025 1.425
14.625 41.625 -0.075
10.425 43.725 2.625
14.625 33.525 3.975
12.675 43.125 1.275
12.675 43.125 0.975
12.675 43.125 1.125
12.975 42.975 1.275
12.975 42.975 0.825
15.375 34.575 0.975
15.375 40.575 0.825
15.375 40.575 0.675
14.775 41.475 0.075
15.975 36.075 -0.075
15.975 36.075 0.975
9.225 43.725 -0.075
15.225 40.875 0.975
15.225 34.275 -0.525
15.225 34.275 -0.375
15.225 34.275 5.325
14.925 41.325 -0.975
14.925 33.825 1.275
14.925 33.825 1.425
14.925 33.825 1.125
14.925 33.825 0.975
13.725 32.625 -0.225
12.075 31.725 3.825
16.125 36.675 1.575
15.975 35.925 0.975
15.975 35.925 1.875
15.975 35.925 -1.875
11.625 31.575 2.475
12.825 43.125 1.425
12.825 43.125 1.275
15.525 40.425 0.825
16.125 38.625 1.575
15.075 41.175 1.425
15.075 41.175 0.975
15.075 33.975 0.975
15.075 33.975 0.825
15.075 33.975 4.575
12.525 43.275 1.125
12.525 43.275 0.525
15.675 35.025 -0.525
15.375 40.725 -0.225
15.375 40.725 0.825
15.375 34.425 1.875
14.325 33.075 0.075
14.325 33.075 -0.225
14.325 42.075 0.825
14.175 42.225 -0.075
14.175 42.225 -0.225
16.125 36.375 0.675
16.125 36.375 1.125
14.625 33.375 0.225
14.625 33.375 0.375
14.625 33.375 1.125
14.625 33.375 2.475
14.625 33.375 -0.075
14.175 32.925 0.075
14.175 32.925 0.525
14.175 32.925 -0.375
12.225 43.425 1.575
12.225 43.425 1.275
15.825 35.325 -0.675
14.775 41.625 -0.375
14.025 42.375 -0.075
14.025 42.375 -0.225
15.225 41.025 1.875
15.225 41.025 0.825
15.225 41.025 2.025
15.225 41.025 1.725
15.225 34.125 4.875
15.225 34.125 4.725
15.225 34.125 0.675
14.925 41.475 2.325
14.925 33.675 1.425
12.675 43.275 1.125
12.975 43.125 0.975
12.975 43.125 1.275
12.975 43.125 0.825
15.975 35.625 -1.725
15.525 40.575 0.825
16.275 37.125 0.375
16.275 37.125 0.825
16.275 37.125 1.875
16.275 37.125 -2.325
12.375 43.425 0.825
12.375 31.725 3.975
15.825 35.175 3.375
15.375 40.875 0.375
15.375 40.875 0.825
15.375 40.875 0.675
15.375 34.275 0.825
15.375 34.275 0.675
15.075 33.825 1.875
15.075 33.825 0.825
15.075 41.325 1.275
15.075 41.325 -0.375
15.075 41.325 0.975
13.725 32.475 -1.275
16.275 36.825 0.525
12.075 31.575 3.825
14.475 42.075 1.575
14.475 33.075 5.625
15.225 41.175 0.825
15.225 33.975 4.575
15.225 33.975 4.425
15.225 33.975 4.875
14.625 33.225 -0.075
14.625 33.225 0.075
14.625 33.225 -0.225
14.325 32.925 0.375
12.825 43.275 1.275
12.825 43.275 1.125
14.175 42.375 -0.075
14.775 33.375 -0.825
14.775 33.375 -0.525
14.775 33.375 -0.975
12.525 43.425 1.275
15.525 40.725 1.125
15.525 40.725 0.825
15.825 35.025 -0.375
15.825 35.025 -0.675
12.525 31.725 1.725
14.925 33.525 2.175
14.925 33.525 0.525
14.925 33.525 2.025
15.375 41.025 1.875
15.375 41.025 0.825
15.375 41.025 0.975
15.975 35.325 -1.875
15.375 34.125 0.825
16.125 35.775 0.975
12.225 31.575 3.675
15.075 41.475 0.675
15.075 41.475 0.975
13.875 32.475 -0.225
15.075 33.675 1.575
15.075 33.675 0.825
15.075 33.675 0.525
15.075 33.675 0.675
15.075 33.675 2.025
12.975 43.275 2.175
15.825 34.875 0.075
12.675 31.725 1.725
12.675 31.725 2.175
15.225 41.325 0.975
15.225 41.325 0.075
15.225 41.325 -0.075
15.225 33.825 0.375
15.225 33.825 0.825
16.125 35.625 1.125
15.525 40.875 0.675
16.425 37.275 0.525
15.525 34.275 5.175
15.525 34.275 -0.375
15.525 34.275 -1.425
12.375 43.575 1.275
12.375 43.575 0.975
12.375 31.575 1.425
16.425 37.125 0.375
16.425 37.125 0.525
14.625 42.075 -0.675
14.475 32.925 -0.075
11.475 43.875 1.275
14.775 41.925 0.525
14.775 33.225 -0.375
15.375 41.175 0.975
15.375 41.175 0.075
15.375 33.975 -0.375
14.175 42.525 -0.375
14.925 33.375 -0.225
12.075 31.425 2.925
12.075 31.425 1.875
12.075 31.425 3.825
12.825 43.425 0.975
12.825 43.425 1.875
13.125 43.275 0.975
13.125 43.275 -0.975
15.675 40.725 4.425
15.075 33.525 0.975
15.075 33.525 1.425
12.525 43.575 1.275
15.975 35.025 -0.825
12.525 31.575 -0.225
15.525 41.025 0.225
15.525 41.025 0.675
16.425 36.525 4.875
15.525 34.125 -0.375
15.525 34.125 0.075
15.525 34.125 0.825
15.225 41.475 1.275
15.225 41.475 1.425
15.225 41.475 0.975
15.225 41.475 -0.525
15.225 33.675 0.825
15.225 33.675 1.725
12.225 31.425 3.375
12.225 31.425 3.525
11.775 31.275 2.475
15.375 41.325 0.825
15.375 41.325 2.925
15.375 41.325 1.575
14.775 33.075 0.525
12.675 43.575 1.425
12.675 43.575 1.725
12.675 43.575 -0.075
14.775 42.075 -0.375
14.475 32.775 0.675
12.675 31.575 1.125
12.675 31.575 1.575
12.675 31.575 1.275
14.325 42.525 -0.075
14.925 41.925 -1.125
14.925 41.925 -0.225
14.925 41.925 0.525
14.925 33.225 -1.125
14.925 33.225 -0.375
14.325 32.625 0.825
11.925 43.875 0.375
12.375 31.425 3.675
12.375 31.425 1.725
12.375 31.425 1.575
12.375 31.425 3.075
12.375 31.425 2.925
14.175 42.675 -0.375
15.075 41.775 0.375
15.075 41.775 -0.225
16.575 37.275 1.275
15.075 33.375 2.025
15.075 33.375 1.575
15.525 41.175 0.375
15.525 41.175 0.675
16.575 37.125 0.825
16.575 37.125 0.525
11.475 31.125 0.375
15.225 41.625 0.675
15.225 41.625 0.975
15.225 41.625 0.075
15.225 41.625 0.375
14.025 32.325 -1.275
15.225 33.525 0.825
15.225 33.525 1.725
15.225 33.525 1.425
15.225 33.525 1.575
12.075 43.875 1.575
12.825 43.575 1.275
12.825 43.575 1.575
12.825 31.575 2.175
13.125 43.425 0.825
16.125 35.025 -0.525
12.525 31.425 1.425
12.525 31.425 2.775
12.525 31.425 0.825
16.425 35.925 -1.575
15.375 41.475 0.975
15.375 41.475 -0.075
16.575 36.675 1.275
16.575 36.675 2.475
15.375 33.675 1.875
15.375 33.675 0.675
15.675 41.025 0.375
15.675 41.025 0.225
14.475 42.525 0.075
12.225 43.875 0.375
12.225 43.875 1.575
12.225 31.275 2.175
15.525 33.825 -0.075
15.525 41.325 1.725
15.075 41.925 -0.075
15.075 41.925 0.225
15.075 33.225 2.925
12.975 43.575 1.125
12.975 43.575 2.025
12.975 43.575 0.975
12.975 43.575 0.525
16.125 34.875 -0.825
16.125 34.875 2.925
15.825 34.275 -0.825
12.675 31.425 2.025
12.675 31.425 1.425
12.675 31.425 1.275
15.225 41.775 0.225
15.225 41.775 -0.375
15.225 41.775 -0.225
14.175 42.825 -0.225
15.225 33.375 1.725
16.575 36.225 -0.675
12.375 43.875 0.525
12.375 43.875 1.125
15.675 41.175 0.525
15.675 41.175 -0.225
15.675 41.175 0.825
12.375 31.275 2.475
12.375 31.275 0.975
12.375 31.275 2.625
15.375 41.625 0.525
15.375 41.625 1.425
15.375 41.625 0.975
15.375 33.525 1.875
15.375 33.525 -0.375
15.375 33.525 0.675
16.725 37.275 1.575
16.725 37.125 1.125
16.725 37.125 0.375
16.725 37.125 1.425
16.725 37.125 0.825
15.975 40.725 0.825
12.825 43.725 1.575
12.825 43.725 1.125
12.825 31.425 0.675
12.075 44.025 0.975
12.075 44.025 0.825
15.525 41.475 0.825
15.525 41.475 0.075
12.075 31.125 1.725
15.525 33.675 1.425
15.525 33.675 -0.375
10.725 44.325 1.425
15.825 34.125 -0.525
15.825 34.125 -1.425
16.725 36.825 1.275
12.525 43.875 -0.075
12.525 43.875 0.975
12.525 43.875 1.425
12.525 31.275 0.825
12.525 31.275 0.525
12.525 31.275 1.875
15.075 42.075 -0.825
15.075 42.075 -0.075
15.075 42.075 0.225
15.075 33.075 -0.075
15.075 33.075 -0.375
15.075 33.075 0.075
16.725 36.675 0.225
15.225 41.925 -0.225
14.325 32.325 0.375
14.325 32.325 -0.225
15.225 33.225 0.975
15.225 33.225 2.325
15.225 33.225 0.825
15.225 33.225 0.525
15.675 41.325 0.825
15.675 41.325 0.675
15.675 41.325 2.025
15.675 33.825 -0.075
12.225 44.025 1.275
8.925 44.325 0.225
11.025 44.325 1.725
16.425 35.325 -0.675
12.225 31.125 0.375
11.775 44.175 1.275
15.375 41.775 -0.375
15.375 41.775 0.525
15.375 41.775 0.375
11.775 30.975 2.025
14.175 32.175 3.825
15.975 34.275 -0.525
13.275 31.575 1.275
12.675 43.875 1.425
16.275 34.875 3.225
12.675 31.275 1.875
12.675 31.275 2.325
12.675 31.275 2.175
13.575 43.425 4.875
15.825 41.175 0.975
15.525 41.625 0.825
15.525 33.525 0.675
11.925 44.175 0.975
11.925 44.175 1.125
16.425 39.975 2.325
14.775 42.525 1.125
14.775 42.525 -0.075
14.925 42.375 2.175
14.925 42.375 -0.225
14.775 32.625 0.075
15.075 42.225 -0.075
16.875 37.425 1.275
16.875 37.425 0.825
16.875 37.725 1.125
14.625 32.475 0.075
15.675 33.675 1.875
15.225 33.075 0.525
15.225 33.075 0.825
15.225 33.075 1.275
14.475 42.825 -0.225
15.225 42.075 -0.825
16.875 37.125 0.975
16.875 37.125 0.225
16.875 37.125 1.125
16.875 37.125 1.425
16.875 37.125 0.825
12.825 31.275 0.675
16.575 35.475 -2.775
16.875 36.975 0.825
16.875 36.975 1.725
12.075 30.975 0.675
12.075 30.975 0.525
15.375 41.925 0.825
14.325 42.975 0.225
15.375 33.225 0.975
12.525 44.025 0.525
12.525 31.125 0.975
12.525 31.125 1.725
12.525 31.125 1.875
12.525 31.125 2.025
15.525 41.775 1.425
15.525 41.775 0.675
15.525 41.775 0.825
15.525 41.775 -0.075
15.525 33.375 -0.525
15.525 33.375 0.825
15.525 33.375 -0.375
12.975 31.275 2.925
13.275 31.425 1.275
11.775 30.825 1.725
15.675 41.625 0.825
15.675 41.625 1.875
16.425 34.875 -2.325
12.675 31.125 4.125
12.675 31.125 1.425
15.975 41.175 2.025
13.575 31.575 0.075
15.075 42.375 0.225
15.075 32.775 1.725
15.075 32.775 0.075
15.225 32.925 -2.175
15.225 32.925 1.425
12.375 44.175 0.825
12.375 44.175 0.075
12.375 30.975 1.875
11.925 44.325 1.425
11.925 30.825 1.725
11.925 30.825 1.125
15.375 42.075 -0.375
15.375 33.075 0.825
14.475 32.175 -1.575
14.475 32.175 0.675
15.825 41.475 -0.225
15.825 41.475 0.675
15.825 41.475 0.825
13.125 31.275 3.375
17.025 37.575 0.525
15.525 41.925 1.425
15.525 41.925 1.275
15.525 41.925 0.825
17.025 37.425 0.825
17.025 37.425 2.025
17.025 37.425 1.725
17.025 37.425 1.575
15.525 33.225 0.675
16.125 34.125 -0.675
12.825 31.125 1.425
17.025 37.275 1.725
17.025 37.275 1.125
17.025 37.275 0.975
17.025 37.125 0.525
17.025 37.125 2.025
17.025 37.125 1.575
16.725 35.475 -2.475
12.075 30.825 0.975
12.075 30.825 1.575
12.075 30.825 1.275
12.525 44.175 1.425
12.525 44.175 0.825
17.025 36.975 0.975
17.025 36.975 1.125
17.025 36.975 0.675
17.025 36.975 0.825
15.975 41.325 2.175
15.975 33.825 -1.275
12.525 30.975 1.725
15.675 41.775 1.575
15.675 41.775 0.825
17.025 36.825 0.825
17.025 36.825 0.375
10.725 30.525 1.875
11.625 30.675 1.575
15.075 42.525 -0.075
14.925 32.475 0.225
15.225 42.375 -0.225
14.775 32.325 -1.725
14.775 32.325 -0.825
14.775 32.325 0.375
14.775 32.325 0.075
14.775 32.325 0.975
15.225 32.775 -2.175
15.225 32.775 -2.475
15.225 32.775 -0.075
15.225 32.775 -0.375
12.225 44.325 0.675
12.225 30.825 2.475
12.225 30.825 1.425
12.225 30.825 1.575
12.225 30.825 1.725
15.375 32.925 1.425
15.375 32.925 0.825
15.375 32.925 1.275
14.625 32.175 -0.225
11.775 44.475 0.675
16.575 34.875 2.175
12.675 30.975 2.175
15.525 42.075 -0.075
15.525 42.075 0.825
15.525 42.075 0.525
14.475 32.025 0.075
14.475 32.025 0.675
15.975 41.475 0.825
12.375 30.825 1.125
15.675 41.925 -0.075
15.675 41.925 -0.225
15.675 41.925 1.425
15.675 33.225 0.975
15.675 33.225 0.825
15.675 33.225 0.525
16.425 40.725 2.175
16.275 41.025 1.125
16.275 41.025 0.825
15.825 41.775 -0.675
15.825 41.775 0.825
15.825 33.375 0.825
15.825 33.375 -2.775
17.175 37.875 0.075
17.175 37.275 0.975
17.175 37.275 1.275
17.175 37.275 -0.225
11.475 44.625 1.125
15.075 42.675 -0.525
12.075 44.475 0.975
15.075 32.475 0.375
17.175 37.125 1.125
10.425 30.375 1.275
14.925 32.325 -0.225
14.925 32.325 -0.675
12.525 30.825 1.125
12.525 30.825 0.825
15.375 42.375 2.625
14.775 42.975 0.825
14.775 42.975 -0.225
17.175 36.975 5.175
10.575 30.375 1.125
15.375 32.775 -0.225
15.375 32.775 0.075
15.375 32.775 1.425
14.775 32.175 0.225
14.775 32.175 0.075
14.775 32.175 0.525
15.975 41.625 0.825
17.175 36.825 0.675
14.025 31.575 -0.075
14.625 32.025 -0.975
14.625 32.025 0.825
14.625 32.025 1.125
15.525 32.925 1.875
15.525 32.925 0.825
13.275 31.125 1.875
13.575 31.275 -0.375
12.225 44.475 1.275
15.675 42.075 0.975
15.675 42.075 1.425
14.475 31.875 -1.875
12.675 44.325 1.275
12.675 30.825 0.225
12.675 30.825 1.425
12.675 30.825 -0.525
12.675 30.825 1.125
12.675 30.825 2.175
11.025 44.775 1.575
11.775 44.625 0.525
11.775 30.525 1.425
16.125 33.675 1.275
15.825 41.925 1.725
15.825 41.925 0.825
11.175 44.775 1.725
11.175 30.375 0.825
12.375 44.475 1.125
16.575 34.425 -2.325
15.075 42.825 0.075
15.225 32.475 -0.225
15.975 41.775 0.825
15.975 41.775 -0.675
15.375 42.525 -0.225
