# .PCD v0.7 - Point Cloud Data file format
VERSION 0.7
FIELDS x y z
SIZE 4 4 4
TYPE F F F
COUNT 1 1 1
WIDTH 2048
HEIGHT 1
VIEWPOINT 0 0 0 1 0 0 0
POINTS 2048
DATA ascii
-29.925 17.325 -0.375
-30.075 17.325 -4.275
-29.925 17.175 -0.075
-30.075 17.325 -0.375
-29.775 17.325 0.225
-29.925 17.475 -3.975
-29.775 17.325 -0.075
-29.775 17.325 -0.375
-29.775 17.175 -0.225
-30.075 17.475 -3.825
-30.075 17.475 -1.575
-29.775 17.475 -0.225
-29.775 17.475 -0.075
-29.925 17.625 -3.975
-29.925 17.625 -0.675
-29.625 17.325 0.225
-29.625 17.325 -0.075
-29.925 17.025 -0.075
-30.075 17.025 -0.675
-30.225 17.175 0.075
-30.075 17.625 -0.375
-29.625 17.175 0.225
-29.775 17.025 -0.075
-29.775 17.625 -0.975
-29.775 17.625 -0.525
-29.625 17.475 0.375
-29.775 17.025 -0.225
-30.225 17.475 0.375
-29.625 17.025 -0.225
-29.625 17.025 0.075
-30.375 17.325 -0.075
-30.375 17.325 0.225
-29.925 17.775 -0.675
-30.375 17.175 0.375
-29.475 17.175 -0.075
-30.075 16.875 -3.525
-30.075 16.875 -0.675
-29.775 17.775 -1.575
-29.775 17.775 0.675
-30.375 17.475 -0.075
-29.475 17.475 2.925
-29.775 16.875 -0.075
-30.375 17.475 0.075
-29.475 17.025 0.525
-30.225 17.775 -2.175
-30.375 17.625 0.225
-30.375 17.025 -4.875
-30.375 17.625 0.375
-29.625 17.775 -0.825
-29.475 17.625 -1.275
-29.625 16.875 -0.075
-29.475 17.625 -3.525
-29.475 17.025 -0.075
-30.525 17.325 0.075
-30.525 17.325 0.225
-30.525 17.175 4.275
-30.525 17.175 -0.225
-30.525 17.175 0.075
-30.075 16.725 -0.675
-30.525 17.475 0.975
-30.525 17.475 0.675
-29.775 16.725 5.325
-30.525 17.475 0.225
-30.525 17.475 0.075
-30.225 16.725 -0.825
-29.625 16.725 0.075
-30.225 16.725 -0.375
-29.625 16.725 4.275
-30.525 17.025 0.075
-30.525 17.625 0.225
-30.525 17.625 0.075
-29.625 16.725 -0.675
-29.625 16.725 4.875
-29.325 17.025 0.375
-29.325 17.625 0.975
-29.325 17.625 -1.275
-30.375 16.725 3.825
-29.475 16.725 4.575
-30.525 16.875 -0.825
-29.475 16.725 5.175
-30.375 16.725 -0.525
-29.925 16.575 -0.975
-30.675 17.325 4.425
-30.675 17.325 0.225
-30.675 17.325 -0.075
-30.675 17.325 -0.375
-29.325 17.775 -0.825
-29.475 17.925 -0.975
-29.325 16.875 -0.225
-30.675 17.175 0.375
-30.675 17.175 -0.225
-30.675 17.475 -0.525
-30.675 17.475 0.225
-30.675 17.475 0.375
-29.175 17.475 2.325
-29.775 18.075 0.375
-30.675 17.475 0.075
-29.775 16.575 4.875
-29.175 17.475 -0.375
-29.625 16.575 -0.075
-30.675 17.025 -0.225
-30.675 17.025 0.075
-30.225 16.575 -0.825
-30.225 16.575 -0.675
-30.675 17.625 0.525
-29.625 18.075 -1.275
-30.675 17.025 -0.075
-29.175 17.025 -0.525
-29.175 17.625 -0.675
-30.225 18.075 -3.675
-30.675 17.625 0.075
-30.525 16.725 -0.675
-29.325 16.725 0.975
-29.475 16.575 0.375
-29.475 16.575 -0.225
-30.675 16.875 -0.075
-29.175 17.775 -0.825
-30.675 16.875 -0.675
-29.475 16.575 0.075
-30.675 17.775 0.375
-30.825 17.325 0.975
-30.825 17.325 0.375
-30.825 17.325 3.225
-30.825 17.325 0.075
-30.825 17.325 0.525
-29.025 17.325 0.825
-30.825 17.175 0.225
-30.825 17.175 0.375
-30.825 17.175 0.975
-30.825 17.175 -0.375
-30.825 17.475 -0.075
-29.775 16.425 -5.925
-30.825 17.475 0.375
-30.825 17.475 0.075
-30.825 17.475 0.675
-30.825 17.475 0.225
-30.825 17.475 0.525
-29.025 17.175 0.375
-30.075 18.225 -1.575
-29.025 17.175 -0.225
-30.075 18.225 -1.275
-29.025 17.475 -0.225
-29.025 17.475 0.375
-29.025 17.475 0.225
-30.825 17.625 0.075
-30.825 17.025 0.525
-30.825 17.025 1.275
-30.825 17.025 -0.075
-30.825 17.625 -0.375
-30.825 17.625 -0.075
-29.025 17.625 -1.125
-29.025 17.625 -0.675
-29.025 17.625 0.525
-29.025 17.625 -0.075
-29.025 17.025 0.825
-29.025 17.625 0.975
-29.175 16.725 -0.075
-29.325 16.575 0.225
-29.325 18.075 -1.425
-29.475 16.425 -0.075
-30.825 17.775 0.675
-30.825 16.875 -0.225
-29.025 17.775 -0.525
-29.025 17.775 -1.575
-29.025 16.875 0.225
-29.025 17.775 -0.375
-29.025 17.775 -0.675
-30.975 17.325 -0.225
-28.875 17.325 0.225
-29.925 18.375 -0.375
-30.975 17.325 0.375
-30.975 17.325 0.525
-28.875 17.325 -1.125
-28.875 17.325 0.675
-29.175 16.575 4.725
-30.675 16.575 -0.525
-30.075 18.375 -2.175
-30.975 17.175 0.525
-28.875 17.175 0.525
-30.075 16.275 -1.125
-30.975 17.175 0.675
-30.075 18.375 -1.275
-30.975 17.175 0.225
-28.875 17.475 -1.275
-30.975 17.475 0.225
-28.875 17.475 -0.375
-30.975 17.475 0.375
-29.775 16.275 0.075
-29.775 16.275 0.525
-28.875 17.475 -1.575
-28.875 17.475 0.825
-30.825 16.725 -0.375
-30.825 17.925 1.125
-30.825 17.925 0.225
-29.625 16.275 0.825
-30.975 17.625 -0.075
-30.975 17.025 0.825
-28.875 17.025 -1.125
-29.625 16.275 -0.975
-30.225 18.375 1.425
-30.225 18.375 -1.425
-30.975 17.625 0.375
-29.625 16.275 -0.375
-30.225 16.275 -1.425
-29.625 16.275 -0.225
-30.975 17.025 0.225
-30.975 17.625 0.675
-30.975 16.875 0.375
-30.975 17.775 0.225
-29.475 16.275 0.225
-30.975 17.775 0.675
-29.475 18.375 -1.275
-30.375 16.275 -0.975
-30.975 17.775 0.975
-30.975 17.775 -1.425
-30.975 17.775 -0.675
-30.375 16.275 0.225
-30.375 16.275 -1.275
-29.475 16.275 -0.375
-28.875 16.875 -0.375
-28.875 16.875 -0.075
-29.475 18.375 -1.125
-30.825 16.575 -0.525
-29.175 16.425 -0.525
-29.025 16.575 2.925
-29.025 16.575 -0.675
-31.125 17.325 -0.225
-31.125 17.325 -0.075
-28.725 17.325 0.825
-31.125 17.325 0.075
-28.725 17.325 0.975
-29.925 16.125 0.225
-31.125 17.325 0.975
-29.925 18.525 -0.975
-28.725 17.325 -0.075
-28.725 17.175 0.075
-31.125 17.175 3.075
-31.125 17.175 0.375
-31.125 17.175 1.125
-28.725 17.175 -0.225
-31.125 17.175 0.675
-30.075 18.525 -0.375
-28.725 17.175 -2.925
-30.975 16.725 -0.675
-31.125 17.475 0.525
-31.125 17.475 0.825
-31.125 17.475 0.375
-28.725 17.475 0.825
-31.125 17.475 -0.075
-28.875 16.725 -0.075
-29.775 16.125 -0.975
-28.725 17.475 2.925
-29.775 16.125 0.525
-28.875 16.725 -0.375
-30.525 16.275 -0.975
-29.775 18.525 0.075
-30.525 16.275 -1.125
-29.775 16.125 0.225
-28.875 16.725 -0.225
-28.725 17.475 -1.125
-28.875 16.725 0.675
-29.775 16.125 0.675
-28.875 17.925 -0.975
-29.325 16.275 0.375
-30.225 16.125 0.675
-30.225 16.125 -1.275
-28.725 17.625 -0.375
-29.625 16.125 0.075
-31.125 17.025 0.525
-31.125 17.025 -0.375
-28.725 17.625 -0.975
-29.625 16.125 -0.375
-29.625 16.125 0.825
-31.125 17.025 0.225
-28.725 17.025 0.525
-29.625 16.125 0.525
-31.125 17.025 0.375
-30.225 16.125 -1.125
-30.225 18.525 -0.225
-31.125 17.625 0.075
-31.125 17.025 0.675
-31.125 17.625 -0.525
-30.825 16.425 -0.975
-29.025 16.425 -5.025
-30.825 18.225 -1.575
-30.825 18.225 -0.375
-30.375 16.125 -0.675
-30.375 16.125 -0.975
-30.375 16.125 -1.275
-31.125 17.775 0.375
-29.475 16.125 0.225
-31.125 17.775 1.125
-31.125 16.875 0.075
-31.125 16.875 0.675
-31.125 16.875 0.825
-29.475 16.125 0.675
-28.725 17.775 -0.675
-30.675 16.275 1.575
-30.675 16.275 -0.825
-28.875 16.575 -0.375
-29.175 16.275 -0.525
-30.675 16.275 -0.675
-30.525 16.125 -0.975
-30.525 16.125 -0.825
-31.125 16.725 0.075
-28.725 16.725 0.525
-28.725 16.725 -0.525
-30.525 16.125 -0.675
-30.525 16.125 -1.425
-30.525 16.125 -1.125
-31.125 16.725 -0.225
-28.725 16.725 -0.225
-31.125 16.725 0.525
-31.125 16.725 0.975
-29.325 16.125 0.675
-31.275 17.325 -0.225
-31.275 17.325 -0.075
-31.275 17.325 0.525
-29.925 15.975 -0.825
-29.925 15.975 0.375
-28.575 17.325 -1.275
-28.575 17.325 0.525
-31.275 17.175 -0.075
-31.275 17.175 1.275
-31.275 17.175 0.675
-31.275 17.175 0.225
-31.275 17.175 0.975
-31.275 17.475 0.075
-31.275 17.475 -0.225
-31.275 17.475 0.675
-31.275 17.475 1.575
-30.075 15.975 -0.675
-28.575 17.175 0.825
-30.075 18.675 -0.225
-29.775 18.675 -0.225
-31.275 17.625 -0.225
-31.275 17.625 -0.525
-30.975 16.425 0.675
-28.875 16.425 -0.375
-30.825 16.275 -0.975
-28.875 16.425 -5.175
-30.225 15.975 -1.125
-29.625 15.975 0.675
-29.625 15.975 -0.225
-30.225 15.975 -0.975
-30.225 15.975 -0.825
-30.225 15.975 -1.275
-29.625 15.975 -0.375
-28.575 17.025 0.375
-28.575 17.025 0.525
-28.575 17.625 -3.225
-28.575 17.025 1.425
-29.025 16.275 -4.875
-29.175 18.525 -0.975
-31.125 16.575 0.975
-29.175 16.125 -0.975
-31.125 16.575 0.825
-31.125 16.575 0.675
-30.675 16.125 -0.825
-30.675 16.125 -0.675
-29.175 18.525 -1.425
-31.125 16.575 -0.975
-29.175 18.525 -1.125
-29.175 16.125 -0.375
-31.275 16.875 0.975
-31.275 16.875 -4.575
-31.275 16.875 1.275
-31.275 16.875 1.125
-31.275 17.775 -0.525
-31.275 17.775 0.225
-29.475 15.975 -0.075
-30.375 15.975 -0.375
-30.375 15.975 0.675
-30.375 15.975 -0.975
-29.475 15.975 -0.825
-29.475 15.975 -0.225
-28.575 17.775 -0.675
-29.475 18.675 -0.825
-29.475 18.675 -1.125
-31.275 16.725 -0.225
-31.275 16.725 -0.675
-31.275 17.925 -0.525
-30.525 18.675 -1.125
-28.575 16.725 -1.125
-28.575 16.725 0.525
-28.575 16.725 -0.075
-28.575 16.725 0.075
-29.325 15.975 -0.075
-30.525 18.675 -0.975
-30.975 16.275 -1.275
-30.975 16.275 -0.825
-30.975 16.275 0.675
-30.975 16.275 0.075
-28.875 16.275 0.675
-31.125 16.425 0.375
-31.125 16.425 0.675
-30.825 16.125 -0.525
-30.825 16.125 -0.375
-31.125 16.425 0.525
-30.825 16.125 0.375
-31.125 16.425 0.975
-30.825 16.125 -0.675
-30.825 16.125 -1.275
-31.425 17.325 -0.225
-29.925 15.825 0.075
-29.925 18.825 -1.575
-31.425 17.325 0.675
-28.425 17.325 0.525
-31.425 17.325 0.825
-29.025 18.525 -1.125
-29.025 18.525 -0.975
-28.725 18.225 -1.425
-31.425 17.175 0.825
-28.425 17.175 0.675
-28.425 17.175 0.075
-31.425 17.475 -0.225
-31.425 17.475 -0.375
-31.425 17.475 0.225
-31.425 17.475 -0.075
-29.775 18.825 -0.825
-29.775 18.825 0.975
-31.425 17.475 0.075
-28.425 17.475 0.075
-31.425 17.625 -0.525
-31.425 17.625 -0.375
-31.425 17.025 2.775
-31.425 17.625 0.375
-31.425 17.025 0.975
-31.425 17.625 -0.225
-31.425 17.025 1.275
-29.625 15.825 -0.075
-31.425 17.025 0.525
-30.225 15.825 -0.825
-31.425 17.025 0.075
-28.425 17.625 -2.925
-29.625 15.825 -0.525
-29.625 15.825 0.225
-30.225 15.825 -0.675
-28.425 17.025 0.675
-31.275 16.575 1.125
-31.275 16.575 1.275
-31.275 16.575 0.975
-30.675 15.975 -1.275
-30.675 15.975 -0.975
-29.175 18.675 -0.825
-29.175 18.675 -1.425
-29.175 18.675 -1.275
-30.375 18.825 -1.875
-29.475 15.825 4.275
-31.425 17.775 -0.375
-31.425 16.875 1.125
-28.425 16.875 0.375
-31.425 16.875 0.975
-31.425 16.875 0.675
-31.425 16.875 0.375
-30.375 18.825 -2.175
-29.475 18.825 -1.275
-31.425 17.775 0.225
-31.425 16.875 0.075
-28.875 16.125 0.975
-30.975 16.125 -0.375
-30.975 16.125 -1.125
-30.975 16.125 0.675
-31.125 16.275 -0.375
-28.875 16.125 0.525
-31.125 16.275 -0.225
-31.125 16.275 1.575
-30.975 18.525 -1.125
-30.975 16.125 -1.275
-28.725 16.275 -0.525
-31.125 16.275 2.475
-31.125 16.275 0.525
-30.525 15.825 -1.125
-30.525 15.825 0.375
-28.425 16.725 0.375
-31.425 16.725 1.275
-31.425 16.725 1.125
-31.425 16.725 0.225
-31.425 17.925 -0.525
-29.325 18.825 -0.825
-29.325 18.825 -1.125
-31.425 17.925 -0.075
-31.275 16.425 1.125
-31.275 16.425 -0.975
-31.275 16.425 0.375
-31.275 16.425 0.975
-30.825 15.975 -5.175
-30.825 15.975 -0.225
-29.025 15.975 -0.075
-29.025 15.975 0.975
-29.025 15.975 0.825
-29.925 15.675 -0.525
-29.925 15.675 -1.125
-29.925 15.675 -0.825
-31.575 17.325 0.225
-31.575 17.325 0.375
-29.925 18.975 -0.675
-29.925 18.975 -0.375
-28.275 17.325 0.225
-30.075 15.675 -0.525
-31.575 17.175 0.675
-29.775 15.675 -0.825
-31.575 17.475 -0.075
-30.075 18.975 -0.825
-28.275 17.175 0.075
-30.075 18.975 -1.125
-28.275 17.175 -0.375
-29.775 18.975 0.075
-28.275 17.475 0.225
-29.775 18.975 -0.375
-31.575 17.625 0.225
-31.575 17.025 0.075
-29.625 15.675 -0.525
-30.225 15.675 -1.275
-30.225 15.675 0.075
-30.225 15.675 -0.525
-31.425 16.575 0.525
-30.675 18.825 -1.275
-30.675 15.825 -1.125
-30.675 15.825 -0.975
-31.425 16.575 2.025
-30.675 18.825 -1.125
-31.425 16.575 1.875
-31.425 16.575 1.275
-31.425 16.575 1.725
-31.425 16.575 0.675
-31.425 16.575 -0.075
-31.425 18.075 -0.525
-28.425 16.575 -0.675
-31.425 16.575 1.425
-29.175 15.825 -0.075
-28.425 16.575 0.525
-29.175 18.825 -0.375
-31.425 18.075 -0.225
-29.175 15.825 -0.675
-30.675 15.825 -0.825
-29.625 18.975 -2.025
-29.625 18.975 -0.675
-30.225 18.975 -0.375
-30.225 18.975 -0.825
-28.275 17.625 1.125
-28.725 16.125 0.525
-31.125 16.125 -0.975
-31.125 16.125 -0.825
-28.725 16.125 0.825
-31.125 16.125 2.625
-28.725 18.525 -2.175
-28.725 16.125 0.975
-31.125 16.125 -0.675
-28.725 18.525 -0.975
-29.475 15.675 -2.325
-29.475 15.675 -0.525
-31.575 17.775 -0.525
-31.575 16.875 1.125
-31.575 16.875 3.375
-31.575 16.875 0.075
-31.575 16.875 0.225
-31.275 18.375 -1.275
-31.275 16.275 0.225
-31.275 16.275 -0.525
-31.275 16.275 0.675
-31.275 16.275 -0.375
-31.275 16.275 1.725
-30.975 15.975 -0.375
-30.975 15.975 0.225
-30.975 15.975 -0.675
-30.975 15.975 -0.975
-30.975 15.975 -1.275
-28.575 16.275 0.675
-28.575 16.275 0.825
-30.375 18.975 -1.425
-30.375 18.975 -0.225
-30.375 18.975 -1.275
-30.375 18.975 -0.825
-29.475 18.975 -0.525
-28.275 17.775 -0.825
-31.425 16.425 2.475
-30.825 15.825 -0.675
-31.425 16.425 0.525
-28.425 16.425 0.825
-31.425 16.425 1.275
-31.425 16.425 0.675
-30.825 18.825 -0.675
-29.025 18.825 -1.275
-29.025 18.825 -0.525
-31.425 18.225 -1.425
-29.025 15.825 -0.225
-29.025 15.825 4.275
-30.525 15.675 -0.825
-30.525 15.675 -0.075
-31.575 16.725 0.525
-31.575 16.725 0.825
-31.575 16.725 1.425
-31.575 16.725 1.125
-31.575 16.725 0.075
-31.575 16.725 -0.075
-30.525 18.975 -0.225
-30.525 18.975 -0.675
-28.275 16.725 0.675
-29.325 18.975 -0.225
-29.325 18.975 -1.275
-29.325 18.975 -1.575
-29.325 18.975 -1.425
-29.925 15.525 -0.675
-29.925 15.525 -0.525
-28.125 17.325 0.225
-28.125 17.325 0.525
-28.125 17.325 0.675
-29.925 19.125 0.375
-29.925 19.125 -0.225
-31.275 18.525 -1.425
-31.275 16.125 0.675
-29.775 15.525 0.075
-29.775 15.525 1.125
-29.775 15.525 0.225
-31.125 15.975 0.375
-28.725 15.975 0.525
-31.125 15.975 -0.675
-28.125 17.175 -0.825
-28.125 17.175 -0.375
-28.125 17.175 0.675
-28.125 17.175 1.275
-28.575 16.125 1.275
-28.575 16.125 1.125
-31.725 17.175 -0.675
-30.075 19.125 -0.825
-29.775 19.125 -0.375
-31.725 17.475 -4.875
-31.725 17.475 0.375
-31.575 16.575 1.575
-31.575 16.575 1.725
-30.675 15.675 -1.125
-30.675 15.675 -0.075
-31.575 16.575 0.075
-31.575 16.575 -0.075
-29.175 15.675 0.225
-29.175 15.675 -0.075
-31.575 16.575 0.675
-29.175 18.975 -0.675
-29.175 18.975 -0.225
-30.675 18.975 -1.125
-30.675 18.975 -0.375
-30.675 18.975 -0.675
-30.675 18.975 -0.825
-29.625 15.525 -1.725
-29.625 15.525 -0.225
-29.625 15.525 -0.075
-30.225 15.525 -0.675
-31.725 17.625 -0.375
-31.725 17.625 -0.075
-31.725 17.625 0.225
-29.625 19.125 -0.375
-29.625 19.125 0.225
-31.725 17.625 0.375
-28.125 17.025 -0.375
-30.225 19.125 -1.425
-31.725 17.625 -0.525
-30.225 19.125 0.225
-30.225 19.125 -1.275
-31.725 17.025 0.975
-28.125 17.625 1.275
-30.975 18.825 -1.575
-30.975 15.825 -0.075
-28.875 18.825 -1.125
-30.975 15.825 -0.825
-31.425 18.375 -1.425
-31.425 18.375 -3.525
-28.425 18.375 -1.125
-31.425 16.275 -1.125
-31.425 16.275 -0.525
-31.425 16.275 0.375
-31.425 16.275 -0.675
-29.475 15.525 -0.075
-29.475 15.525 -0.525
-29.475 15.525 -1.125
-29.475 15.525 0.075
-29.475 15.525 0.225
-29.475 15.525 -2.175
-30.375 19.125 -0.375
-30.375 19.125 0.075
-30.375 19.125 -1.575
-30.375 19.125 0.525
-31.725 16.875 1.875
-29.475 19.125 0.375
-29.475 19.125 0.225
-29.475 19.125 1.425
-31.725 17.775 -0.075
-31.725 17.775 -0.225
-31.575 16.425 1.125
-31.575 16.425 1.425
-31.575 16.425 0.675
-30.825 15.675 -0.675
-29.025 15.675 0.675
-29.025 15.675 0.825
-30.825 18.975 -1.125
-30.825 18.975 -0.225
-29.025 18.975 0.075
-29.025 18.975 1.875
-29.025 18.975 -0.225
-30.525 15.525 -1.275
-30.525 15.525 -0.975
-29.325 15.525 -0.525
-30.525 19.125 -0.225
-30.525 19.125 -1.275
-31.725 16.725 -0.525
-29.325 19.125 -0.225
-29.325 19.125 -1.275
-31.725 17.925 -4.425
-31.725 17.925 -3.375
-31.275 15.975 -0.975
-31.275 15.975 -0.075
-31.275 15.975 -0.825
-31.275 15.975 -0.375
-28.575 15.975 1.425
-28.575 15.975 0.675
-28.575 15.975 0.975
-28.575 15.975 1.125
-28.575 18.675 -1.425
-31.425 16.125 -0.525
-28.425 18.525 -0.225
-28.425 16.125 0.675
-31.425 16.125 -0.975
-31.425 16.125 0.525
-31.125 18.825 -1.425
-31.425 16.125 -1.575
-28.725 18.825 -0.075
-31.125 15.825 -0.525
-31.125 15.825 -0.675
-31.125 15.825 -0.975
-28.725 15.825 0.975
-28.725 15.825 -0.375
-30.675 15.525 -0.075
-29.175 15.525 0.225
-27.975 17.325 1.575
-29.925 19.275 -1.425
-27.975 17.325 -0.075
-27.975 17.325 0.525
-31.875 17.325 0.525
-30.675 19.125 -2.325
-30.675 19.125 0.225
-29.175 19.125 -1.125
-29.175 19.125 0.375
-31.725 16.575 -0.675
-31.725 18.075 -1.575
-28.125 16.575 0.525
-30.675 19.125 -1.275
-27.975 17.175 0.825
-27.975 17.175 0.075
-27.975 17.175 1.425
-27.975 17.175 0.525
-31.575 16.275 -0.675
-30.975 15.675 -0.825
-30.975 15.675 -1.125
-27.975 17.175 1.275
-28.875 15.675 1.575
-31.575 16.275 2.475
-31.875 17.175 0.825
-31.875 17.175 -0.525
-31.575 18.375 -1.425
-30.075 19.275 -0.375
-29.775 19.275 -0.975
-29.775 19.275 -1.275
-29.775 19.275 -1.425
-27.975 17.475 0.525
-27.975 17.475 0.675
-28.875 18.975 -0.675
-28.875 18.975 -0.975
-28.875 18.975 -0.375
-28.875 18.975 -1.125
-30.975 18.975 -1.425
-30.975 18.975 -0.225
-30.975 18.975 -1.275
-28.275 16.275 0.975
-28.275 16.275 1.425
-28.275 18.375 0.825
-29.625 19.275 0.675
-30.225 19.275 -0.375
-27.975 17.025 1.725
-27.975 17.025 0.675
-27.975 17.025 0.825
-29.625 15.375 -0.375
-31.875 17.025 0.375
-27.975 17.625 0.525
-30.375 19.275 -0.975
-30.375 19.275 -1.125
-29.475 19.275 -0.075
-29.475 19.275 -0.375
-29.475 19.275 0.375
-29.475 15.375 0.075
-31.875 17.775 -0.675
-29.475 15.375 -0.675
-31.875 16.875 0.525
-31.875 17.775 0.375
-31.875 16.875 0.375
-30.375 15.375 -1.125
-31.875 16.875 0.675
-30.825 15.525 -0.975
-30.825 15.525 -0.525
-30.825 19.125 -1.275
-30.825 19.125 0.075
-30.825 19.125 -0.225
-31.725 16.425 0.975
-31.725 16.425 0.075
-31.725 16.425 1.425
-28.125 16.425 1.275
-28.125 16.425 -0.675
-29.025 19.125 -0.375
-29.025 19.125 0.225
-29.025 19.125 0.375
-29.025 19.125 -0.225
-31.725 18.225 -1.125
-28.125 18.225 -1.125
-31.275 15.825 -0.675
-31.275 18.825 -1.725
-31.275 15.825 -0.825
-31.275 18.825 -1.575
-28.425 15.975 -0.075
-28.425 15.975 0.975
-28.425 15.975 1.125
-31.425 15.975 0.975
-31.425 15.975 -1.275
-31.425 15.975 -2.175
-31.425 15.975 -0.525
-28.575 18.825 -0.675
-28.575 18.825 -1.125
-28.425 18.675 0.075
-28.575 15.825 -0.525
-28.575 15.825 1.425
-28.575 15.825 -0.225
-31.575 18.525 -1.275
-31.575 16.125 1.125
-31.575 18.525 -1.125
-31.575 16.125 -0.225
-30.525 19.275 0.675
-30.525 19.275 -0.975
-30.525 19.275 -0.225
-31.875 16.725 0.525
-27.975 16.725 0.075
-30.525 19.275 0.825
-28.275 16.125 1.275
-31.125 18.975 -1.425
-28.275 16.125 -0.075
-28.275 16.125 1.425
-30.975 15.525 -0.375
-30.975 15.525 0.075
-28.875 19.125 -1.425
-28.875 19.125 -1.275
-28.875 19.125 0.075
-28.875 19.125 0.225
-30.975 19.125 -1.425
-30.975 19.125 -0.225
-28.875 19.125 -0.375
-31.725 16.275 -0.675
-28.125 18.375 -1.275
-31.725 16.275 -0.225
-31.725 18.375 -1.275
-28.125 16.275 0.225
-28.125 16.275 -3.525
-29.175 19.275 0.825
-30.675 19.275 -0.375
-29.175 19.275 -1.125
-31.875 16.575 0.525
-31.875 16.575 -0.225
-31.875 16.575 0.375
-29.175 15.375 -0.975
-29.175 15.375 -0.825
-29.175 15.375 -5.025
-30.675 15.375 -0.375
-31.875 18.075 -1.425
-27.975 18.075 -1.125
-29.175 19.275 -1.275
-32.025 17.325 -0.525
-27.825 17.325 1.725
-29.925 19.425 -0.375
-27.825 17.325 1.425
-27.825 17.325 0.525
-27.825 17.325 -0.075
-27.825 17.325 0.675
-27.825 17.325 0.225
-32.025 17.175 -0.225
-32.025 17.175 0.525
-32.025 17.175 -0.525
-32.025 17.175 -0.375
-32.025 17.175 0.375
-32.025 17.475 0.525
-29.775 15.225 -3.825
-30.075 19.425 0.825
-30.075 19.425 -0.375
-30.075 19.425 -1.125
-27.825 17.175 0.375
-27.825 17.175 0.525
-27.825 17.175 -0.075
-27.825 17.175 1.575
-29.775 19.425 -0.375
-27.825 17.475 1.575
-27.825 17.475 0.675
-27.825 17.475 0.375
-27.825 17.475 0.225
-32.025 17.025 -0.225
-32.025 17.025 -0.375
-28.425 15.825 -0.525
-28.425 15.825 0.825
-28.425 18.825 -0.675
-28.425 18.825 -1.425
-29.625 19.425 0.675
-30.225 19.425 -0.375
-27.825 17.625 1.275
-27.825 17.025 0.525
-27.825 17.025 0.075
-31.575 15.975 -0.225
-31.575 15.975 -0.525
-28.575 15.675 0.825
-28.575 15.675 0.525
-28.575 15.675 1.425
-28.575 15.675 0.675
-28.575 15.675 0.975
-31.575 18.675 0.075
-31.275 18.975 -1.275
-31.275 18.975 -1.425
-28.275 15.975 1.125
-28.275 15.975 -0.675
-28.575 18.975 -0.825
-28.575 18.975 -0.525
-28.275 18.675 -1.275
-32.025 16.875 -0.075
-31.875 16.425 -0.675
-31.875 16.425 -0.525
-31.875 16.425 0.825
-30.825 15.375 -1.275
-30.825 15.375 -0.375
-29.025 15.375 0.675
-27.975 18.225 -1.125
-29.025 19.275 -0.375
-29.025 19.275 -0.825
-29.025 19.275 -1.575
-30.375 19.425 -0.375
-30.375 19.425 -0.225
-29.475 19.425 -0.675
-30.375 19.425 -0.975
-27.825 16.875 1.125
-27.825 17.775 0.375
-27.825 16.875 -3.675
-28.725 15.525 0.975
-28.725 15.525 0.375
-28.725 15.525 -0.375
-31.125 15.525 -0.375
-28.725 19.125 0.225
-31.125 19.125 -1.275
-31.725 16.125 -0.225
-31.725 16.125 0.675
-28.125 18.525 -1.425
-31.725 18.525 -1.125
-31.725 16.125 -0.675
-31.725 16.125 0.525
-30.525 15.225 -0.375
-27.825 16.725 -3.825
-27.825 17.925 -1.125
-31.875 16.275 1.125
-31.875 16.275 0.975
-31.875 16.275 -0.225
-30.975 15.375 -0.675
-28.875 19.275 -0.825
-28.875 19.275 0.675
-28.875 19.275 -0.375
-31.575 18.825 -1.425
-28.425 15.675 -0.525
-28.425 15.675 -0.825
-28.425 15.675 1.125
-28.425 15.675 -5.925
-29.175 19.425 -1.425
-29.175 19.425 0.675
-30.675 19.425 -0.525
-30.675 19.425 -1.275
-28.275 15.825 -0.525
-28.425 18.975 -0.525
-28.275 18.825 -0.825
-28.275 18.825 -0.375
-28.425 18.975 -1.275
-28.425 18.975 -1.425
-32.175 17.325 0.375
-32.175 17.325 -0.375
-32.175 17.325 0.225
-31.275 19.125 -1.275
-29.925 19.575 -1.575
-27.675 17.325 0.675
-27.675 17.325 0.225
-27.675 17.325 0.375
-28.575 15.525 -1.275
-28.575 15.525 -0.825
-28.575 15.525 -0.525
-31.725 15.975 0.075
-31.725 15.975 -0.075
-28.575 19.125 -0.525
-28.575 19.125 0.225
-28.575 19.125 0.375
-28.125 18.675 -1.275
-28.125 18.675 -0.825
-31.725 18.675 0.375
-32.175 17.175 -0.375
-32.175 17.175 0.225
-32.175 17.175 0.525
-32.175 17.175 -0.225
-30.075 19.575 -0.825
-27.675 17.175 0.525
-27.675 17.175 0.675
-27.675 17.175 0.075
-27.675 17.175 1.125
-29.775 19.575 -1.275
-29.775 19.575 -0.375
-27.675 17.475 0.525
-32.175 17.025 -0.525
-32.175 17.025 -0.075
-30.225 19.575 -1.125
-27.675 17.025 -0.225
-27.675 17.025 0.075
-27.675 17.625 0.225
-32.025 16.425 -0.075
-30.825 19.425 -0.525
-30.825 19.425 -0.225
-27.825 16.425 0.225
-27.825 18.225 -1.575
-28.725 15.375 -0.525
-28.725 15.375 -0.825
-31.875 16.125 -0.375
-31.875 16.125 0.675
-28.725 19.275 -1.575
-28.725 19.275 -1.125
-28.725 19.275 -1.275
-28.725 19.275 -0.375
-27.975 16.125 3.225
-27.975 16.125 0.525
-28.725 19.275 0.975
-32.175 16.875 0.075
-32.175 17.775 -0.525
-29.475 19.575 -1.275
-30.375 19.575 -1.125
-27.675 16.875 0.225
-27.675 17.775 0.975
-32.175 16.725 -0.525
-32.175 16.725 -0.375
-32.175 16.725 -0.225
-32.175 16.725 -0.675
-30.525 19.575 -0.825
-30.525 19.575 -1.125
-30.525 15.075 -0.075
-29.325 19.575 -0.975
-29.325 19.575 -0.375
-27.675 17.925 0.825
-31.575 15.675 0.375
-31.575 18.975 -0.675
-28.275 15.675 0.075
-28.275 15.675 3.075
-28.275 15.675 -0.675
-28.425 15.525 -0.525
-28.425 15.525 -0.225
-28.125 15.825 0.375
-31.725 15.825 -0.825
-31.725 18.825 -0.825
-31.725 15.825 -0.375
-31.725 18.825 -1.875
-31.725 18.825 0.825
-28.125 18.825 -0.225
-28.425 19.125 -0.675
-30.975 15.225 -0.675
-27.825 16.275 0.225
-32.175 16.575 -0.375
-31.275 19.275 0.375
-31.875 15.975 0.375
-27.975 15.975 2.025
-27.975 15.975 -0.225
-29.175 15.075 -0.225
-29.175 19.575 -0.375
-27.975 18.675 -1.575
-27.975 18.675 -1.275
-27.975 18.675 -0.975
-28.575 19.275 0.525
-28.575 19.275 -0.675
-28.575 19.275 -0.375
-31.875 18.675 -3.525
-31.875 18.675 -1.125
-28.575 15.375 0.225
-28.575 15.375 0.075
-28.575 15.375 -0.975
-28.575 15.375 0.975
-29.925 19.725 -1.125
-29.925 19.725 -0.675
-27.525 17.325 1.125
-27.525 17.325 0.375
-32.325 17.325 -0.225
-30.075 19.725 -0.375
-30.075 19.725 -1.125
-27.525 17.175 0.525
-27.525 17.175 0.225
-32.325 17.175 -0.075
-27.525 17.475 0.375
-27.525 17.475 0.225
-27.525 17.475 0.525
-32.025 16.125 -0.525
-29.625 14.925 -4.575
-28.725 15.225 -0.525
-31.125 19.425 -1.125
-28.725 19.425 0.825
-28.725 19.425 -0.375
-27.825 16.125 0.075
-32.325 17.025 -0.375
-32.325 17.025 -0.075
-30.225 19.725 -0.375
-29.625 19.725 -0.375
-27.525 17.025 -0.075
-27.525 17.025 0.375
-27.525 17.025 0.225
-27.525 17.625 0.375
-27.525 17.625 1.125
-32.175 16.425 -0.225
-32.175 18.225 -1.125
-29.025 19.575 -0.675
-29.025 19.575 -0.375
-29.025 15.075 0.375
-31.575 15.525 0.825
-31.575 19.125 1.125
-31.575 19.125 0.225
-31.575 19.125 0.075
-31.575 19.125 -0.375
-28.125 15.675 0.375
-28.275 15.525 -0.825
-28.125 18.975 -1.275
-28.125 18.975 -1.125
-28.125 18.975 -0.975
-28.125 18.975 -2.025
-28.125 18.975 -1.425
-28.125 18.975 -0.225
-28.125 18.975 -0.525
-31.725 18.975 -1.575
-31.725 18.975 -0.975
-31.725 18.975 -0.375
-28.275 19.125 -0.825
-28.275 19.125 -0.675
-29.475 19.725 -1.125
-27.525 16.875 -0.225
-32.325 16.875 -0.075
-27.525 17.775 0.225
-31.425 15.375 0.525
-28.425 15.375 -0.375
-31.425 19.275 -0.375
-31.425 19.275 -0.825
-31.425 19.275 0.375
-31.425 19.275 -1.275
-27.975 15.825 -0.375
-30.525 14.925 0.225
-30.525 14.925 -0.675
-32.325 16.725 -1.275
-32.325 16.725 -0.525
-27.525 16.725 -0.075
-29.325 19.725 -0.975
-29.325 19.725 -1.125
-32.175 18.375 -1.575
-32.175 18.375 -0.975
-32.175 16.275 -0.825
-28.875 15.075 -1.125
-30.975 19.575 -0.375
-28.875 19.575 -0.525
-32.025 18.675 -1.125
-31.275 19.425 0.675
-31.275 19.425 -0.825
-31.275 19.425 -0.375
-27.825 15.975 0.675
-28.575 19.425 -0.375
-27.825 18.675 -0.525
-30.675 14.925 -0.825
-32.325 16.575 -1.125
-32.325 16.575 0.225
-28.125 15.525 -0.675
-28.125 15.525 0.525
-28.125 15.525 -0.525
-28.125 19.125 -0.225
-28.125 19.125 -0.675
-31.725 19.125 0.225
-31.725 19.125 -0.225
-32.175 18.525 0.675
-32.175 18.525 -1.125
-32.175 18.525 -1.425
-32.175 16.125 0.675
-31.125 15.075 -0.525
-27.675 18.525 -0.975
-27.375 17.325 0.525
-27.375 17.325 -0.225
-27.375 17.325 0.375
-29.925 19.875 -2.025
-31.875 15.675 -0.825
-31.875 15.675 -0.525
-31.575 15.375 3.375
-27.975 15.675 -1.725
-27.975 15.675 0.075
-27.975 15.675 -0.975
-31.575 19.275 -0.375
-31.575 19.275 0.375
-31.575 19.275 0.225
-31.575 19.275 -0.525
-31.575 19.275 0.675
-27.375 17.175 0.525
-27.375 17.175 -0.825
-27.975 18.975 -0.225
-30.075 19.875 -1.575
-32.475 17.175 -0.075
-27.975 18.975 0.225
-31.875 18.975 -1.125
-27.375 17.475 0.825
-27.375 17.475 1.425
-27.375 17.475 0.525
-29.775 19.875 -0.675
-29.775 19.875 -0.975
-30.825 19.725 -0.375
-30.825 19.725 -1.275
-32.325 16.425 -0.525
-32.325 16.425 -0.675
-32.325 16.425 -1.275
-32.325 16.425 0.675
-27.525 16.425 -4.125
-27.525 18.225 -2.625
-27.375 17.625 0.975
-27.375 17.625 0.375
-32.475 17.025 0.075
-32.475 17.025 -0.375
-32.475 17.025 -0.225
-32.475 17.025 0.225
-32.475 17.025 -0.975
-27.375 17.025 -0.075
-32.025 15.825 -0.075
-32.025 15.825 -0.975
-32.025 18.825 -0.825
-28.425 15.225 0.375
-27.825 18.825 -0.225
-31.425 19.425 -0.375
-28.425 19.425 -0.075
-28.425 19.425 -0.525
-27.825 15.825 -0.675
-27.825 15.825 -0.225
-27.375 16.875 0.525
-27.375 17.775 1.125
-27.375 16.875 0.225
-27.375 16.875 0.075
-32.475 16.875 0.225
-32.475 16.875 -0.375
-32.475 16.875 -0.675
-30.525 14.775 0.075
-27.375 16.725 -4.275
-32.475 16.725 0.225
-32.475 16.725 0.375
-32.475 16.725 -0.225
-32.475 16.725 -0.675
-29.325 19.875 -0.825
-30.975 19.725 -0.975
-30.975 19.725 -0.525
-28.875 19.725 -0.675
-28.875 19.725 -0.075
-32.325 16.275 -1.275
-32.325 16.275 -0.975
-32.325 18.375 0.525
-32.175 15.975 -0.675
-32.175 15.975 -0.075
-32.175 18.675 -1.425
-27.675 15.975 0.375
-28.575 19.575 -0.375
-27.975 15.525 0.225
-27.975 15.525 -0.375
-31.725 19.275 0.375
-31.725 19.275 -0.375
-27.975 19.125 -0.225
-27.975 19.125 -0.675
-27.975 19.125 -0.525
-27.975 19.125 -1.125
-27.975 19.125 -1.275
-31.875 19.125 -0.375
-31.875 19.125 -2.025
-31.875 19.125 0.075
-31.875 19.125 -0.975
-28.125 15.375 -0.375
-30.675 14.775 -0.825
-27.375 16.575 -0.225
-32.475 16.575 -1.125
-32.025 18.975 -1.275
-32.025 18.975 -1.425
-32.025 18.975 -0.675
-32.025 18.975 -1.125
-32.025 18.975 -0.375
-31.575 19.425 -0.375
-27.825 15.675 3.225
-27.825 15.675 -0.525
-27.825 15.675 0.825
-28.275 15.225 -0.975
-27.825 18.975 -0.075
-27.825 18.975 0.225
-27.825 18.975 -0.375
-27.825 18.975 -0.525
-27.525 16.125 5.325
-31.125 19.725 -1.125
-32.325 18.525 -0.975
-27.225 17.325 -0.825
-27.225 17.325 0.225
-27.225 17.325 0.075
-27.225 17.325 0.375
-29.925 20.025 -0.975
-29.925 20.025 -2.025
-29.925 14.625 -1.575
-32.175 15.825 0.375
-32.175 15.825 -0.225
-32.625 17.175 -5.175
-32.625 17.175 -0.225
-29.775 14.625 -1.425
-27.225 17.475 0.375
-27.225 17.475 0.975
-27.225 17.475 -0.075
-27.225 17.475 0.675
-27.675 18.825 -0.375
-27.675 18.825 -0.975
-27.675 18.825 -1.875
-28.425 19.575 -0.375
-30.825 19.875 -2.925
-32.475 16.425 0.225
-32.475 16.425 -0.975
-32.475 16.425 -0.825
-32.475 16.425 -0.525
-32.475 16.425 -1.425
-32.475 16.425 0.525
-32.625 17.025 -0.375
-32.625 17.025 -0.675
-32.625 17.025 -0.525
-29.625 20.025 -1.125
-30.375 14.625 -1.425
-32.625 16.875 -1.275
-32.625 16.875 -0.225
-32.625 16.875 -0.825
-31.275 19.725 -0.525
-27.525 15.975 3.225
-32.325 15.975 -0.825
-28.575 19.725 -1.275
-32.325 18.675 -0.525
-27.975 15.375 -0.375
-31.875 19.275 -1.425
-31.875 19.275 -1.125
-31.875 19.275 0.675
-31.875 19.275 -0.375
-30.975 19.875 -2.175
-28.875 19.875 -0.375
-32.475 16.275 -0.675
-32.025 19.125 -0.375
-32.025 19.125 1.725
-32.025 19.125 0.075
-30.525 14.625 -0.825
-32.625 16.725 -1.275
-32.625 16.725 -0.675
-32.625 16.725 0.075
-32.625 16.725 -1.125
-29.325 20.025 -0.675
-27.225 17.925 -1.125
-32.625 17.925 -0.675
-28.125 15.225 -0.825
-31.725 19.425 -0.375
-31.725 19.425 0.675
-31.725 19.425 -0.825
-31.725 19.425 0.975
-27.825 19.125 0.825
-27.825 19.125 -1.725
-27.825 19.125 -0.225
-27.825 19.125 -1.275
-27.825 19.125 -1.575
-32.175 15.675 -0.225
-32.175 18.975 -0.525
-32.175 18.975 -0.675
-32.175 18.975 -0.375
-32.175 18.975 -0.825
-31.575 19.575 -0.375
-27.675 15.675 0.675
-31.575 15.075 -0.675
-27.675 18.975 0.225
-27.675 18.975 -0.225
-27.675 18.975 0.375
-27.675 18.975 -1.275
-27.675 18.975 -1.425
-28.275 19.575 -0.375
-30.675 14.625 -1.425
-30.675 14.625 -1.125
-32.625 16.575 -0.825
-32.625 16.575 -1.275
-32.625 16.575 0.675
-32.625 16.575 -0.675
-32.625 16.575 -0.525
-32.625 16.575 0.375
-32.475 18.525 -3.975
-32.475 18.525 -1.425
-31.125 19.875 -0.375
-32.475 16.125 -2.625
-32.475 16.125 -1.725
-32.475 16.125 -0.825
-28.425 19.725 -0.225
-27.525 18.825 -0.975
-27.525 18.825 0.975
-32.325 15.825 -0.825
-31.425 19.725 -0.375
-31.425 19.725 -1.125
-31.425 19.725 -0.525
-32.325 18.825 0.525
-32.325 18.825 -1.425
-30.825 20.025 -2.325
-30.825 20.025 -2.625
-32.625 16.425 0.225
-32.625 16.425 -0.225
-32.625 16.425 0.375
-32.625 16.425 0.075
-29.025 20.025 -0.675
-29.025 20.025 -1.125
-29.925 20.175 -0.975
-29.925 20.175 -1.725
-27.075 17.325 0.525
-32.775 17.175 -0.225
-30.075 20.175 0.225
-29.775 20.175 -0.975
-32.775 17.025 -0.975
-32.775 17.025 -0.675
-32.775 17.025 -0.225
-32.025 19.275 -0.375
-32.025 19.275 -0.975
-32.025 19.275 -0.675
-27.975 15.225 0.225
-27.975 15.225 -2.475
-30.225 14.475 -1.125
-30.225 14.475 -1.275
-31.875 19.425 -1.575
-27.975 19.425 -0.525
-27.825 19.275 -0.375
-27.075 17.025 -4.275
-32.175 15.525 -1.725
-32.175 19.125 -1.125
-32.175 19.125 -0.975
-32.175 19.125 -0.375
-27.675 15.525 0.225
-27.675 19.125 -0.975
-27.675 19.125 -0.225
-28.125 19.575 -1.275
-32.775 16.875 -0.675
-32.775 16.875 -0.825
-32.775 16.875 0.225
-32.775 17.775 -0.375
-31.275 14.775 -1.575
-31.275 19.875 -0.375
-31.275 19.875 -0.675
-27.375 18.675 -1.575
-32.475 18.675 -0.975
-32.625 18.375 -0.975
-32.625 16.275 0.525
-32.625 16.275 -0.675
-32.625 16.275 -0.375
-32.625 16.275 -0.825
-32.775 16.725 -0.225
-32.775 16.725 -0.825
-32.775 16.725 -0.675
-32.775 17.925 -0.225
-31.575 14.925 -0.375
-30.525 14.475 -1.125
-28.275 14.925 5.475
-32.325 15.675 -0.525
-27.075 16.725 -0.375
-28.275 19.725 -0.375
-32.325 18.975 0.225
-32.775 16.575 0.525
-32.775 16.575 -0.825
-30.675 14.475 -1.125
-31.125 20.025 -1.425
-27.225 18.525 -1.425
-32.625 18.525 -2.625
-32.625 16.125 0.225
-28.425 14.775 0.525
-31.425 14.775 -2.325
-32.475 18.825 -1.125
-32.475 18.825 0.675
-32.475 15.825 0.225
-31.425 19.875 -0.375
-32.025 15.225 1.575
-27.825 15.225 -1.425
-27.825 15.225 -1.275
-27.825 15.225 -0.975
-27.825 19.425 -0.675
-32.175 19.275 -0.825
-32.175 15.375 -0.975
-27.675 19.275 0.825
-27.675 19.275 -0.225
-27.675 19.275 -1.275
-27.675 19.275 -1.125
-27.975 15.075 1.125
-27.675 15.375 0.975
-31.875 19.575 0.825
-32.775 16.425 -0.825
-32.775 16.425 0.375
-32.775 16.425 -0.225
-32.775 18.225 -2.025
-30.825 14.475 -1.275
-32.925 17.325 -0.225
-28.125 14.925 -0.525
-28.125 14.925 0.675
-29.925 14.325 -0.825
-32.325 19.125 -0.975
-32.325 19.125 -2.025
-28.125 19.725 -0.375
-28.125 19.725 -0.825
-27.525 19.125 -0.225
-27.525 19.125 0.825
-31.725 19.725 -1.125
-32.925 17.175 -0.375
-32.925 17.175 -0.075
-26.925 17.025 -0.375
-31.275 20.025 -0.375
-31.275 14.625 -1.125
-27.225 15.975 3.825
-32.625 15.975 -0.525
-27.225 18.675 -1.425
-32.925 16.875 -0.225
-32.925 17.775 -0.525
-29.475 14.325 -1.275
-30.375 14.325 5.175
-32.775 16.275 -0.375
-32.475 15.675 -1.575
-32.475 15.675 -0.675
-31.575 19.875 -1.125
-30.975 14.475 -2.175
-27.075 18.375 -0.825
-27.375 18.975 -0.075
-27.375 18.975 0.525
-32.475 18.975 -1.425
-32.475 18.975 -0.225
-32.475 18.975 -1.725
-32.475 18.975 -1.275
-32.475 18.975 -1.125
-32.925 16.725 -0.075
-32.925 17.925 -0.525
-29.325 14.325 -5.775
-32.175 19.425 -2.025
-32.175 19.425 -1.275
-32.175 19.425 -1.425
-32.025 19.575 0.825
-27.675 15.225 0.375
-27.675 15.225 -0.525
-27.825 15.075 -0.225
-27.225 18.825 -0.525
-27.225 18.825 -0.225
-32.625 18.825 -1.725
-32.625 18.825 -1.125
-32.625 18.825 -1.275
-28.425 14.625 -5.925
-32.625 15.825 -0.825
-32.625 15.825 -0.675
-32.925 16.575 -0.675
-32.925 16.575 0.225
-32.925 16.575 -0.375
-32.775 16.125 -5.625
-31.125 14.475 -1.275
-30.675 14.325 -0.975
-29.175 14.325 -0.975
-28.725 20.175 -1.575
-27.075 18.525 -1.275
-32.325 19.275 -0.975
-27.975 19.725 -0.075
-31.875 19.725 -1.125
-31.725 19.875 -0.975
-27.375 19.125 -0.225
-32.925 16.425 0.225
-32.925 16.425 -0.675
-30.825 14.325 -1.125
-29.025 20.325 -0.975
-26.925 18.225 -1.725
-29.925 14.175 -1.425
-26.775 17.325 -0.825
-33.075 17.325 -0.375
-26.775 17.325 -0.225
-32.775 15.975 -0.825
-32.775 15.975 -0.975
-32.775 18.675 -1.575
-31.275 14.475 -0.975
-31.275 14.475 -1.275
-31.275 20.175 -1.725
-28.575 20.175 -1.275
-26.775 17.175 -0.375
-26.775 17.175 -0.525
-33.075 17.175 4.875
-33.075 17.475 -0.225
-33.075 17.475 -0.075
-29.625 14.175 -0.825
-30.225 14.175 -1.275
-32.625 15.675 -0.975
-31.575 14.625 -1.125
-27.225 18.975 -0.225
-27.225 18.975 0.225
-32.625 18.975 -0.975
-26.775 17.025 -0.375
-26.775 17.025 -0.225
-30.225 20.475 -1.725
-33.075 17.625 -0.225
-32.925 16.275 -0.525
-32.925 16.275 0.225
-32.925 16.275 -1.275
-32.925 18.375 -1.425
-28.875 20.325 -0.825
-30.975 14.325 -0.825
-26.925 18.375 -1.425
-26.775 16.875 0.075
-33.075 16.875 -0.825
-33.075 16.875 -0.525
-33.075 17.775 -0.525
-33.075 17.775 0.075
-33.075 17.775 -0.825
-32.025 19.725 -0.975
-27.525 19.425 -0.225
-27.525 19.425 -0.375
-32.325 19.425 -1.725
-27.825 19.725 -0.075
-30.525 14.175 -0.975
-33.075 16.725 -0.825
-33.075 16.725 -0.375
-29.325 20.475 -0.975
-27.375 19.275 -0.075
-32.475 15.375 -1.425
-32.475 19.275 -1.125
-32.775 18.825 -1.125
-32.775 15.825 -0.225
-27.075 18.825 -1.275
-27.075 18.825 -1.125
-32.925 16.125 -0.225
-28.725 20.325 -1.875
-26.925 18.525 -0.975
-26.775 16.575 -3.225
-33.075 16.575 -0.675
-32.625 15.525 -0.375
-32.625 15.525 -0.825
-32.625 19.125 -1.275
-32.625 19.125 -1.575
-32.625 19.125 0.075
-31.725 14.625 -1.575
-30.825 14.175 -1.425
-33.075 16.425 -0.975
-33.075 16.425 -0.225
-26.775 18.225 -1.425
-32.925 15.975 -0.525
-32.925 18.675 -0.075
-32.925 18.675 -0.525
-32.925 18.675 -1.425
-31.275 14.325 -0.975
-31.275 14.325 -0.525
-28.575 20.325 -1.425
-28.575 14.325 -3.975
-32.325 19.575 -0.525
-31.575 14.475 -0.825
-32.775 18.975 -1.575
-32.775 18.975 -1.275
-31.575 20.175 -0.375
-27.075 18.975 -1.125
-27.075 18.975 0.375
-28.275 20.175 -1.125
-29.925 14.025 -0.975
-32.025 14.775 -1.575
-32.025 14.775 -1.275
-30.075 14.025 -0.975
-29.775 14.025 -1.275
-32.475 15.225 -0.675
-26.625 17.175 -0.675
-26.625 17.175 -0.225
-33.225 17.475 0.075
-30.225 14.025 -1.125
-30.225 14.025 -1.275
-26.625 17.025 -0.075
-26.625 17.025 0.225
-33.225 17.025 4.425
-26.625 17.025 -0.375
-26.775 18.375 1.125
-33.075 16.275 -0.375
-29.475 14.025 -1.575
-32.625 19.275 0.525
-32.625 19.275 -1.425
-27.225 19.275 -0.225
-27.975 14.625 -0.825
-31.875 14.625 -1.125
-26.625 16.875 -0.225
-33.225 17.775 0.375
-33.225 17.775 -0.825
-33.225 16.875 -0.675
-33.225 16.875 -0.825
-30.525 14.025 -1.425
-31.425 14.325 -0.825
-31.425 14.325 -0.525
-26.625 16.725 -0.375
-33.225 17.925 0.075
-26.625 17.925 -1.125
-32.775 15.525 -0.525
-31.125 14.175 -1.425
-31.125 14.175 -1.125
-32.775 19.125 -1.875
-32.775 19.125 0.075
-32.775 19.125 -0.075
-27.075 19.125 -0.225
-27.075 19.125 0.675
-31.725 20.175 -0.975
-31.725 20.175 1.125
-28.125 20.175 -1.125
-26.775 18.525 0.225
-33.075 16.125 -0.975
-33.075 16.125 -0.375
-33.225 18.075 -1.425
-33.225 18.075 -0.975
-33.225 16.575 -1.275
-33.225 16.575 4.725
-33.225 16.575 -0.975
-26.625 18.075 -1.425
-27.525 14.925 0.675
-27.525 19.725 -0.225
-32.325 19.725 -0.525
-32.175 19.875 0.375
-27.675 19.875 -1.425
-27.375 19.575 -1.425
-27.375 19.575 -0.225
-32.475 15.075 -0.825
-32.475 15.075 -1.425
-32.475 19.575 -0.825
-32.475 19.575 -0.525
-27.375 15.075 -0.525
-32.025 14.625 -1.275
-32.025 14.625 -1.425
-32.025 14.625 -0.975
-32.025 14.625 -0.825
-33.225 16.425 -0.525
-26.625 16.425 0.525
-33.225 16.425 -0.825
-32.625 19.425 -0.525
-32.625 19.425 -0.975
-32.925 18.975 -1.275
-26.925 15.675 3.825
-31.575 14.325 -1.125
-26.925 18.975 -1.125
-26.925 18.975 -1.275
-26.925 18.975 -0.825
-31.275 14.175 -1.275
-33.075 18.675 -0.225
-26.775 18.675 -0.825
-33.375 17.325 -0.825
-29.925 13.875 -1.125
-32.775 19.275 -1.875
-32.775 19.275 -0.525
-33.375 17.175 -0.375
-30.075 13.875 -1.275
-31.875 14.475 -1.125
-31.875 14.475 -0.975
-27.075 19.275 -0.975
-30.975 14.025 -1.275
-33.375 17.625 -0.375
-33.375 17.025 -0.375
-33.375 17.025 1.875
-29.625 13.875 -1.275
-33.225 16.275 -0.375
-33.225 18.375 -1.725
-26.475 16.875 -0.225
-30.375 13.875 -1.725
-30.375 13.875 -1.125
-30.375 13.875 -1.425
-26.475 16.875 -0.075
-33.375 17.775 -0.375
-33.375 17.775 3.225
-33.375 17.775 -0.225
-33.375 16.875 -0.825
-33.375 16.875 -0.225
-29.475 13.875 -1.575
-31.425 14.175 -0.225
-31.425 14.175 -0.375
-31.425 14.175 -0.675
-26.775 18.825 -0.075
-26.775 18.825 -0.825
-33.075 18.825 -0.975
-33.075 18.825 -1.575
-33.075 18.825 -1.125
-33.075 15.825 -0.375
-32.925 19.125 -0.375
-32.925 19.125 -1.125
-32.925 19.125 -0.975
-26.925 15.525 3.825
-26.925 19.125 0.375
-30.525 13.875 -1.125
-33.375 16.725 -0.975
-29.325 13.875 -1.875
-32.475 14.925 -1.275
-32.475 14.925 -0.525
-27.525 19.875 0.225
-27.525 19.875 -0.975
-32.325 19.875 -0.525
-31.125 14.025 -1.425
-26.625 18.525 -0.825
-27.225 19.575 -0.225
-26.475 16.575 -0.375
-30.675 13.875 -1.125
-30.675 13.875 -1.275
-33.375 16.575 -1.125
-33.375 16.575 -0.975
-32.025 14.475 -1.425
-32.025 14.475 -1.275
-32.025 14.475 -0.975
-32.025 14.475 1.125
-32.025 20.175 -0.525
-27.075 19.425 -0.225
-31.575 14.175 -2.025
-33.075 15.675 -0.975
-31.575 20.475 -0.975
-26.775 18.975 -0.375
-26.775 18.975 -0.075
-26.775 18.975 -1.875
-33.075 18.975 -1.425
-33.075 18.975 -0.975
-33.075 18.975 -0.375
-33.075 18.975 -1.275
-26.775 18.975 -0.825
-31.275 14.025 -1.275
-33.375 16.425 -0.975
-33.375 16.425 -1.425
-33.375 16.425 -1.275
-33.375 18.225 0.375
-33.225 15.975 -0.225
-33.225 18.675 -1.275
-32.925 19.275 -0.975
-32.925 19.275 -1.425
-32.925 19.275 -0.525
-26.925 19.275 -0.225
-31.875 20.325 -1.125
-26.925 19.275 -1.125
-29.925 13.725 -0.975
-33.525 17.475 -0.225
-30.075 13.725 -1.425
-26.325 17.175 -0.525
-33.375 16.275 -0.975
-33.375 16.275 -1.125
-30.975 13.875 -1.275
-33.375 18.375 -1.275
-32.475 14.775 -0.675
-27.375 14.775 0.825
-27.375 19.875 -0.075
-32.475 19.875 -0.375
-33.525 17.625 -0.375
-33.525 17.625 -0.225
-33.525 17.625 -0.075
-33.525 17.025 2.025
-33.525 17.025 -0.825
-32.625 14.925 -0.525
-32.325 14.625 -1.275
-27.525 14.625 0.075
-32.325 14.625 -0.675
-32.325 20.025 -0.825
-32.325 14.625 -1.125
-31.425 14.025 -0.225
-26.625 18.825 -1.275
-33.225 18.825 -1.425
-33.525 17.775 -0.075
-33.525 17.775 -0.225
-33.525 17.775 -0.375
-33.525 17.775 -0.525
-31.725 14.175 -1.275
-30.375 13.725 -1.425
-30.375 13.725 -1.575
-30.375 13.725 -1.125
-26.325 17.775 -0.975
-33.075 15.525 -0.375
-26.775 19.125 -1.125
-33.075 19.125 -0.825
-33.075 19.125 -0.375
-32.175 14.475 -1.125
-32.175 14.475 -1.275
-32.175 14.475 -1.575
-32.775 19.575 -0.525
-27.075 19.575 -0.225
-33.525 16.725 -0.375
-33.525 16.725 -1.275
-33.525 16.725 0.675
-33.525 16.725 -0.525
-33.525 17.925 -0.525
-33.525 17.925 -0.375
-33.525 17.925 -0.225
-30.525 13.725 -0.525
-30.525 13.725 -0.975
-31.125 13.875 -1.125
-26.475 18.525 -0.975
-33.375 16.125 -0.525
-33.375 16.125 0.075
-32.925 19.425 0.675
-32.925 19.425 -0.675
-32.025 20.325 -0.825
-32.025 14.325 -1.425
-32.025 14.325 -1.275
-32.025 14.325 4.125
-33.525 16.575 -0.825
-33.525 16.575 -1.125
-33.525 16.575 -1.275
-33.525 16.575 -0.525
-33.525 16.575 -0.375
-33.525 16.575 -0.975
-33.525 18.075 -0.525
-30.675 13.725 -0.975
-30.675 13.725 -1.275
-30.675 13.725 -1.875
-30.675 13.725 -1.125
-26.325 18.075 -1.275
-26.325 18.075 -2.025
-33.225 15.675 -0.825
-33.225 15.675 -0.525
-33.225 18.975 -1.275
-26.625 18.975 0.375
-31.275 13.875 -0.675
-33.375 18.675 -1.725
-26.475 18.675 -1.125
-26.475 18.675 -0.975
-26.775 19.275 -0.225
-33.075 19.275 -1.275
-33.075 19.275 0.075
-33.075 19.275 0.375
-33.075 19.275 -0.675
-33.075 19.275 0.225
-33.525 16.425 -1.125
-30.825 13.725 0.075
-30.825 13.725 -1.425
-26.325 18.225 -0.525
-26.325 18.225 -1.575
-32.475 14.625 -1.275
-32.475 14.625 -1.125
-32.475 14.625 -0.975
-32.625 19.875 0.675
-32.625 19.875 -0.525
-32.625 19.875 0.525
-27.225 19.875 -1.875
-32.475 14.625 -1.425
-32.775 14.925 -0.075
-32.325 14.475 -1.125
-33.675 17.325 -0.825
-33.675 17.325 -0.525
-32.925 19.575 -0.675
-32.175 14.325 -1.125
-33.525 16.275 -1.275
-33.525 16.275 -1.575
-33.525 18.375 -1.425
-33.525 18.375 -0.975
-30.975 13.725 -0.525
-28.875 13.725 -1.275
-26.925 19.575 -0.225
-29.925 21.075 0.225
-26.325 18.375 -1.425
-26.325 18.375 -0.675
-33.675 17.175 0.375
-33.675 17.475 -0.675
-33.675 17.475 -0.225
-33.675 17.475 -0.375
-33.675 17.475 -0.525
-30.075 13.575 -0.825
-29.775 13.575 -1.275
-33.225 19.125 0.075
-33.225 19.125 -0.075
-31.725 20.625 -0.225
-26.625 19.125 0.975
-26.625 19.125 -0.075
-33.675 17.625 -0.375
-33.675 17.625 -0.075
-33.675 17.025 2.175
-33.675 17.025 -0.375
-33.675 17.625 -0.225
-33.375 18.825 -1.275
-33.375 18.825 -0.825
-33.375 18.825 -0.975
-31.425 13.875 -1.425
-33.375 15.825 -0.675
-33.375 15.825 -0.075
-33.375 15.825 -0.825
-33.375 15.825 -0.525
-30.225 13.575 -1.575
-33.675 17.775 -0.225
-33.675 16.875 -0.375
-33.675 17.775 -0.375
-33.675 16.875 -0.975
-33.675 17.775 -0.675
-33.675 16.875 -0.525
-30.375 13.575 -1.425
-32.025 20.475 -1.425
-26.775 19.425 -1.125
-26.775 19.425 -0.225
-33.075 19.425 -0.525
-26.775 19.425 -0.825
-33.525 16.125 -0.225
-33.525 18.525 1.125
-31.125 13.725 -0.975
-28.725 13.725 -1.125
-31.125 20.925 -3.075
-33.675 16.725 -0.975
-33.675 16.725 -1.425
-33.675 16.725 -0.525
-33.675 16.725 -0.225
-33.675 16.725 -0.825
-33.675 17.925 -0.225
-30.525 13.575 -0.975
-30.525 13.575 -1.125
-27.225 20.025 -0.975
-27.225 14.625 -6.225
-33.675 18.075 -1.875
-33.675 16.575 -0.675
-33.675 16.575 -0.225
-33.675 16.575 -0.375
-31.575 13.875 -1.275
-33.375 15.675 -0.375
-32.775 19.875 -0.975
-32.775 19.875 -0.675
-32.775 19.875 -0.525
-26.175 18.075 -1.125
-26.175 18.075 -1.275
-30.675 13.575 -0.975
-26.475 18.975 -1.275
-33.375 18.975 -0.825
-26.475 18.975 -0.975
-33.375 18.975 -0.525
-33.375 18.975 -1.575
-33.225 19.275 -1.275
-33.225 19.275 -0.975
-26.625 19.275 -1.275
-33.225 19.275 -0.525
-32.925 19.725 -0.675
-32.925 19.725 0.825
-32.325 14.325 -1.575
-26.925 19.725 -0.375
-33.525 15.975 -3.975
-33.525 15.975 -3.825
-33.525 18.675 -0.975
-31.275 13.725 0.525
-30.825 13.575 -0.525
-30.825 13.575 -1.125
-26.175 18.225 -1.275
-33.075 19.575 -0.975
-33.075 19.575 -0.375
-33.075 15.075 -1.425
-26.775 19.575 -0.225
-26.775 19.575 -0.075
-26.775 19.575 -0.825
-33.375 15.525 -0.825
-33.375 19.125 -1.875
-31.725 13.875 -0.675
-33.375 19.125 -1.425
-33.375 19.125 -1.125
-26.475 19.125 -0.075
-26.475 19.125 0.675
-33.375 19.125 -0.525
-33.675 16.275 -0.825
-28.875 13.575 -1.275
-26.175 18.375 -0.525
