# .PCD v0.7 - Point Cloud Data file format
VERSION 0.7
FIELDS x y z
SIZE 4 4 4
TYPE F F F
COUNT 1 1 1
WIDTH 2048
HEIGHT 1
VIEWPOINT 0 0 0 1 0 0 0
POINTS 2048
DATA ascii
15.225 27.825 1.425
15.225 27.825 0.675
15.675 27.375 0.975
15.075 27.675 0.825
15.225 27.375 0.375
14.775 28.125 1.875
15.825 27.225 0.225
15.525 27.225 0.975
16.275 28.875 -1.275
15.225 29.025 1.875
15.225 27.225 0.825
15.675 27.075 1.125
15.825 27.075 0.675
15.525 29.175 0.225
15.075 27.225 -0.225
15.975 27.075 0.675
15.375 27.075 0.075
15.375 27.075 -0.675
15.375 27.075 0.375
15.225 29.175 0.375
15.675 26.925 0.225
15.675 29.325 0.375
15.825 26.925 0.225
15.975 26.925 0.975
15.375 26.925 -0.225
16.125 26.925 1.425
15.675 26.775 0.075
14.325 27.675 0.975
15.075 26.775 -0.375
15.075 26.775 -0.225
15.525 26.625 2.325
17.175 28.725 -1.125
15.675 26.475 -0.225
15.975 26.475 0.675
15.975 26.475 1.125
16.875 29.325 0.375
16.725 29.475 0.225
15.825 26.325 0.675
17.175 29.175 0.525
17.175 29.325 -0.375
17.475 27.375 0.825
17.475 28.875 -0.075
15.825 26.175 0.825
15.525 26.175 0.675
13.725 28.575 0.225
17.025 29.625 0.225
17.625 27.525 0.675
17.625 27.525 0.225
14.625 26.325 -0.525
16.425 26.175 0.075
17.775 28.425 -0.075
17.025 29.775 1.425
17.775 27.375 0.675
17.775 27.375 0.975
17.325 29.625 -0.525
17.025 29.925 1.575
15.975 25.875 0.675
17.925 28.425 -0.975
17.925 28.575 0.525
16.275 30.375 0.375
17.925 28.725 0.075
17.175 29.925 0.975
17.775 27.075 0.375
17.925 27.375 0.975
17.625 26.775 -0.225
16.575 30.375 0.075
16.125 25.725 0.675
17.925 27.075 0.675
17.925 26.925 0.225
16.275 25.575 0.525
15.675 25.425 0.225
13.425 26.625 -1.125
13.125 29.325 1.875
14.475 25.575 2.475
14.775 25.425 -0.825
17.775 26.175 -0.375
15.375 25.275 -0.075
14.625 25.425 -0.525
17.925 26.175 -0.075
15.675 25.125 0.675
15.525 25.125 -0.075
15.975 25.125 -0.975
15.375 25.125 1.425
15.375 25.125 -0.375
15.225 25.125 1.125
15.225 25.125 0.075
16.275 25.125 0.075
16.275 25.125 -0.375
15.675 24.975 0.075
15.825 24.975 -0.225
17.025 25.275 -0.225
15.375 24.975 1.275
15.375 24.975 -0.375
16.125 24.975 -0.825
16.275 24.975 -0.225
14.475 25.125 -0.525
14.475 25.125 -0.375
16.575 24.975 0.225
14.775 24.975 -0.225
13.425 25.725 1.125
14.325 25.125 0.975
14.025 25.275 -0.225
15.675 24.825 -0.225
15.675 24.825 -0.675
15.825 24.825 -0.975
15.525 24.825 -1.725
15.525 24.825 -0.375
15.525 24.825 0.525
15.525 24.825 -0.525
15.375 24.825 -0.075
15.375 24.825 0.225
16.125 24.825 0.375
16.125 24.825 -0.225
15.225 24.825 0.825
14.175 25.125 -0.225
16.275 24.825 0.525
15.075 24.825 -0.825
18.525 26.325 -0.075
18.075 25.725 -0.075
13.425 25.575 0.225
13.425 25.575 0.525
16.575 24.825 0.525
14.775 24.825 -1.425
14.775 24.825 -0.525
12.975 26.025 -0.375
17.325 25.125 -1.575
17.325 25.125 -2.175
17.025 24.975 -2.325
14.325 24.975 -0.075
15.675 24.675 -0.525
15.675 24.675 0.075
15.675 24.675 -1.125
18.525 26.175 -0.225
15.525 24.675 0.075
15.525 24.675 0.375
15.375 24.675 0.525
15.975 24.675 0.675
15.975 24.675 -0.975
15.975 24.675 -0.225
15.975 24.675 -0.525
14.625 24.825 0.975
16.125 24.675 -0.375
15.225 24.675 -0.075
14.175 24.975 -0.525
17.175 24.975 0.075
18.675 26.325 -0.075
15.075 24.675 0.225
13.125 25.725 -0.075
13.125 25.725 0.525
14.475 24.825 0.975
14.475 24.825 -0.375
16.425 24.675 0.675
16.425 24.675 2.025
16.425 24.675 0.375
14.925 24.675 0.675
16.425 24.675 0.075
13.575 25.275 0.825
17.325 24.975 -0.525
14.025 24.975 -0.375
16.575 24.675 0.375
14.775 24.675 0.375
14.775 24.675 1.425
14.775 24.675 -0.075
17.025 24.825 0.075
15.675 24.525 0.825
15.675 24.525 0.075
15.825 24.525 0.825
15.825 24.525 0.075
15.525 24.525 0.075
15.525 24.525 0.225
14.625 24.675 0.225
14.625 24.675 1.125
18.375 25.725 0.075
13.275 25.425 -0.075
12.975 25.725 0.075
15.975 24.525 0.225
15.975 24.525 1.125
15.375 24.525 0.525
17.175 24.825 -0.225
14.175 24.825 -0.675
13.875 24.975 -0.375
13.875 24.975 -0.525
16.125 24.525 -0.675
16.125 24.525 -0.375
15.225 24.525 -0.075
17.925 25.275 0.525
13.425 25.275 -0.675
16.275 24.525 0.375
15.075 24.525 -0.375
15.075 24.525 0.375
14.475 24.675 0.075
17.775 25.125 0.225
12.675 26.025 0.525
14.925 24.525 0.525
16.425 24.525 -0.525
16.425 24.525 -2.925
17.325 24.825 1.875
14.025 24.825 -0.825
17.025 24.675 0.225
14.325 24.675 -0.675
14.325 24.675 0.075
14.775 24.525 0.225
14.775 24.525 -0.075
14.775 24.525 0.525
18.225 25.425 -0.075
12.975 25.575 0.225
12.825 25.725 -0.525
12.675 25.875 -0.075
13.425 25.125 0.525
17.925 25.125 0.075
17.925 25.125 0.225
14.625 24.525 -0.525
14.625 24.525 -0.075
15.825 24.375 -0.525
15.825 24.375 -0.375
17.475 24.825 -0.225
17.175 24.675 -0.225
15.975 24.375 0.225
15.375 24.375 -0.075
15.375 24.375 0.525
16.125 24.375 0.525
16.125 24.375 0.675
15.225 24.375 -0.225
13.575 24.975 -0.075
16.875 24.525 -0.525
16.875 24.525 0.225
14.475 24.525 0.525
14.475 24.525 -0.375
14.475 24.525 -0.075
18.525 25.575 -0.375
14.025 24.675 0.375
14.925 24.375 -0.075
16.425 24.375 -0.225
14.925 24.375 0.675
16.425 24.375 0.225
16.425 24.375 0.675
16.425 24.375 0.525
18.225 25.275 0.525
13.125 25.275 -0.225
17.625 24.825 0.525
13.725 24.825 -0.375
12.675 25.725 -1.125
17.025 24.525 -0.225
14.325 24.525 -0.675
16.575 24.375 1.275
16.575 24.375 -0.225
14.775 24.375 0.525
13.425 24.975 -0.075
18.825 25.875 0.525
17.475 24.675 0.525
16.725 24.375 1.125
14.625 24.375 0.075
14.625 24.375 0.225
14.625 24.375 0.525
17.175 24.525 -0.225
14.175 24.525 0.225
14.175 24.525 0.075
17.775 24.825 -0.075
13.575 24.825 -0.375
13.575 24.825 -0.225
16.125 24.225 0.525
16.125 24.225 -0.075
15.225 24.225 -1.275
15.225 24.225 -0.375
15.225 24.225 0.525
15.225 24.225 0.675
12.975 25.275 1.425
16.875 24.375 -0.525
14.475 24.375 0.225
14.475 24.375 0.525
13.125 25.125 1.575
18.675 25.575 0.225
18.225 25.125 0.375
12.675 25.575 0.375
16.275 24.225 0.525
16.275 24.225 1.125
15.075 24.225 -0.075
15.075 24.225 2.175
13.275 24.975 -0.075
17.325 24.525 -0.675
13.725 24.675 0.075
14.925 24.225 -0.825
14.925 24.225 1.275
14.925 24.225 -0.525
16.425 24.225 1.275
17.025 24.375 -0.375
14.325 24.375 -0.375
14.325 24.375 -0.225
14.325 24.375 1.275
13.425 24.825 -0.075
13.425 24.825 0.075
16.575 24.225 1.125
17.475 24.525 0.675
13.875 24.525 0.675
13.875 24.525 0.825
13.875 24.525 -0.225
13.875 24.525 0.375
13.875 24.525 -0.075
17.475 24.525 0.525
12.825 25.275 0.225
12.975 25.125 -0.375
12.975 25.125 1.425
12.975 25.125 -0.675
12.975 25.125 -0.225
14.625 24.225 -0.525
14.625 24.225 0.525
16.725 24.225 -0.525
17.175 24.375 -0.075
14.175 24.375 -0.675
14.175 24.375 -0.075
14.175 24.375 0.075
17.175 24.375 -1.125
12.225 26.025 0.225
13.125 24.975 -0.225
18.225 24.975 1.125
15.525 24.075 1.125
15.975 24.075 0.525
15.375 24.075 1.125
15.225 24.075 0.525
16.125 24.075 1.125
16.125 24.075 1.575
14.475 24.225 -0.375
18.075 24.825 -0.225
13.275 24.825 -0.075
13.275 24.825 0.525
16.275 24.075 0.525
17.625 24.525 -0.525
17.625 24.525 0.825
13.725 24.525 0.075
13.725 24.525 -0.075
14.025 24.375 0.525
14.025 24.375 0.825
13.425 24.675 0.225
13.425 24.675 -0.075
14.925 24.075 -0.375
14.925 24.075 -0.225
16.425 24.075 1.125
17.025 24.225 -0.225
14.325 24.225 -0.375
14.325 24.225 0.525
18.675 25.275 0.075
12.825 25.125 -0.375
12.825 25.125 1.125
12.825 25.125 -0.525
18.375 24.975 0.525
12.975 24.975 -0.225
12.525 25.425 0.675
16.575 24.075 -0.525
16.575 24.075 2.025
14.775 24.075 -0.375
17.475 24.375 0.525
13.575 24.525 -0.075
12.075 26.025 0.525
13.125 24.825 0.525
13.125 24.825 -0.075
14.175 24.225 0.075
14.175 24.225 0.525
14.625 24.075 0.825
14.625 24.075 0.075
16.725 24.075 -0.525
14.625 24.075 -0.525
13.275 24.675 0.375
13.275 24.675 -0.375
13.275 24.675 0.225
15.825 23.925 0.675
15.975 23.925 0.225
15.975 23.925 0.675
16.125 23.925 0.975
16.125 23.925 0.675
15.225 23.925 0.675
15.225 23.925 0.975
14.475 24.075 0.525
14.475 24.075 -0.225
14.475 24.075 0.075
17.325 24.225 -0.225
17.325 24.225 -0.075
17.325 24.225 -0.525
14.025 24.225 -0.375
14.025 24.225 -0.225
14.025 24.225 0.675
16.275 23.925 0.225
16.275 23.925 0.675
15.075 23.925 0.675
12.675 25.125 -0.525
12.675 25.125 0.375
12.675 25.125 0.075
13.425 24.525 0.225
13.425 24.525 -0.375
18.525 24.975 -0.525
12.825 24.975 0.075
18.825 25.275 0.525
12.825 24.975 0.375
12.825 24.975 -0.225
12.825 24.975 -0.075
12.525 25.275 0.225
12.525 25.275 0.075
12.525 25.275 -0.075
18.375 24.825 0.375
12.375 25.425 0.825
18.975 25.425 0.525
18.975 25.425 0.375
12.375 25.425 0.675
12.375 25.425 -0.525
12.975 24.825 -0.225
12.975 24.825 -0.375
12.975 24.825 0.375
16.425 23.925 0.525
16.425 23.925 0.975
14.925 23.925 -0.225
17.025 24.075 -0.225
14.325 24.075 -0.075
18.225 24.675 0.375
13.875 24.225 0.675
17.475 24.225 -0.525
13.875 24.225 2.475
17.475 24.225 0.525
17.475 24.225 1.725
19.875 29.025 0.525
19.875 29.025 0.675
14.775 23.925 0.375
14.775 23.925 -0.375
14.775 23.925 0.825
17.775 24.375 -0.075
17.775 24.375 -0.675
13.575 24.375 0.075
13.575 24.375 0.225
13.575 24.375 -0.675
17.175 24.075 -0.225
17.175 24.075 -0.525
14.175 24.075 0.525
14.175 24.075 -0.075
18.075 24.525 -0.075
13.275 24.525 -0.225
13.275 24.525 -0.375
14.625 23.925 1.125
14.625 23.925 -0.075
16.725 23.925 0.375
18.825 25.125 0.375
12.675 24.975 0.525
12.675 24.975 -0.225
18.675 24.975 0.375
12.675 24.975 -0.525
18.825 25.125 -0.075
12.525 25.125 -0.075
12.525 25.125 0.225
15.675 23.775 -0.375
15.675 23.775 0.375
15.675 23.775 -0.825
13.725 24.225 1.575
13.725 24.225 -0.075
13.725 24.225 0.525
12.375 25.275 0.375
18.975 25.275 0.375
18.975 25.275 0.225
12.375 25.275 0.975
12.825 24.825 -0.525
12.825 24.825 0.375
15.975 23.775 0.225
15.975 23.775 0.675
16.875 23.925 -0.525
16.875 23.925 0.675
14.475 23.925 1.125
14.475 23.925 1.575
14.475 23.925 0.075
13.425 24.375 0.225
17.325 24.075 -0.375
17.325 24.075 -0.525
17.325 24.075 0.525
17.325 24.075 -0.675
18.375 24.675 -0.075
18.375 24.675 0.525
12.975 24.675 0.225
12.975 24.675 -0.075
12.225 25.425 1.125
16.275 23.775 0.675
16.275 23.775 0.525
15.075 23.775 0.675
15.075 23.775 0.225
17.025 23.925 -0.525
14.325 23.925 -0.825
14.325 23.925 0.525
12.075 25.575 1.725
13.125 24.525 -0.375
18.225 24.525 -0.225
18.225 24.525 0.525
13.125 24.525 0.225
13.125 24.525 -0.075
17.775 24.225 -0.375
17.775 24.225 -0.075
13.575 24.225 0.975
13.575 24.225 -0.825
17.475 24.075 1.125
18.075 24.375 -0.225
13.275 24.375 0.975
18.825 24.975 1.275
12.525 24.975 0.075
14.175 23.925 0.075
14.175 23.925 -0.075
14.175 23.925 1.575
17.175 23.925 0.675
12.675 24.825 0.225
12.675 24.825 0.075
18.525 24.675 -0.375
12.825 24.675 -0.075
12.825 24.675 -0.375
12.825 24.675 1.425
19.125 25.275 -2.625
12.825 24.675 0.075
16.725 23.775 0.825
16.725 23.775 0.975
17.625 24.075 0.525
13.725 24.075 0.525
13.725 24.075 0.975
15.675 23.625 -0.225
12.975 24.525 2.325
12.975 24.525 1.875
12.975 24.525 -0.225
17.925 24.225 0.975
17.925 24.225 -0.375
17.925 24.225 -0.225
13.425 24.225 -0.525
13.425 24.225 -0.375
17.925 24.225 -0.525
15.525 23.625 -0.825
15.825 23.625 -0.525
15.975 23.625 -0.675
17.325 23.925 0.675
17.325 23.925 0.225
14.025 23.925 -0.225
14.025 23.925 0.525
16.875 23.775 -0.525
14.475 23.775 0.975
14.475 23.775 -0.375
14.475 23.775 -0.225
15.225 23.625 -1.275
20.175 27.675 0.825
18.225 24.375 0.525
11.925 25.575 -0.825
13.125 24.375 -0.525
13.125 24.375 0.525
16.275 23.625 -0.225
20.175 28.725 0.675
17.025 23.775 -0.375
14.325 23.775 0.225
14.325 23.775 0.525
11.325 26.775 0.225
12.375 24.975 0.225
16.425 23.625 -0.675
16.425 23.625 -0.375
16.425 23.625 -0.525
12.525 24.825 0.675
13.575 24.075 -0.375
13.875 23.925 0.975
17.475 23.925 0.975
13.875 23.925 0.075
12.675 24.675 0.225
12.675 24.675 0.075
12.225 25.125 -0.075
12.225 25.125 0.075
18.075 24.225 -0.225
18.075 24.225 0.525
18.075 24.225 -0.075
13.275 24.225 -0.225
16.575 23.625 -0.075
20.175 29.025 0.825
12.825 24.525 0.375
12.825 24.525 0.225
12.075 25.275 -0.225
14.175 23.775 0.675
14.175 23.775 1.125
18.375 24.375 -0.375
18.375 24.375 0.075
19.425 25.425 -0.075
11.925 25.425 -0.225
16.725 23.625 -0.375
12.975 24.375 0.675
12.975 24.375 -0.225
12.975 24.375 -0.675
12.975 24.375 -0.075
17.625 23.925 0.375
13.725 23.925 0.975
13.725 23.925 0.675
15.525 23.475 -0.825
17.325 23.775 0.675
14.025 23.775 1.125
14.025 23.775 0.975
16.875 23.625 0.975
16.875 23.625 -0.375
14.475 23.625 -0.525
20.325 28.425 0.525
13.125 24.225 -0.975
13.125 24.225 -0.525
18.225 24.225 1.725
11.775 25.575 0.675
11.775 25.575 -0.075
18.975 24.825 0.975
18.975 24.825 -0.225
12.375 24.825 0.225
12.375 24.825 0.525
12.375 24.825 0.375
12.375 24.825 0.675
19.125 24.975 0.075
18.825 24.675 -0.375
20.325 27.675 0.525
12.225 24.975 -0.675
12.225 24.975 0.075
12.525 24.675 -0.525
12.525 24.675 0.075
19.275 25.125 0.375
12.675 24.525 -0.525
12.675 24.525 0.375
12.075 25.125 -0.075
12.075 25.125 0.225
12.675 24.525 0.825
15.075 23.475 0.075
13.575 23.925 -0.075
13.575 23.925 0.675
13.575 23.925 1.875
14.325 23.625 -0.375
14.325 23.625 0.525
20.175 26.775 0.375
18.075 24.075 0.525
13.275 24.075 -0.375
13.875 23.775 0.675
13.875 23.775 0.525
13.875 23.775 1.425
14.925 23.475 -0.075
12.825 24.375 -0.375
12.825 24.375 1.725
12.825 24.375 0.075
12.975 24.225 0.675
14.175 23.625 -0.375
11.175 26.625 0.225
11.775 25.425 1.275
17.925 23.925 0.225
17.925 23.925 -0.525
17.925 23.925 0.675
13.425 23.925 0.675
17.625 23.775 -0.975
13.725 23.775 0.675
13.725 23.775 1.425
12.375 24.675 0.375
12.375 24.675 0.525
12.225 24.825 -0.525
12.225 24.825 0.075
19.275 24.975 -0.075
12.075 24.975 -2.475
12.525 24.525 0.825
12.525 24.525 0.375
11.625 25.575 1.125
13.125 24.075 -0.375
18.225 24.075 1.125
20.475 28.125 0.525
12.675 24.375 0.675
18.675 24.375 0.075
12.675 24.375 0.375
12.675 24.375 0.525
19.425 25.125 0.075
15.825 23.325 0.825
20.475 27.825 0.525
20.475 28.575 0.675
18.525 24.225 -0.375
12.825 24.225 0.075
12.825 24.225 -0.225
11.775 25.275 -0.375
11.775 25.275 0.525
18.075 23.925 0.675
18.075 23.925 0.975
20.475 27.525 0.825
20.475 28.725 0.525
15.075 23.325 -0.075
20.325 26.775 -0.075
20.325 26.775 0.525
20.475 27.375 0.375
11.625 25.425 -0.525
18.375 24.075 1.125
18.375 24.075 -0.375
12.975 24.075 0.075
19.125 24.675 0.675
12.225 24.675 0.225
12.225 24.675 0.825
12.225 24.675 -0.525
19.275 24.825 0.525
18.975 24.525 -0.525
18.975 24.525 0.825
12.075 24.825 0.075
12.075 24.825 -0.525
12.375 24.525 0.075
12.375 24.525 0.825
12.075 24.825 0.375
18.975 24.525 -0.075
14.175 23.475 1.725
18.825 24.375 0.075
18.825 24.375 -1.125
18.825 24.375 -0.375
18.825 24.375 0.225
18.825 24.375 -0.075
18.825 24.375 -0.225
11.925 24.975 -0.375
11.925 24.975 0.225
11.925 24.975 -0.075
11.925 24.975 -0.825
19.425 24.975 0.075
13.425 23.775 0.675
11.325 25.875 -0.825
13.725 23.625 0.675
13.725 23.625 0.225
13.725 23.625 -0.525
13.725 23.625 -0.225
11.475 25.575 0.375
12.675 24.225 -0.375
12.675 24.225 0.675
19.575 25.125 1.575
18.675 24.225 -0.075
11.775 25.125 0.075
11.775 25.125 0.375
20.325 26.475 0.225
14.025 23.475 -0.075
20.475 26.925 0.375
16.875 23.325 -0.075
20.625 28.125 0.825
15.825 23.175 -0.525
15.525 23.175 -0.225
15.525 23.175 -0.375
15.825 23.175 0.375
18.525 24.075 -0.075
20.625 28.275 0.525
12.825 24.075 -0.225
19.725 25.275 0.225
20.625 27.825 0.975
15.975 23.175 0.525
15.375 23.175 -0.525
13.575 23.625 1.275
20.625 27.675 0.975
20.625 27.675 0.525
16.125 23.175 0.375
20.625 27.675 0.225
20.625 27.525 0.975
12.075 24.675 0.525
12.075 24.675 0.075
12.075 24.675 -0.225
12.075 24.675 -0.075
19.125 24.525 -0.075
19.125 24.525 0.525
12.075 24.675 -0.375
12.225 24.525 0.675
11.475 25.425 -0.075
18.975 24.375 0.525
11.925 24.825 -0.375
20.625 27.375 0.525
14.925 23.175 -0.375
14.925 23.175 0.225
18.825 24.225 -0.225
19.575 24.975 -0.225
11.775 24.975 0.075
11.775 24.975 1.125
12.525 24.225 0.675
12.525 24.225 0.225
14.175 23.325 -0.225
20.625 27.225 0.375
20.625 27.225 0.675
13.425 23.625 1.125
12.675 24.075 0.075
12.675 24.075 0.675
12.675 24.075 -0.375
11.625 25.125 0.075
20.025 25.575 1.875
13.725 23.475 -1.125
13.725 23.475 -0.825
13.725 23.475 -0.375
13.125 23.775 0.825
20.625 27.075 0.375
14.625 23.175 -0.375
12.825 23.925 -0.075
12.825 23.925 1.725
11.475 25.275 0.225
11.475 25.275 0.075
19.275 24.525 0.225
12.075 24.525 0.225
12.075 24.525 0.975
19.125 24.375 -0.375
19.125 24.375 0.975
11.925 24.675 -0.075
11.925 24.675 0.075
11.925 24.675 -0.225
11.925 24.675 -0.375
19.425 24.675 -0.225
12.225 24.375 1.125
18.075 23.625 -0.075
13.275 23.625 0.675
13.275 23.625 0.375
15.675 23.025 -0.525
11.025 26.025 0.675
11.025 26.025 -1.275
11.025 26.025 -2.325
15.525 23.025 0.375
18.975 24.225 1.125
18.975 24.225 0.525
12.375 24.225 -0.375
11.775 24.825 0.075
11.775 24.825 -0.075
11.775 24.825 -0.225
11.775 24.825 0.225
15.975 23.025 0.375
20.775 28.575 0.975
11.325 25.425 -0.975
11.325 25.425 0.675
11.325 25.425 -0.525
16.125 23.025 -0.225
15.225 23.025 -0.225
17.025 23.175 0.225
11.625 24.975 0.375
18.825 24.075 1.575
18.825 24.075 0.525
14.325 23.175 2.325
12.525 24.075 0.675
12.525 24.075 -0.075
20.775 27.375 0.375
20.775 27.375 0.525
10.575 27.375 0.225
18.675 23.925 0.675
12.675 23.925 -0.375
18.675 23.925 -0.525
11.475 25.125 1.425
11.475 25.125 -0.075
13.425 23.475 1.275
11.175 25.575 1.125
13.125 23.625 -0.075
11.175 25.575 -0.375
20.775 27.225 0.525
20.775 27.225 0.375
14.775 23.025 -0.525
13.725 23.325 0.525
19.275 24.375 -0.525
11.925 24.525 -0.375
11.925 24.525 -0.225
12.075 24.375 0.675
12.075 24.375 -0.225
11.925 24.525 0.375
19.425 24.525 0.075
11.325 25.275 0.075
12.825 23.775 1.275
11.325 25.275 1.725
20.775 27.075 0.525
19.125 24.225 -0.825
11.775 24.675 0.075
11.775 24.675 -0.525
11.775 24.675 -0.825
14.025 23.175 1.875
19.725 24.825 0.225
11.625 24.825 -0.075
11.625 24.825 1.425
12.375 24.075 0.675
18.975 24.075 0.525
13.575 23.325 0.375
14.475 23.025 1.275
18.825 23.925 0.525
18.825 23.925 -0.975
19.875 24.975 0.375
12.525 23.925 1.425
12.525 23.925 0.675
11.475 24.975 0.975
20.925 28.125 0.525
15.825 22.875 -0.225
20.925 27.825 0.675
13.875 23.175 0.375
20.625 26.325 -0.225
20.925 28.575 1.125
14.325 23.025 -1.125
16.275 22.875 0.375
16.275 22.875 0.675
16.275 22.875 0.225
11.325 25.125 -0.075
12.675 23.775 -2.025
12.675 23.775 1.275
18.675 23.775 0.225
20.475 25.875 -0.225
13.425 23.325 0.375
13.425 23.325 -0.375
18.225 23.475 -0.225
19.425 24.375 1.275
19.425 24.375 -0.375
16.425 22.875 0.075
16.425 22.875 0.375
16.425 22.875 0.825
11.925 24.375 -0.375
14.925 22.875 -0.075
19.425 24.375 -0.225
11.025 25.575 0.375
19.575 24.525 -0.825
14.175 23.025 -0.225
13.725 23.175 0.675
11.625 24.675 0.225
11.625 24.675 -0.225
11.625 24.675 0.075
11.625 24.675 0.525
19.125 24.075 1.125
19.125 24.075 -0.225
11.625 24.675 0.675
12.225 24.075 1.425
12.225 24.075 0.675
16.575 22.875 0.375
11.175 25.275 -0.375
18.975 23.925 0.975
18.975 23.925 1.125
18.975 23.925 0.075
12.375 23.925 1.725
12.375 23.925 0.675
11.475 24.825 0.375
11.475 24.825 0.825
11.475 24.825 0.075
11.325 24.975 1.275
11.325 24.975 -0.075
18.825 23.775 0.525
12.525 23.775 1.125
12.525 23.775 -0.375
18.375 23.475 -0.525
11.025 25.425 0.225
11.025 25.425 -0.825
13.575 23.175 0.975
13.575 23.175 0.825
16.875 22.875 0.225
14.475 22.875 0.075
15.675 22.725 0.525
15.825 22.725 0.825
21.075 28.275 0.825
15.525 22.725 -0.075
21.075 27.825 0.675
21.075 28.425 0.675
15.975 22.725 -0.375
15.375 22.725 0.375
11.175 25.125 0.525
18.675 23.625 0.375
11.175 25.125 -0.225
11.925 24.225 -0.525
11.925 24.225 0.675
19.575 24.375 0.525
11.775 24.375 -0.075
16.125 22.725 0.825
16.125 22.725 0.525
19.275 24.075 0.525
11.625 24.525 0.075
11.625 24.525 -0.525
12.075 24.075 1.425
19.725 24.525 0.075
19.725 24.525 0.525
20.925 26.775 0.675
19.125 23.925 0.675
12.225 23.925 0.825
12.225 23.925 0.675
11.475 24.675 -0.225
11.475 24.675 -0.375
11.475 24.675 0.225
14.925 22.725 -0.375
14.925 22.725 -0.525
11.025 25.275 -0.225
11.025 25.275 -0.825
20.025 24.825 0.525
14.175 22.875 0.075
11.325 24.825 1.575
12.375 23.775 -1.275
12.375 23.775 1.275
12.375 23.775 0.675
14.775 22.725 0.225
11.175 24.975 -0.225
11.175 24.975 0.075
18.825 23.625 1.875
20.175 24.975 1.875
16.725 22.725 0.675
16.725 22.725 -0.225
16.725 22.725 0.525
14.625 22.725 -0.675
14.025 22.875 -0.675
10.875 25.425 0.225
19.575 24.225 -0.375
19.575 24.225 0.525
11.775 24.225 -0.225
11.775 24.225 -0.675
11.925 24.075 1.725
11.625 24.375 0.075
19.425 24.075 0.525
19.425 24.075 0.975
19.725 24.375 -0.225
19.275 23.925 0.525
19.275 23.925 -0.825
16.875 22.725 -0.075
19.875 24.525 -0.375
12.075 23.925 1.125
11.475 24.525 -0.075
11.475 24.525 0.525
11.475 24.525 0.675
11.475 24.525 0.375
11.475 24.525 0.075
11.475 24.525 -0.225
12.675 23.475 1.125
20.325 25.125 0.075
11.025 25.125 0.825
11.025 25.125 0.375
11.025 25.125 -0.525
13.875 22.875 0.225
17.475 22.875 -0.375
19.125 23.775 0.225
11.325 24.675 0.225
15.825 22.575 0.375
15.825 22.575 0.225
15.525 22.575 0.525
19.125 23.775 0.525
12.225 23.775 1.275
12.225 23.775 1.125
12.225 23.775 0.675
12.225 23.775 0.375
12.225 23.775 0.825
21.225 28.425 0.525
15.975 22.575 0.825
15.975 22.575 0.225
15.975 22.575 0.075
15.975 22.575 -0.075
17.025 22.725 0.075
21.075 26.775 0.525
14.325 22.725 -0.075
14.325 22.725 -0.375
13.125 23.175 -0.525
16.125 22.575 -0.225
21.225 28.575 0.525
16.125 22.575 -0.075
15.225 22.575 -0.375
20.775 25.875 -0.225
13.425 23.025 -0.075
17.925 23.025 -0.075
11.175 24.825 0.225
11.175 24.825 0.675
18.975 23.625 0.075
11.175 24.825 -0.225
18.525 23.325 -0.375
18.525 23.325 0.525
16.275 22.575 0.675
16.275 22.575 -0.825
16.275 22.575 -0.075
16.275 22.575 0.525
16.275 22.575 0.075
21.225 28.725 0.675
15.075 22.575 0.375
15.075 22.575 -0.375
15.075 22.575 0.075
10.875 25.275 0.525
10.875 25.275 -0.075
10.875 25.275 0.375
12.825 23.325 0.975
20.475 25.275 -0.075
20.925 26.175 0.075
13.725 22.875 -0.225
13.725 22.875 0.075
13.725 22.875 -0.525
16.425 22.575 0.525
14.925 22.575 -0.825
14.925 22.575 0.225
14.175 22.725 -0.075
14.175 22.725 0.525
14.175 22.725 -0.375
20.325 24.975 -0.075
11.025 24.975 -0.375
19.725 24.225 -0.675
19.725 24.225 -0.375
19.575 24.075 -0.225
19.575 24.075 -0.675
11.625 24.225 0.225
14.775 22.575 0.525
11.775 24.075 0.675
11.925 23.925 1.275
11.925 23.925 0.825
19.875 24.375 -0.525
19.425 23.925 -0.225
11.475 24.375 0.075
11.475 24.375 0.225
13.275 23.025 -0.075
12.975 23.175 -0.825
12.975 23.175 0.975
12.975 23.175 0.825
10.725 25.425 0.375
21.075 26.475 0.075
14.025 22.725 -0.525
14.025 22.725 -0.225
14.025 22.725 -0.375
14.025 22.725 0.975
19.275 23.775 0.975
19.275 23.775 0.525
12.075 23.775 0.375
12.075 23.775 0.675
11.325 24.525 -0.075
11.325 24.525 0.525
11.325 24.525 -0.375
16.725 22.575 -0.375
16.725 22.575 0.075
14.625 22.575 0.525
20.925 26.025 0.375
13.575 22.875 1.275
13.575 22.875 0.525
12.675 23.325 0.225
10.875 25.125 1.425
10.875 25.125 0.375
10.875 25.125 0.075
10.875 25.125 -0.225
10.875 25.125 1.575
10.875 25.125 -0.375
10.875 25.125 2.325
20.475 25.125 3.225
20.475 25.125 -1.875
11.175 24.675 0.675
11.175 24.675 -0.225
13.875 22.725 0.225
21.075 26.325 0.075
21.375 28.125 0.825
15.675 22.425 0.675
15.675 22.425 -0.225
15.675 22.425 0.825
20.325 24.825 0.375
18.975 23.475 -0.075
15.525 22.425 -0.075
11.025 24.825 -0.525
11.025 24.825 0.675
11.025 24.825 0.825
13.125 23.025 0.225
15.975 22.425 -0.225
15.975 22.425 0.975
15.375 22.425 -0.075
15.375 22.425 0.225
17.925 22.875 -0.075
13.425 22.875 -0.075
13.425 22.875 0.225
12.825 23.175 0.225
12.825 23.175 -0.225
10.725 25.275 -0.525
15.225 22.425 -0.075
19.725 24.075 1.425
19.875 24.225 1.425
19.575 23.925 1.275
19.575 23.925 0.225
19.575 23.925 1.125
16.275 22.425 -0.075
16.275 22.425 0.675
15.075 22.425 -0.675
21.375 28.725 0.375
11.775 23.925 1.125
11.775 23.925 1.275
21.075 26.175 0.375
18.825 23.325 0.825
10.875 24.975 -0.675
10.875 24.975 0.075
20.025 24.375 -0.525
11.325 24.375 0.675
19.425 23.775 1.125
16.425 22.425 0.675
14.925 22.425 0.075
21.225 26.625 0.375
14.175 22.575 0.075
17.175 22.575 0.075
17.175 22.575 -0.075
20.175 24.525 -0.225
16.575 22.425 -0.525
16.575 22.425 0.675
14.775 22.425 -0.225
10.575 25.425 -1.125
12.975 23.025 -0.975
12.975 23.025 -0.075
13.275 22.875 -0.375
13.275 22.875 0.525
13.275 22.875 -0.675
13.275 22.875 0.225
13.275 22.875 -0.225
13.275 22.875 -0.075
12.225 23.475 -0.525
11.025 24.675 0.675
11.025 24.675 -0.225
11.025 24.675 0.975
14.025 22.575 0.525
21.075 26.025 0.525
16.725 22.425 0.225
16.725 22.425 -0.675
14.625 22.425 0.525
16.875 22.425 0.075
14.475 22.425 0.525
20.475 24.825 1.875
10.875 24.825 -0.825
19.725 23.925 0.525
19.725 23.925 0.375
11.625 23.925 0.675
11.625 23.925 0.525
11.625 23.925 1.125
13.875 22.575 0.375
13.875 22.575 -0.225
17.475 22.575 -0.225
13.125 22.875 -0.075
13.125 22.875 -0.525
13.125 22.875 -0.375
20.925 25.575 0.375
20.025 24.225 -0.375
20.775 25.275 -0.225
11.325 24.225 1.575
11.325 24.225 0.675
11.775 23.775 -0.525
10.575 25.275 -0.375
12.825 23.025 0.375
21.075 25.875 0.375
21.075 25.875 0.225
13.425 22.725 -0.525
13.425 22.725 0.225
15.675 22.275 -0.075
21.525 28.275 0.975
21.525 28.275 1.125
15.825 22.275 0.075
15.825 22.275 0.675
17.025 22.425 0.375
17.025 22.425 4.575
20.175 24.375 -0.375
11.175 24.375 -0.075
11.175 24.375 -0.225
14.325 22.425 -0.525
19.425 23.625 0.225
15.375 22.275 -0.075
15.375 22.275 -0.375
10.725 24.975 -0.675
10.725 24.975 1.875
15.225 22.275 -0.075
15.225 22.275 0.675
16.125 22.275 0.525
19.275 23.475 0.225
20.325 24.525 0.525
11.025 24.525 -0.225
15.075 22.275 0.075
15.075 22.275 -0.225
16.275 22.275 0.225
16.275 22.275 0.075
21.225 26.175 0.825
21.225 26.175 0.225
21.375 26.625 0.225
14.175 22.425 0.225
14.175 22.425 -0.075
16.425 22.275 0.075
10.425 25.425 -0.225
10.425 25.425 0.225
10.425 25.425 2.325
12.975 22.875 -0.375
12.975 22.875 1.275
21.075 25.725 0.225
21.075 25.725 0.525
21.075 25.725 0.075
18.075 22.725 0.225
13.275 22.725 -0.075
10.875 24.675 0.075
10.875 24.675 0.675
10.875 24.675 0.525
10.875 24.675 -0.375
10.875 24.675 -0.225
10.875 24.675 -0.075
12.225 23.325 0.075
20.775 25.125 -0.075
12.675 23.025 -0.375
12.675 23.025 -0.225
12.675 23.025 -0.525
12.675 23.025 0.075
10.575 25.125 0.975
10.575 25.125 2.025
16.575 22.275 0.225
16.575 22.275 -0.225
14.775 22.275 -0.375
14.775 22.275 -0.075
14.025 22.425 0.225
21.225 26.025 0.375
13.575 22.575 1.425
13.575 22.575 -0.525
11.475 23.925 0.825
11.475 23.925 0.075
21.525 27.075 0.675
14.625 22.275 -0.075
14.625 22.275 0.075
19.725 23.775 0.975
14.625 22.275 -0.675
11.325 24.075 -0.075
11.625 23.775 -0.675
12.375 23.175 0.075
12.375 23.175 -0.525
12.375 23.175 0.825
10.725 24.825 -0.375
10.725 24.825 -0.225
10.725 24.825 0.675
20.175 24.225 -0.525
20.175 24.225 -0.225
11.175 24.225 1.575
11.175 24.225 0.675
11.775 23.625 -0.375
21.525 26.925 0.525
13.125 22.725 0.825
13.125 22.725 -0.375
13.125 22.725 -0.225
13.125 22.725 -0.525
13.125 22.725 -0.075
16.875 22.275 -0.375
14.475 22.275 -0.075
19.425 23.475 0.075
20.325 24.375 0.825
11.025 24.375 0.225
11.025 24.375 -0.225
12.825 22.875 0.375
12.825 22.875 -0.075
12.825 22.875 0.825
20.925 25.275 -0.225
13.875 22.425 0.375
21.225 25.875 0.975
21.225 25.875 0.225
10.575 24.975 -0.225
12.525 23.025 0.225
12.525 23.025 -0.525
15.675 22.125 -0.075
10.875 24.525 0.675
15.825 22.125 -0.375
15.825 22.125 0.225
15.825 22.125 -0.225
15.525 22.125 -0.225
21.525 26.775 0.525
15.375 22.125 -0.525
15.375 22.125 0.225
15.375 22.125 -0.075
21.375 26.175 0.675
21.375 26.175 0.075
13.725 22.425 -0.675
13.725 22.425 -0.225
13.725 22.425 -0.375
16.275 22.125 0.675
12.225 23.175 -0.075
10.725 24.675 -0.075
10.725 24.675 0.825
10.725 24.675 0.675
10.725 24.675 -0.375
21.075 25.425 0.075
21.075 25.425 0.375
12.975 22.725 -0.825
12.975 22.725 -0.075
21.525 26.625 0.975
21.525 26.625 0.375
14.175 22.275 -0.825
14.175 22.275 0.075
12.675 22.875 0.525
12.675 22.875 0.075
12.675 22.875 -0.525
14.925 22.125 0.075
16.425 22.125 -0.075
16.425 22.125 0.975
16.425 22.125 0.675
16.425 22.125 0.525
10.425 25.125 -0.375
10.425 25.125 0.225
10.425 25.125 -0.225
18.075 22.575 -0.375
11.325 23.925 -0.375
13.275 22.575 -0.675
13.275 22.575 0.075
11.475 23.775 0.375
11.475 23.775 0.675
20.175 24.075 -1.275
19.725 23.625 0.675
19.725 23.625 0.225
11.175 24.075 1.275
16.575 22.125 0.375
16.575 22.125 1.125
20.325 24.225 -0.825
11.775 23.475 0.375
20.775 24.825 -0.225
21.375 26.025 0.675
13.575 22.425 0.075
12.375 23.025 -0.075
12.375 23.025 0.225
18.975 23.025 0.375
14.025 22.275 0.225
16.725 22.125 -0.075
10.875 24.375 1.725
10.875 24.375 -0.375
10.875 24.375 0.075
10.875 24.375 0.675
10.875 24.375 1.575
10.875 24.375 -0.225
11.925 23.325 0.375
20.475 24.375 -0.375
19.425 23.325 -0.825
21.075 25.275 0.075
12.825 22.725 0.375
12.825 22.725 -0.525
12.825 22.725 0.525
12.825 22.725 -0.075
12.825 22.725 0.225
21.225 25.575 0.675
13.125 22.575 -0.675
13.125 22.575 0.075
14.475 22.125 -0.675
10.725 24.525 0.675
10.725 24.525 0.525
13.875 22.275 0.375
18.825 22.875 0.225
20.925 24.975 0.075
12.525 22.875 -0.075
12.525 22.875 0.225
21.375 25.875 0.225
13.425 22.425 0.375
15.675 21.975 -0.375
17.025 22.125 0.225
17.025 22.125 0.375
14.325 22.125 -0.225
15.525 21.975 0.225
15.525 21.975 -0.225
20.025 23.775 0.525
20.175 23.925 0.375
11.175 23.925 -0.075
19.875 23.625 0.525
15.975 21.975 0.825
10.575 24.675 0.675
10.575 24.675 0.525
10.575 24.675 -0.375
12.225 23.025 0.075
12.225 23.025 -0.075
16.125 21.975 0.675
16.125 21.975 0.075
16.125 21.975 0.225
20.325 24.075 0.375
20.325 24.075 -0.675
19.725 23.475 0.675
11.625 23.475 -0.975
11.625 23.475 -0.075
11.025 24.075 0.675
11.025 24.075 1.125
11.025 24.075 -0.075
13.725 22.275 0.075
21.225 25.425 0.525
10.125 25.425 1.425
12.975 22.575 -0.075
12.975 22.575 0.675
21.075 25.125 0.075
21.075 25.125 -0.075
12.675 22.725 0.075
12.675 22.725 -0.225
16.275 21.975 0.675
16.275 21.975 0.825
10.875 24.225 -0.075
10.875 24.225 1.575
13.275 22.425 -0.525
13.275 22.425 -0.375
17.175 22.125 -0.075
11.775 23.325 0.075
21.825 28.875 0.675
16.425 21.975 0.975
12.375 22.875 -0.075
12.375 22.875 -0.525
12.375 22.875 -0.375
10.425 24.825 0.975
10.425 24.825 -0.075
20.925 24.825 0.825
20.925 24.825 -0.075
20.925 24.825 0.075
10.725 24.375 0.675
16.575 21.975 0.375
16.575 21.975 0.525
14.025 22.125 -0.075
14.025 22.125 -0.225
12.825 22.575 2.025
10.125 25.275 -0.525
10.575 24.525 0.675
10.575 24.525 -0.225
12.075 23.025 -0.075
12.075 23.025 0.375
21.375 25.575 0.075
21.375 25.575 0.525
13.125 22.425 0.675
21.075 24.975 0.075
12.525 22.725 -0.525
12.525 22.725 0.225
12.525 22.725 -0.075
20.025 23.625 1.125
20.175 23.775 0.525
11.175 23.775 -0.225
11.175 23.775 -0.375
20.325 23.925 -0.375
20.325 23.925 0.525
20.325 23.925 0.075
11.025 23.925 -0.225
21.525 25.875 0.375
21.525 25.875 0.975
13.425 22.275 0.225
13.425 22.275 0.075
17.925 22.275 1.125
17.925 22.275 -0.075
20.475 24.075 0.525
10.875 24.075 1.275
10.875 24.075 0.825
10.875 24.075 2.925
10.875 24.075 -0.075
10.875 24.075 0.075
10.425 24.675 0.525
20.925 24.675 0.075
12.225 22.875 -0.075
12.225 22.875 0.075
12.225 22.875 -0.375
15.675 21.825 0.975
15.675 21.825 -0.225
20.625 24.225 -0.225
10.725 24.225 0.075
10.725 24.225 0.675
10.725 24.225 1.275
11.775 23.175 -0.675
15.825 21.825 -0.225
15.825 21.825 1.125
15.525 21.825 0.525
15.825 21.825 0.225
12.975 22.425 0.075
12.975 22.425 0.525
12.975 22.425 -0.975
9.975 25.425 -0.375
9.975 25.425 0.075
15.975 21.825 0.225
15.375 21.825 0.375
15.375 21.825 -0.075
17.625 22.125 0.075
17.625 22.125 0.225
13.725 22.125 -0.225
13.725 22.125 0.375
12.675 22.575 0.375
10.125 25.125 0.075
16.125 21.825 0.825
21.525 25.725 0.075
13.275 22.275 -0.375
21.075 24.825 0.075
21.075 24.825 -0.225
12.375 22.725 -0.825
16.275 21.825 -0.225
16.275 21.825 0.525
10.275 24.825 -0.675
10.275 24.825 0.975
20.775 24.375 -0.225
10.575 24.375 1.875
10.575 24.375 1.575
10.575 24.375 -0.225
10.575 24.375 0.675
16.425 21.825 0.525
16.425 21.825 0.075
17.775 22.125 0.225
13.575 22.125 -0.225
20.175 23.625 1.425
20.175 23.625 1.125
16.575 21.825 0.075
12.075 22.875 -0.225
10.425 24.525 0.525
10.425 24.525 0.675
20.025 23.475 0.225
20.025 23.475 0.975
14.025 21.975 0.525
11.325 23.475 1.425
11.325 23.475 -0.675
11.325 23.475 1.575
11.325 23.475 2.175
20.325 23.775 -0.075
20.325 23.775 1.575
20.325 23.775 -0.225
11.025 23.775 0.525
18.525 22.425 -0.075
9.975 25.275 0.525
9.975 25.275 -0.525
20.475 23.925 -0.225
20.475 23.925 -0.375
10.875 23.925 0.375
10.875 23.925 0.675
20.475 23.925 -0.525
21.525 25.575 0.675
21.225 24.975 0.375
13.125 22.275 0.075
16.725 21.825 0.075
16.725 21.825 0.975
20.625 24.075 0.525
20.625 24.075 -0.525
10.725 24.075 -0.225
10.725 24.075 1.275
21.075 24.675 0.225
21.075 24.675 0.075
13.875 21.975 -0.525
12.225 22.725 0.375
12.225 22.725 -0.525
12.225 22.725 -0.075
12.225 22.725 -0.225
10.275 24.675 0.975
10.275 24.675 -0.525
10.275 24.675 -0.225
13.425 22.125 -0.075
16.875 21.825 0.225
10.575 24.225 -0.225
10.575 24.225 1.725
10.575 24.225 1.425
10.575 24.225 1.575
10.575 24.225 0.675
9.975 25.125 -0.225
14.325 21.825 -1.275
18.375 22.275 0.225
12.975 22.275 -0.225
15.675 21.675 0.375
13.725 21.975 0.075
13.725 21.975 -0.675
13.725 21.975 0.225
13.725 21.975 -0.225
15.825 21.675 0.375
15.525 21.675 -0.375
15.525 21.675 -0.075
15.525 21.675 0.675
15.525 21.675 0.225
11.925 22.875 0.675
10.425 24.375 -0.225
10.425 24.375 -0.075
10.425 24.375 0.675
20.925 24.375 0.375
20.925 24.375 -0.225
15.975 21.675 0.675
15.375 21.675 -0.075
15.375 21.675 -0.375
12.375 22.575 0.225
12.375 22.575 0.525
10.125 24.825 -0.525
18.975 22.575 0.825
18.075 22.125 0.525
9.675 25.725 -0.525
16.125 21.675 0.525
11.175 23.475 -0.375
20.475 23.775 -0.675
21.075 24.525 0.225
12.075 22.725 0.525
12.075 22.725 0.375
10.275 24.525 0.225
10.275 24.525 0.075
20.625 23.925 -0.525
11.475 23.175 0.075
16.425 21.675 0.225
16.425 21.675 0.675
16.425 21.675 0.525
13.575 21.975 0.375
13.575 21.975 0.825
18.525 22.275 0.225
18.525 22.275 1.125
18.525 22.275 0.675
12.825 22.275 -0.225
9.825 25.275 -0.675
9.825 25.275 -1.125
20.775 24.075 -0.525
21.375 24.975 0.525
21.375 24.975 0.225
9.975 24.975 -0.075
10.575 24.075 1.275
10.575 24.075 -0.225
10.575 24.075 1.125
11.625 23.025 -0.225
11.625 23.025 -0.075
13.125 22.125 0.225
13.125 22.125 -0.075
21.675 25.575 0.075
18.225 22.125 0.525
10.125 24.675 0.675
12.225 22.575 0.675
12.225 22.575 0.075
20.925 24.225 -3.825
10.425 24.225 1.725
10.425 24.225 0.825
10.425 24.225 0.675
10.425 24.225 1.575
11.775 22.875 -0.225
11.775 22.875 0.375
11.775 22.875 0.225
11.775 22.875 0.075
13.875 21.825 0.225
21.525 25.125 0.525
21.525 25.125 0.075
11.925 22.725 0.075
11.925 22.725 0.225
11.925 22.725 -0.675
10.275 24.375 0.375
10.275 24.375 0.675
10.275 24.375 -0.075
12.675 22.275 2.175
9.825 25.125 -0.225
20.475 23.625 -0.225
10.875 23.625 1.875
10.875 23.625 0.525
9.975 24.825 -0.075
14.325 21.675 0.375
11.325 23.175 0.525
11.325 23.175 0.225
11.325 23.175 0.075
20.625 23.775 -0.075
20.625 23.775 -0.375
17.625 21.825 -0.375
17.625 21.825 0.375
15.675 21.525 1.425
15.675 21.525 0.825
15.675 21.525 0.975
15.675 21.525 0.525
15.675 21.525 0.225
13.275 21.975 -0.075
15.825 21.525 -0.075
15.825 21.525 0.975
15.525 21.525 0.675
15.525 21.525 0.225
15.525 21.525 0.375
10.575 23.925 -0.375
15.975 21.525 0.075
11.475 23.025 -0.225
22.275 28.575 0.975
10.125 24.525 -0.375
16.125 21.525 1.275
11.625 22.875 -0.225
11.625 22.875 0.225
10.425 24.075 0.375
10.425 24.075 1.125
10.425 24.075 0.675
10.425 24.075 1.425
10.425 24.075 1.275
19.725 22.875 1.125
13.575 21.825 0.525
13.575 21.825 -0.075
9.675 25.275 -0.075
9.675 25.275 -0.525
12.825 22.125 0.375
12.825 22.125 0.225
16.425 21.525 0.375
14.925 21.525 0.075
21.525 24.975 0.075
12.525 22.275 -0.525
21.825 25.575 0.675
22.125 26.475 0.525
13.125 21.975 0.075
13.125 21.975 0.225
18.225 21.975 0.225
18.225 21.975 0.075
21.075 24.225 1.275
21.075 24.225 -0.375
19.575 22.725 -0.975
10.275 24.225 0.675
10.275 24.225 1.725
10.275 24.225 0.825
11.775 22.725 -0.225
21.375 24.675 -0.075
9.975 24.675 0.675
9.975 24.675 -0.225
11.025 23.325 -0.525
16.725 21.525 0.075
22.125 26.325 0.525
11.925 22.575 -0.075
11.925 22.575 0.825
10.125 24.375 -0.225
10.125 24.375 0.675
11.325 23.025 -0.075
9.675 25.125 -0.225
9.675 25.125 0.075
21.675 25.125 0.225
21.675 25.125 0.675
12.675 22.125 0.525
18.675 22.125 0.225
21.525 24.825 0.675
12.975 21.975 0.075
9.825 24.825 -0.075
18.975 22.275 0.375
20.925 23.925 -0.375
11.475 22.875 -0.375
11.475 22.875 -0.675
11.475 22.875 -0.075
13.725 21.675 0.525
21.375 24.525 0.075
13.275 21.825 0.225
9.975 24.525 0.525
9.975 24.525 0.675
11.625 22.725 0.525
15.675 21.375 0.825
10.275 24.075 0.375
10.275 24.075 1.125
10.275 24.075 -0.225
10.275 24.075 1.275
10.275 24.075 0.675
15.525 21.375 0.525
15.825 21.375 0.075
15.825 21.375 0.525
15.975 21.375 -0.375
15.975 21.375 0.075
15.975 21.375 1.275
15.975 21.375 -0.225
15.375 21.375 0.075
17.175 21.525 -0.075
9.675 24.975 0.375
9.675 24.975 0.075
16.275 21.375 0.225
15.075 21.375 0.225
21.825 25.275 0.675
12.825 21.975 0.075
12.825 21.975 0.225
12.825 21.975 -0.375
9.525 25.275 -0.225
10.125 24.225 1.725
10.125 24.225 0.675
10.125 24.225 0.825
10.125 24.225 1.575
21.225 24.225 -0.225
13.575 21.675 0.375
13.575 21.675 -0.225
11.775 22.575 0.225
11.775 22.575 0.525
11.775 22.575 0.075
10.875 23.325 -0.525
20.325 23.175 0.525
20.325 23.175 3.075
16.425 21.375 0.075
14.925 21.375 -0.225
10.725 23.475 -0.675
10.725 23.475 0.075
9.825 24.675 -0.525
9.825 24.675 0.075
20.775 23.625 -0.225
20.775 23.625 0.525
14.025 21.525 -0.075
16.575 21.375 1.125
11.325 22.875 -0.075
20.925 23.775 -0.375
21.375 24.375 -0.225
13.425 21.675 0.225
10.275 23.925 0.375
21.825 25.125 -0.075
21.825 25.125 0.225
21.825 25.125 0.375
21.825 25.125 0.525
9.525 25.125 -0.375
9.525 25.125 -0.225
9.675 24.825 -0.675
9.675 24.825 1.875
21.975 25.425 0.675
12.975 21.825 0.375
16.875 21.375 0.075
9.825 24.525 0.525
12.075 22.275 -0.375
10.125 24.075 0.675
11.625 22.575 1.125
10.125 24.075 1.275
10.125 24.075 1.125
10.125 24.075 0.375
10.125 24.075 -0.375
13.725 21.525 0.525
17.025 21.375 0.075
14.325 21.375 0.525
10.875 23.175 -0.075
10.875 23.175 -0.375
10.875 23.175 -0.675
20.625 23.325 0.375
20.475 23.175 -0.375
10.725 23.325 -0.525
15.675 21.225 0.075
15.675 21.225 0.525
15.675 21.225 1.425
20.775 23.475 -0.375
15.825 21.225 0.525
15.525 21.225 0.525
20.325 23.025 -0.675
20.325 23.025 0.525
20.325 23.025 -0.225
11.025 23.025 -0.675
11.025 23.025 -0.075
11.025 23.025 -0.525
15.975 21.225 -0.075
21.375 24.225 1.575
15.375 21.225 0.075
21.375 24.225 0.075
9.975 24.225 1.725
9.975 24.225 0.825
9.975 24.225 0.675
9.525 24.975 -0.225
16.125 21.225 -0.225
16.125 21.225 0.075
16.125 21.225 0.375
15.225 21.225 -0.225
15.225 21.225 0.075
17.175 21.375 0.075
17.175 21.375 0.675
20.175 22.875 -0.975
10.425 23.625 0.975
12.825 21.825 -0.075
12.825 21.825 0.675
21.975 25.275 0.675
21.675 24.675 0.525
9.675 24.675 0.225
9.675 24.675 -0.075
12.225 22.125 -0.375
15.075 21.225 1.125
15.075 21.225 0.675
15.075 21.225 0.375
13.575 21.525 0.375
13.575 21.525 0.675
13.575 21.525 0.225
13.575 21.525 -0.225
11.325 22.725 -0.375
21.075 23.775 -0.525
13.125 21.675 -0.375
13.125 21.675 0.525
13.125 21.675 -0.525
9.225 25.575 -0.525
16.425 21.225 -0.225
16.425 21.225 0.525
14.925 21.225 -0.225
14.925 21.225 1.275
16.425 21.225 0.675
21.525 24.375 -0.375
21.525 24.375 0.375
17.325 21.375 0.525
16.575 21.225 -0.375
16.575 21.225 -0.075
13.425 21.525 -0.675
13.425 21.525 -0.075
13.425 21.525 0.375
13.425 21.525 -0.225
12.675 21.825 -0.525
21.975 25.125 0.525
14.625 21.225 0.075
21.825 24.825 0.975
21.825 24.825 0.675
12.375 21.975 0.375
9.525 24.825 0.375
13.875 21.375 0.225
11.625 22.425 0.075
12.975 21.675 -0.075
9.975 24.075 0.375
9.975 24.075 1.125
9.975 24.075 -0.225
9.975 24.075 -0.825
9.975 24.075 0.675
9.225 25.425 -0.225
21.675 24.525 0.075
20.625 23.175 0.675
10.725 23.175 -0.825
10.725 23.175 -0.375
10.875 23.025 -0.525
10.575 23.325 -0.225
10.575 23.325 1.425
10.575 23.325 -0.375
20.925 23.475 0.075
11.025 22.875 0.075
9.075 25.725 0.375
9.075 25.725 0.975
13.275 21.525 0.375
13.725 21.375 -0.075
13.725 21.375 0.075
20.175 22.725 2.175
20.175 22.725 -0.675
21.075 23.625 -0.225
11.175 22.725 0.525
11.175 22.725 -0.075
21.525 24.225 -0.075
14.325 21.225 0.525
9.825 24.225 0.825
9.825 24.225 0.675
9.375 24.975 -0.225
9.375 24.975 0.075
21.975 24.975 0.525
21.825 24.675 0.825
21.825 24.675 0.375
12.225 21.975 0.375
12.825 21.675 -0.225
9.525 24.675 -0.075
22.125 25.275 1.275
9.525 24.675 -0.225
15.525 21.075 1.125
15.525 21.075 -0.225
15.825 21.075 0.225
15.975 21.075 0.075
15.375 21.075 0.225
15.375 21.075 -0.525
15.375 21.075 -0.075
15.225 21.075 -0.525
15.225 21.075 0.975
15.225 21.075 0.825
9.675 24.375 0.225
9.675 24.375 0.825
9.675 24.375 0.075
21.675 24.375 0.825
11.925 22.125 0.225
21.675 24.375 0.225
15.075 21.075 1.275
15.075 21.075 0.525
16.275 21.075 -0.375
16.275 21.075 0.375
15.075 21.075 -0.075
13.125 21.525 -0.075
13.125 21.525 0.525
11.475 22.425 0.525
9.975 23.925 -0.375
16.425 21.075 0.675
16.425 21.075 0.225
16.425 21.075 1.575
8.625 27.375 1.875
14.025 21.225 0.225
20.775 23.175 0.675
16.575 21.075 0.975
8.625 27.225 1.575
20.625 23.025 0.375
10.575 23.175 -0.525
14.775 21.075 0.975
20.625 23.025 0.675
10.575 23.175 -0.375
10.575 23.175 -0.225
10.725 23.025 0.375
10.725 23.025 -0.225
10.725 23.025 -0.975
10.725 23.025 0.225
12.375 21.825 0.075
9.375 24.825 0.825
9.375 24.825 0.675
9.375 24.825 -0.525
21.975 24.825 0.075
21.975 24.825 0.525
21.975 24.825 0.975
22.125 25.125 0.525
22.125 25.125 0.375
10.875 22.875 -0.075
10.875 22.875 0.525
10.425 23.325 -0.525
21.525 24.075 0.075
13.425 21.375 0.825
9.825 24.075 1.125
11.625 22.275 0.375
9.825 24.075 0.375
9.825 24.075 0.675
9.825 24.075 -0.225
11.025 22.725 -0.075
11.025 22.725 0.525
9.525 24.525 0.225
16.725 21.075 0.825
16.725 21.075 -0.075
16.725 21.075 0.075
16.725 21.075 0.675
12.975 21.525 0.225
12.975 21.525 -0.225
11.175 22.575 -0.225
10.125 23.625 0.975
11.175 22.575 0.375
14.475 21.075 -1.275
9.675 24.225 1.425
9.675 24.225 0.825
9.675 24.225 -1.575
18.075 21.375 0.825
13.275 21.375 -0.075
13.275 21.375 0.075
13.725 21.225 0.375
13.725 21.225 -0.075
22.125 24.975 0.675
