# .PCD v0.7 - Point Cloud Data file format
VERSION 0.7
FIELDS x y z
SIZE 4 4 4
TYPE F F F
COUNT 1 1 1
WIDTH 2048
HEIGHT 1
VIEWPOINT 0 0 0 1 0 0 0
POINTS 2048
DATA ascii
49.875 18.225 3.825
50.325 17.325 4.125
50.325 17.325 3.675
49.725 18.225 3.675
49.725 18.075 -1.275
50.625 17.025 3.675
49.575 18.225 3.825
49.425 18.375 -0.525
50.925 16.725 3.675
50.475 16.425 2.475
48.675 19.425 0.525
48.225 19.275 -0.825
48.375 16.425 3.525
48.375 16.425 3.825
48.225 16.575 4.425
48.375 16.275 4.425
48.375 16.125 2.775
48.375 20.925 1.575
48.225 16.275 3.375
47.625 19.725 2.775
48.375 15.975 -2.025
47.925 16.575 2.775
48.525 15.675 1.875
48.225 15.975 3.975
48.675 15.525 -0.525
48.075 16.125 4.275
48.825 15.375 1.275
47.625 16.875 4.725
47.925 16.275 4.875
47.625 16.725 5.025
48.375 15.675 2.175
48.375 21.375 2.325
48.225 15.825 3.375
47.475 17.025 6.075
48.075 15.975 2.775
48.075 15.975 1.275
47.175 18.825 2.325
47.925 16.125 4.125
47.475 16.875 4.575
47.775 16.275 4.725
47.775 16.275 2.775
48.225 15.675 1.725
48.225 15.675 2.325
48.375 15.525 2.175
48.075 15.825 2.625
48.075 15.825 2.475
48.525 15.375 2.025
47.925 15.975 4.125
47.775 16.125 4.875
47.775 16.125 4.725
47.175 19.725 4.275
47.325 16.875 5.175
48.225 15.525 3.675
48.225 15.525 3.225
48.075 15.675 3.225
48.075 15.675 2.325
48.075 15.675 3.975
48.075 15.675 1.725
48.075 15.675 3.075
48.525 15.225 2.325
49.875 14.475 1.725
47.175 17.175 5.175
47.775 15.975 2.625
47.625 16.125 3.375
47.625 16.125 4.725
47.025 19.575 2.625
48.075 15.525 2.025
48.075 15.525 2.925
48.075 15.525 2.175
47.925 15.675 3.825
49.575 14.475 2.025
47.475 16.275 4.875
48.525 15.075 -0.225
47.625 15.975 -2.475
47.625 15.975 -2.175
50.475 14.175 0.225
47.175 16.725 4.275
48.075 15.375 3.525
48.075 15.375 3.225
48.075 15.375 1.575
48.075 15.375 3.075
48.075 21.675 1.875
48.225 15.225 0.825
48.225 15.225 2.025
47.925 15.525 2.025
47.925 15.525 1.875
46.725 18.675 3.375
46.725 18.975 4.875
47.475 15.975 -2.475
47.475 15.975 2.925
48.675 14.775 0.375
48.075 15.225 2.625
48.075 15.225 3.075
48.075 15.225 0.975
48.075 15.225 0.825
46.725 19.275 6.075
47.925 15.375 2.475
47.925 15.375 0.975
47.925 15.375 1.575
47.925 15.375 2.625
47.925 15.375 1.425
48.225 15.075 0.675
47.775 15.525 3.375
49.725 14.175 2.325
46.875 20.025 4.275
48.525 14.775 1.725
48.525 14.775 1.575
46.875 16.875 4.725
46.725 17.325 5.025
47.925 15.225 2.025
47.925 15.225 1.425
48.075 15.075 0.825
47.775 15.375 1.875
48.225 14.925 -0.525
48.225 14.925 1.275
48.225 14.925 2.025
46.725 17.175 -0.975
46.725 17.175 -0.075
48.825 14.475 -3.225
48.525 14.625 -1.425
47.775 15.225 2.175
47.925 15.075 1.575
47.925 15.075 0.975
48.075 14.925 -0.975
48.075 14.925 -0.225
48.075 14.925 1.125
48.075 14.925 0.975
46.725 16.875 -0.825
48.225 14.775 1.725
47.475 21.525 2.475
48.375 14.625 0.675
48.375 14.625 1.125
50.625 13.725 -0.825
47.025 16.125 3.975
46.575 19.875 5.775
47.775 15.075 0.975
47.775 21.975 1.425
47.925 14.925 1.425
47.925 22.125 1.425
48.075 14.775 0.525
47.475 15.375 4.575
46.725 16.575 1.875
46.275 18.525 -4.125
47.175 15.675 -1.275
47.175 15.675 1.275
47.775 14.925 0.975
47.625 15.075 0.825
47.475 21.825 2.775
47.925 14.775 1.425
47.925 14.775 4.875
47.925 14.775 1.275
48.075 14.625 0.675
48.075 14.625 0.075
48.075 14.625 0.975
48.075 14.625 1.875
48.075 14.625 0.525
46.575 16.575 2.925
46.425 16.875 -0.225
47.625 14.925 0.825
47.625 22.125 1.725
46.125 18.825 4.575
47.925 14.625 0.525
47.925 14.625 0.975
46.125 18.075 -1.275
46.125 18.975 4.275
48.075 14.475 1.275
48.225 14.325 0.525
46.575 16.275 4.425
46.425 16.575 -0.675
47.475 14.925 0.225
47.475 14.925 0.675
47.775 14.625 0.825
47.775 14.625 1.275
46.575 16.125 -0.375
46.275 16.725 -0.375
45.975 18.975 4.875
46.875 21.525 1.725
47.775 14.475 1.425
47.025 15.225 5.175
49.575 13.425 1.275
46.425 16.125 -0.675
46.425 16.125 -0.375
48.525 13.875 -1.275
46.725 15.525 1.275
47.475 22.425 1.875
45.975 17.175 -1.875
45.975 17.175 0.225
45.975 19.875 4.725
45.825 17.925 0.075
48.675 13.725 -0.825
46.425 15.975 -0.525
46.425 15.975 4.275
46.425 21.075 1.725
46.575 15.675 -0.225
46.575 15.675 0.225
45.825 19.575 4.575
46.425 15.825 -0.225
47.325 14.625 1.275
47.325 14.625 0.675
47.325 14.625 0.825
47.325 14.625 -1.575
47.175 14.775 5.775
47.175 14.775 1.275
47.625 14.325 1.275
46.575 15.525 -0.225
48.225 13.875 1.425
46.875 15.075 1.125
45.825 17.175 0.975
46.275 15.975 -0.225
46.275 15.975 -0.375
46.275 15.975 -0.525
46.275 15.975 -0.075
48.975 13.425 -1.875
46.125 16.275 -0.225
45.975 16.575 2.175
45.975 16.575 0.825
45.825 17.025 -0.225
47.325 14.475 0.525
47.325 14.475 1.425
47.175 14.625 0.675
45.675 17.625 -0.375
45.675 19.425 5.175
47.475 14.325 0.975
47.475 14.325 0.825
47.025 14.775 -1.725
46.125 16.125 -0.375
46.125 16.125 -0.225
46.275 15.825 1.875
47.625 14.175 0.375
46.875 22.125 1.125
45.675 17.475 0.825
45.675 17.475 -0.225
45.975 16.425 -0.375
46.425 15.525 -0.075
46.425 15.525 0.075
46.725 15.075 -0.225
45.675 19.725 4.875
45.825 16.725 -0.075
46.575 15.225 0.075
46.125 15.975 -0.225
48.975 13.275 4.875
45.975 16.275 -0.225
46.275 15.675 0.075
45.675 17.175 0.675
45.675 19.875 4.875
50.775 12.825 2.025
45.525 18.075 -1.125
47.175 14.475 0.825
47.175 14.475 0.975
47.175 14.475 0.225
47.325 14.325 0.825
47.325 14.325 -0.525
47.325 14.325 0.375
47.025 14.625 1.125
45.525 19.125 6.075
45.525 19.125 4.125
45.825 16.575 0.675
46.425 15.375 -0.375
46.425 15.375 0.075
47.475 14.175 0.675
47.475 14.175 0.375
47.475 14.175 0.975
45.525 19.275 4.275
45.525 17.775 -0.375
45.675 17.025 -0.225
46.725 14.925 -0.525
46.125 15.825 -0.375
46.125 21.225 0.525
48.825 13.275 -2.775
45.975 16.125 -1.125
46.275 21.525 2.025
46.275 21.525 1.725
46.575 15.075 -0.525
46.575 15.075 -0.225
46.575 15.075 -0.075
46.575 21.975 0.525
45.825 16.425 0.075
45.525 19.575 4.125
45.525 17.325 0.825
45.525 19.725 2.025
46.425 15.225 -0.225
46.425 15.225 0.375
46.425 21.825 1.275
47.025 14.475 0.675
47.025 14.475 -0.975
47.175 14.325 0.375
45.675 16.725 4.125
45.675 16.725 -0.225
45.975 15.975 -0.525
45.975 15.975 0.825
45.975 21.075 0.975
47.325 14.175 4.275
45.525 17.175 0.825
45.525 17.175 0.675
46.275 15.375 -0.225
46.275 15.375 0.825
46.575 14.925 -0.375
46.575 14.925 -0.225
45.675 16.575 0.825
45.675 16.575 0.225
45.675 16.575 -0.075
45.525 17.025 4.425
45.375 17.775 -0.375
45.975 15.825 0.675
45.975 15.825 -0.975
45.975 15.825 0.825
45.825 16.125 0.225
47.775 13.725 0.825
46.425 21.975 0.975
46.125 15.525 -0.375
45.375 17.625 0.825
45.675 16.425 0.075
45.675 16.425 0.375
47.025 14.325 0.525
47.025 14.325 0.375
46.875 14.475 0.225
46.875 14.475 0.375
47.325 14.025 -0.675
47.325 14.025 -0.375
45.825 15.975 -0.825
45.375 17.325 0.675
46.575 22.275 2.475
47.475 13.875 5.025
47.475 13.875 0.675
45.525 16.725 -0.075
45.525 16.725 0.825
45.525 16.725 0.075
45.525 16.725 -0.225
46.125 15.375 0.675
47.625 13.725 1.875
45.375 17.175 0.675
45.525 16.575 0.825
45.525 16.575 -0.075
45.225 17.925 0.675
45.825 15.825 -0.225
45.825 15.825 0.675
45.825 15.825 -0.525
45.825 15.825 -1.275
45.825 15.825 -0.675
45.825 15.825 -0.975
45.975 15.525 -0.225
48.225 13.275 -2.325
45.225 17.775 0.075
45.225 17.775 0.675
46.875 14.325 0.375
45.675 16.125 4.425
47.175 14.025 0.375
45.225 17.625 -0.675
45.225 17.625 0.675
46.125 15.225 0.075
45.525 16.425 -1.275
45.525 16.425 0.225
45.375 16.875 -0.675
45.375 16.875 -0.375
45.225 17.475 -0.225
45.225 17.475 0.075
45.825 15.675 0.825
45.675 15.975 -0.075
45.675 15.975 -0.975
45.675 15.975 0.675
45.675 15.975 -0.675
45.225 17.325 0.675
45.225 17.325 -0.075
45.375 16.725 0.075
45.375 16.725 -0.975
45.375 16.725 0.825
46.275 14.925 0.825
45.975 15.375 0.675
45.225 17.175 5.175
45.225 17.175 -0.225
45.225 17.175 0.825
45.225 17.175 -0.375
45.225 17.175 -0.075
45.225 17.175 0.225
45.075 18.225 -1.275
47.775 13.425 0.675
45.075 18.075 0.975
45.375 16.575 -1.275
48.525 12.975 -1.575
45.675 15.825 -0.675
45.675 15.825 0.075
45.675 21.225 0.525
45.075 19.125 4.575
45.075 17.925 6.075
47.325 13.725 0.675
45.225 17.025 -0.225
45.525 16.125 0.225
45.525 16.125 0.825
45.075 17.775 0.975
47.475 13.575 5.625
45.075 17.625 -0.375
45.375 16.425 -1.425
45.375 16.425 -0.375
45.375 16.425 0.225
45.075 17.475 0.675
45.675 15.675 0.825
47.625 13.425 0.975
46.125 14.925 0.675
46.125 22.125 1.725
45.825 15.375 0.525
45.825 21.675 0.975
45.825 21.675 1.575
46.875 14.025 3.075
45.225 16.725 0.825
45.225 16.725 -0.525
45.075 17.325 0.825
45.075 17.325 0.075
45.075 17.325 -0.225
47.025 13.875 3.975
45.375 16.275 4.275
45.975 15.075 -0.225
45.075 17.175 0.675
44.925 18.375 0.375
45.525 15.825 -0.825
44.925 18.225 -0.375
44.925 18.225 0.825
44.925 18.825 1.125
45.225 16.575 -0.375
45.225 16.575 1.575
45.225 16.575 1.875
45.225 16.575 1.725
45.225 16.575 -0.075
45.675 15.525 -0.675
45.675 15.525 0.825
45.675 15.525 0.525
45.675 21.525 1.425
44.925 18.075 0.825
45.375 16.125 -0.375
45.375 16.125 0.675
45.375 16.125 -0.675
45.825 15.225 0.225
45.825 15.225 0.075
45.825 15.225 -0.225
45.825 15.225 -0.075
47.925 13.125 1.275
47.925 13.125 0.675
44.925 17.925 0.825
44.925 17.925 0.675
47.475 13.425 1.125
45.075 17.025 1.575
44.925 17.775 -0.225
44.925 17.775 0.675
45.225 16.425 1.275
44.925 17.625 5.025
44.925 17.625 0.825
45.975 14.925 0.675
45.525 15.675 1.875
45.525 15.675 0.675
48.075 12.975 1.425
45.375 15.975 -1.125
45.375 15.975 1.575
45.375 15.975 1.875
45.375 15.975 -0.825
45.675 21.675 0.675
45.675 21.675 1.125
44.925 17.475 -0.075
44.925 17.475 0.075
44.925 17.475 -0.225
47.175 13.575 0.825
45.075 16.725 0.825
45.075 16.725 1.275
45.075 16.725 -0.075
45.825 15.075 -0.225
45.825 15.075 0.675
45.075 20.325 1.575
45.225 16.275 0.675
47.775 13.125 -1.725
45.825 21.975 1.725
44.925 17.325 0.675
47.325 13.425 0.675
47.325 13.425 1.125
46.125 14.625 -0.825
46.125 14.625 0.225
45.525 21.525 2.025
44.925 17.175 1.275
44.925 17.175 0.675
44.925 17.175 0.075
45.075 16.575 -0.975
45.975 14.775 -0.825
45.975 22.275 2.175
44.775 18.225 0.225
45.675 15.225 0.075
45.675 21.825 1.275
45.225 16.125 1.275
44.775 18.075 0.675
44.775 18.075 -0.075
44.775 18.075 -0.225
44.925 17.025 1.425
44.925 17.025 2.175
44.775 17.925 0.675
45.825 14.925 0.675
47.025 13.575 2.625
47.025 13.575 0.825
46.275 14.325 3.975
46.275 14.325 0.975
45.075 16.425 0.825
48.375 12.675 0.825
45.375 15.675 -0.525
45.375 15.675 0.675
46.125 14.475 -0.825
46.125 14.475 0.075
46.125 14.475 0.675
46.125 14.475 -0.375
47.175 13.425 0.825
47.175 13.425 0.525
47.175 13.425 3.225
45.525 15.375 0.075
45.525 15.375 1.725
45.525 15.375 1.575
44.775 17.625 0.825
44.775 17.625 -0.075
44.775 17.625 -0.225
44.925 16.875 0.825
44.925 16.875 -0.225
48.675 12.525 0.975
45.675 15.075 -0.375
45.675 15.075 0.675
45.675 15.075 1.725
45.675 21.975 1.275
45.975 14.625 0.375
45.975 22.425 2.175
45.075 16.275 -0.675
45.075 16.275 0.675
45.075 16.275 0.375
45.075 16.275 -0.375
44.925 16.725 0.825
44.925 16.725 1.125
44.925 16.725 0.375
44.775 17.325 0.675
44.775 17.325 1.275
45.825 22.275 2.025
47.475 13.125 5.025
45.375 15.525 -0.225
48.525 12.525 -0.975
46.725 13.725 2.475
45.225 15.825 0.825
45.225 15.825 0.375
46.425 14.025 4.125
47.925 12.825 -0.525
47.925 12.825 4.725
45.525 15.225 0.675
45.525 21.825 1.425
46.875 13.575 2.475
44.775 17.175 0.675
44.775 17.175 2.025
44.775 17.175 1.275
44.775 17.175 1.125
45.075 16.125 -0.375
45.075 16.125 1.125
44.625 18.375 -0.525
44.625 18.375 -0.675
46.125 14.325 5.325
46.125 14.325 0.675
46.125 14.325 -0.225
44.625 18.075 -0.075
44.625 18.075 0.225
44.625 18.075 -0.675
44.625 18.075 0.675
44.625 18.075 0.825
44.625 18.075 0.375
45.675 14.925 -0.375
45.675 14.925 -1.575
45.675 22.125 2.025
44.775 17.025 0.225
44.625 19.125 -0.825
44.625 17.925 0.825
44.625 17.925 -0.075
44.625 17.925 0.675
45.975 14.475 0.975
45.975 14.475 -0.375
45.975 14.475 0.675
47.175 13.275 -0.225
47.175 13.275 0.675
47.175 13.275 0.375
45.225 15.675 1.125
45.225 15.675 1.275
45.225 15.675 0.525
45.225 15.675 0.825
45.225 15.675 -0.075
44.625 17.775 1.875
45.375 15.375 0.825
45.375 15.375 1.425
45.075 15.975 -0.225
45.825 14.625 0.525
47.325 13.125 0.075
44.625 17.625 -0.525
44.625 17.625 0.675
44.625 17.625 1.575
44.625 17.625 -0.225
45.525 15.075 -2.025
45.525 15.075 1.425
45.525 15.075 -1.575
45.525 21.975 2.625
44.625 17.475 -0.825
44.625 17.475 0.825
44.625 17.475 1.425
44.625 17.475 1.575
44.925 16.275 2.025
44.925 16.275 -0.675
44.775 16.725 -0.225
47.475 12.975 0.825
45.675 14.775 0.675
46.875 13.425 -0.525
48.225 12.525 -1.125
48.225 12.525 1.425
45.225 15.525 0.075
44.625 17.325 0.825
44.625 17.325 1.125
44.625 17.325 0.675
45.075 15.825 5.625
45.075 15.825 0.675
48.525 12.375 1.575
48.525 12.375 -0.675
45.375 15.225 -2.175
45.375 15.225 0.675
45.375 15.225 1.275
45.375 15.225 1.125
45.375 21.825 0.825
44.625 17.175 0.375
44.775 16.575 0.525
44.775 16.575 0.075
45.525 14.925 1.725
45.525 14.925 1.275
45.525 14.925 0.675
44.925 16.125 -0.675
47.175 13.125 2.325
47.175 13.125 1.275
44.475 18.675 -2.625
44.475 18.225 0.675
44.475 18.225 -0.225
48.075 12.525 1.425
45.225 15.375 0.675
44.475 17.925 0.825
44.475 17.925 -0.075
44.475 17.925 0.675
45.225 21.675 1.725
45.225 21.675 1.125
45.075 15.675 2.775
48.375 12.375 1.575
47.325 12.975 0.375
44.775 16.425 0.525
45.675 14.625 0.825
45.675 14.625 -1.575
47.775 12.675 1.875
47.775 12.675 0.375
44.475 17.775 2.475
44.475 17.775 0.975
44.475 17.775 1.875
45.375 15.075 0.225
45.375 15.075 0.825
46.275 13.875 1.275
44.925 15.975 -0.675
44.925 15.975 0.375
44.925 15.975 -0.525
44.925 15.975 -1.725
44.475 17.625 0.675
47.475 12.825 0.525
47.475 12.825 -1.725
45.525 14.775 0.675
44.475 17.475 1.275
44.775 16.275 -0.825
44.775 16.275 -0.225
45.825 14.325 0.525
44.625 16.725 -0.975
47.025 13.125 0.825
47.025 13.125 0.675
48.225 12.375 0.675
45.075 21.525 1.125
48.225 12.375 0.975
47.925 12.525 -0.225
44.925 15.825 -3.525
44.925 15.825 -0.675
44.475 17.325 0.825
45.375 14.925 0.675
45.375 14.925 1.125
45.375 14.925 -1.875
45.375 22.125 2.325
47.175 12.975 0.525
45.675 22.575 1.725
44.625 16.575 -0.825
44.775 16.125 -0.825
46.575 13.425 -0.975
44.325 18.375 0.825
46.125 13.875 0.675
47.325 12.825 0.075
45.525 22.425 2.475
45.075 15.375 -0.075
48.075 12.375 0.075
48.075 12.375 0.975
44.325 18.075 0.825
45.975 14.025 0.825
45.975 14.025 0.675
44.475 17.025 0.525
44.925 15.675 0.075
47.775 12.525 0.825
45.225 15.075 -1.875
47.775 12.525 0.975
47.775 12.525 -1.125
47.775 12.525 0.525
45.225 15.075 0.675
45.225 21.975 1.875
44.325 17.925 1.875
44.325 17.925 -0.075
44.325 17.925 0.825
44.625 16.425 -0.375
45.825 14.175 0.525
44.775 15.975 0.375
44.325 17.775 1.575
44.325 17.775 0.825
45.375 14.775 -0.675
45.375 14.775 -2.325
45.375 14.775 0.525
45.375 14.775 1.275
44.325 17.625 1.125
44.325 17.625 0.375
44.325 17.625 1.275
44.325 17.625 0.675
47.025 12.975 0.675
45.675 14.325 0.675
45.675 14.325 -0.525
44.625 16.275 -0.375
44.625 16.275 -0.675
44.625 16.275 -0.825
44.925 21.525 1.725
44.325 17.475 3.525
45.075 15.225 -0.825
45.075 15.225 -2.475
44.325 19.575 1.875
47.925 12.375 -0.075
44.475 16.725 -0.525
44.475 16.725 -0.675
47.625 12.525 0.825
45.225 14.925 -2.025
45.225 14.925 0.375
45.225 22.125 0.975
46.275 13.575 0.525
44.325 17.325 -0.825
44.325 17.325 -0.375
46.425 13.425 -0.375
45.975 13.875 -0.225
44.475 16.575 -0.375
44.475 16.575 0.975
44.475 16.575 4.125
45.825 14.025 -0.675
45.825 14.025 0.075
45.825 14.025 -0.375
45.825 14.025 -0.525
47.325 12.675 0.525
44.325 17.175 0.075
45.375 14.625 0.825
45.375 22.425 1.725
48.075 12.225 0.825
48.075 12.225 1.575
44.175 18.525 -0.375
47.775 12.375 0.375
47.775 12.375 -0.525
47.775 12.375 0.825
47.775 12.375 0.225
47.775 12.375 1.125
47.775 12.375 1.575
47.775 12.375 -0.225
45.075 21.975 2.025
44.775 15.675 -0.525
44.775 15.675 -0.675
44.775 15.675 -0.825
45.675 14.175 -0.975
45.675 14.175 0.825
44.175 18.375 0.825
44.325 17.025 0.075
44.325 17.025 0.525
44.175 18.975 4.425
44.175 18.975 3.675
44.175 18.075 1.875
44.175 18.075 0.825
44.175 18.975 0.525
44.475 16.425 -1.275
44.475 16.425 -0.375
47.475 12.525 1.575
45.225 22.275 1.725
45.225 22.275 2.025
44.625 15.975 -0.375
44.625 15.975 -0.525
44.625 15.975 -0.675
44.175 17.925 1.275
44.175 17.925 1.575
44.175 17.925 0.825
45.525 14.325 0.675
45.525 14.325 1.725
47.025 12.825 0.375
44.175 17.775 1.125
44.175 17.775 1.275
46.275 13.425 0.075
46.275 13.425 -0.225
46.125 13.575 0.675
44.175 17.625 -0.075
44.175 19.425 4.575
47.925 12.225 3.675
44.925 21.825 1.575
45.975 13.725 0.675
48.225 12.075 0.825
46.425 13.275 -0.525
44.475 16.275 0.525
44.475 16.275 -0.525
44.475 16.275 -0.675
44.475 16.275 0.225
45.375 14.475 0.675
47.175 12.675 0.525
45.825 13.875 -0.375
46.575 13.125 -4.125
47.625 12.375 0.675
47.625 12.375 0.975
44.175 17.475 0.075
48.525 11.925 -0.075
44.625 15.825 -0.225
46.725 12.975 3.225
45.675 14.025 0.075
45.675 14.025 0.825
45.675 14.025 -0.525
45.675 14.025 -0.375
44.175 17.325 -0.075
47.325 12.525 1.275
47.325 12.525 0.825
47.325 12.525 1.125
47.325 12.525 0.675
45.225 14.625 0.375
45.225 14.625 0.675
44.475 16.125 -0.525
44.475 16.125 -0.075
45.525 14.175 1.575
48.075 12.075 0.825
44.175 17.175 2.475
44.775 21.675 1.875
47.775 12.225 0.525
47.775 12.225 -1.725
44.925 15.075 -0.675
44.925 21.975 1.425
48.375 11.925 -1.425
44.625 15.675 -0.375
44.025 18.525 -0.675
47.025 12.675 0.675
45.375 14.325 0.825
45.375 14.325 1.275
44.025 18.375 0.675
45.075 14.775 -2.175
47.475 12.375 1.275
47.475 12.375 2.025
47.475 12.375 0.975
47.475 12.375 -0.825
45.075 22.275 1.725
47.475 12.375 0.675
44.025 18.825 0.075
44.175 17.025 -0.225
44.025 18.075 -1.125
44.025 18.075 0.675
44.025 18.075 0.825
44.025 18.075 0.075
46.275 13.275 -0.225
45.825 13.725 0.675
44.025 17.925 0.825
44.025 17.925 0.375
45.225 14.475 -0.375
45.225 14.475 1.125
47.175 12.525 0.525
47.175 12.525 0.975
47.175 12.525 0.825
44.025 17.775 -0.825
44.025 17.775 -0.525
44.175 16.875 -0.525
44.175 16.875 0.075
47.925 12.075 0.075
47.925 12.075 0.975
47.925 12.075 1.575
47.925 12.075 0.825
44.775 21.825 0.975
44.775 21.825 1.275
48.225 11.925 0.975
48.225 11.925 1.125
44.625 21.525 0.975
47.625 12.225 0.675
47.625 12.225 0.525
44.925 14.925 -0.675
44.925 22.125 1.725
44.925 22.125 1.425
44.325 16.275 -0.075
45.525 14.025 0.675
48.525 11.775 2.325
48.525 11.775 2.775
44.025 17.475 0.225
47.325 12.375 0.525
47.325 12.375 1.125
47.325 12.375 0.675
45.075 14.625 -0.375
47.325 12.375 -0.225
45.375 14.175 0.675
45.375 14.175 1.275
45.375 14.175 4.725
45.375 14.175 0.825
44.625 15.375 -0.225
44.625 15.375 -0.825
44.625 21.675 0.975
47.775 12.075 0.525
47.775 12.075 0.675
44.775 15.075 0.525
45.975 13.425 -0.675
45.975 13.425 -0.375
45.975 13.425 0.525
45.225 14.325 0.375
45.225 14.325 0.675
45.225 14.325 -0.675
45.825 13.575 0.525
44.025 17.175 -0.975
47.475 12.225 0.525
47.475 12.225 0.825
45.675 13.725 -0.375
43.875 18.525 0.825
43.875 18.375 0.825
44.025 17.025 -2.925
44.325 15.975 0.075
44.325 15.975 -0.675
44.325 15.975 -0.525
43.875 18.225 0.825
45.525 13.875 -0.225
45.525 13.875 0.675
45.525 13.875 1.575
43.875 18.225 1.875
44.175 16.425 -0.525
45.075 14.475 -0.675
47.175 12.375 0.825
47.175 12.375 0.975
43.875 18.975 0.525
43.875 18.075 1.275
43.875 18.075 1.125
43.875 18.075 0.825
47.925 11.925 0.375
44.625 15.225 -0.675
44.625 15.225 -0.225
44.625 21.825 2.325
44.625 21.825 1.275
47.625 12.075 -0.975
44.775 14.925 -0.675
44.025 16.875 -0.975
44.775 22.125 0.525
43.875 17.775 -0.675
43.875 17.775 -0.075
44.175 16.275 -0.075
44.175 16.275 0.525
44.175 16.275 -0.525
43.875 17.625 -0.675
47.325 12.225 0.825
47.325 12.225 0.675
44.325 15.825 2.475
44.325 21.225 2.625
44.925 14.625 -0.525
45.225 14.175 0.675
45.225 14.175 1.125
45.975 13.275 0.525
45.825 13.425 -0.825
45.825 13.425 0.675
45.675 13.575 -0.075
45.675 13.575 0.675
45.075 14.325 5.625
47.775 11.925 -0.075
47.775 11.925 1.125
47.025 12.375 0.525
47.025 12.375 1.125
44.625 15.075 0.375
43.875 17.325 -0.825
43.875 17.325 -0.375
43.875 19.725 -2.325
44.625 21.975 1.725
48.075 11.775 0.525
48.075 11.775 0.675
45.525 13.725 1.725
45.525 13.725 -0.075
45.525 13.725 0.675
45.525 13.725 -0.375
45.375 13.875 1.275
45.375 13.875 0.675
47.175 12.225 1.125
47.175 12.225 0.675
44.175 15.975 -0.075
45.225 14.025 0.375
45.225 14.025 4.725
45.225 14.025 -0.375
45.225 14.025 0.675
43.725 18.525 0.825
44.025 20.625 -2.025
43.725 18.375 0.825
43.725 18.375 1.875
43.725 18.675 0.975
43.875 20.025 5.925
43.725 18.225 -0.525
43.725 18.225 1.575
44.475 15.225 0.375
43.725 18.975 0.975
43.725 18.075 0.675
47.925 11.775 1.125
47.925 11.775 0.375
47.925 11.775 0.075
47.625 11.925 0.225
44.625 14.925 0.825
44.625 22.125 2.175
43.725 19.125 3.075
43.725 17.925 -0.075
43.725 17.925 -1.275
45.075 14.175 -0.825
43.875 20.175 5.025
47.325 12.075 1.125
47.325 12.075 1.275
46.125 12.975 -3.825
43.725 17.775 3.225
44.775 22.425 1.875
44.025 16.275 4.725
46.275 12.825 3.225
43.725 19.425 -2.175
43.875 16.725 -1.725
46.425 12.675 -3.825
47.025 12.225 0.975
44.925 14.325 -0.525
44.925 14.325 -0.975
43.725 17.475 5.625
43.725 19.575 -0.675
44.475 15.075 1.425
44.475 15.075 1.275
44.475 15.075 0.375
47.775 11.775 0.075
47.775 11.775 0.525
44.475 21.975 1.125
48.075 11.625 -0.075
47.475 11.925 0.375
47.475 11.925 0.825
45.225 13.875 -0.225
45.225 13.875 1.125
45.225 13.875 4.275
44.625 14.775 -0.675
44.625 22.275 1.125
44.625 22.275 1.725
43.725 17.325 4.125
43.725 17.325 -0.375
47.175 12.075 1.125
47.175 12.075 0.525
47.175 12.075 -0.075
47.175 12.075 1.275
45.825 13.125 -0.675
48.675 11.325 2.025
44.025 15.975 0.075
44.325 15.225 -0.075
44.325 15.225 1.125
44.325 21.825 1.875
47.925 11.625 0.075
45.525 13.425 0.375
47.925 11.625 0.375
46.125 12.825 0.225
44.475 14.925 0.675
43.575 18.375 0.825
43.575 18.675 0.825
43.575 18.375 -0.075
43.575 18.825 0.225
46.875 12.225 0.825
44.175 21.525 -0.675
43.575 18.975 3.075
46.275 12.675 2.925
46.275 12.675 -0.075
45.375 13.575 1.275
47.325 11.925 0.825
44.625 14.625 0.375
43.575 17.925 0.075
43.575 17.925 -0.225
43.875 16.275 -1.125
43.875 16.275 -0.375
44.025 15.825 0.225
47.025 12.075 0.825
43.575 17.625 -0.375
45.075 13.875 1.725
45.075 13.875 -0.675
44.325 15.075 2.025
47.775 11.625 -0.225
47.775 11.625 0.225
44.325 21.975 2.475
44.325 21.975 2.325
43.575 17.475 2.475
43.575 17.475 -0.525
47.475 11.775 0.525
47.475 11.775 -2.625
44.475 22.275 2.025
44.175 15.375 1.425
43.875 16.125 0.525
43.875 16.125 0.075
46.725 12.225 0.375
43.575 17.325 4.575
47.175 11.925 0.225
44.625 14.475 -0.825
46.125 12.675 0.825
46.125 12.675 -0.075
46.125 12.675 -0.975
45.375 13.425 0.825
43.575 19.875 3.825
45.225 13.575 -0.375
45.225 13.575 -0.225
46.275 12.525 -0.075
43.875 15.975 3.225
43.875 15.975 0.075
44.325 14.925 0.825
44.325 14.925 0.375
44.325 22.125 1.575
47.625 11.625 0.525
47.625 11.625 1.125
44.175 15.225 1.875
44.175 15.225 1.725
47.325 11.775 2.175
47.325 11.775 0.525
47.325 11.775 1.125
47.325 11.775 0.975
47.325 11.775 3.825
43.575 20.025 -2.925
43.575 20.025 5.325
43.425 18.525 0.825
43.425 18.525 1.875
43.425 18.525 -0.225
45.075 13.725 -0.375
43.425 18.375 0.825
43.425 18.675 0.825
43.425 18.225 1.275
43.425 18.225 0.525
46.575 12.225 4.875
48.525 11.175 2.175
43.875 15.825 1.275
43.875 15.825 4.125
43.425 17.775 -0.225
47.775 11.475 0.375
45.675 12.975 0.525
45.675 12.975 1.125
45.675 12.975 0.675
44.175 15.075 1.425
45.825 12.825 0.675
45.525 13.125 0.675
44.325 14.775 0.675
44.325 14.775 0.525
44.325 14.775 0.825
48.075 11.325 -0.975
44.025 15.375 0.225
44.025 21.675 0.975
45.975 12.675 -0.225
45.975 12.675 0.975
45.375 13.275 0.825
45.375 13.275 0.675
44.775 14.025 -3.075
47.175 11.775 1.425
47.175 11.775 0.975
47.175 11.775 0.825
45.225 13.425 0.675
45.225 13.425 0.375
43.725 16.125 4.425
46.125 12.525 0.825
46.125 12.525 -0.375
44.625 14.175 0.075
47.625 11.475 1.125
44.175 14.925 0.675
44.175 14.925 1.725
43.425 17.175 0.075
43.425 17.175 -2.775
44.175 22.125 0.675
47.925 11.325 0.225
44.025 15.225 1.875
44.025 21.825 2.475
44.325 14.625 1.575
44.325 14.625 0.075
47.325 11.625 0.975
47.325 11.625 2.325
47.325 11.625 1.125
43.425 20.025 5.325
43.425 20.025 5.175
44.475 14.325 0.225
44.475 14.325 2.025
44.475 14.325 -0.075
47.025 11.775 1.125
43.275 18.525 0.825
43.275 18.375 1.875
43.275 18.375 1.425
43.275 18.375 0.825
43.275 18.375 1.725
43.275 18.675 -1.125
43.275 18.675 0.825
45.525 12.975 4.875
45.525 12.975 1.575
43.275 18.225 -0.225
43.275 18.225 -0.975
45.675 12.825 0.675
45.675 12.825 1.725
45.675 12.825 1.125
45.825 12.675 0.675
48.525 11.025 2.175
45.225 13.275 1.125
45.225 13.275 1.275
43.275 19.125 0.825
43.425 20.175 5.175
43.575 16.275 -0.225
44.025 15.075 2.475
44.025 21.975 1.425
44.175 14.775 0.675
44.175 22.275 1.575
45.075 13.425 -0.375
45.075 13.425 -5.475
43.875 21.675 1.125
44.325 14.475 0.525
44.325 14.475 0.075
44.325 14.475 0.825
44.325 14.475 0.675
47.175 11.625 1.575
47.175 11.625 0.825
47.175 11.625 3.375
47.175 11.625 0.675
43.275 19.425 0.825
46.275 12.225 2.775
44.925 13.575 1.575
43.575 16.125 -0.075
43.275 17.475 5.925
46.875 11.775 -2.775
44.025 14.925 1.575
44.025 14.925 0.675
44.025 14.925 0.975
44.025 14.925 1.725
44.025 14.925 1.425
43.875 15.225 1.875
43.875 21.825 1.275
44.175 14.625 0.675
44.175 14.625 0.975
44.175 14.625 1.575
44.175 14.625 1.125
44.175 22.425 2.025
45.525 12.825 1.725
45.525 12.825 0.675
45.375 12.975 0.675
45.675 12.675 0.825
45.675 12.675 0.675
43.275 19.875 -2.925
45.825 12.525 0.675
45.225 13.125 0.825
45.225 13.125 0.375
44.325 14.325 0.525
44.325 14.325 1.125
44.325 14.325 0.675
47.025 11.625 2.775
43.425 16.425 -1.275
45.975 12.375 0.675
43.125 18.525 0.825
43.125 18.525 0.075
43.125 18.525 1.725
43.125 18.675 0.825
43.125 18.675 1.875
43.125 18.375 -0.225
43.125 18.375 3.375
43.125 18.375 1.275
43.125 18.225 -0.375
46.725 11.775 4.725
44.025 14.775 0.975
44.025 14.775 2.175
43.425 16.275 0.225
47.775 11.175 0.825
43.875 15.075 0.675
43.875 15.075 1.875
43.875 21.975 1.125
43.125 19.125 0.825
47.175 11.475 0.525
44.175 14.475 1.875
44.175 14.475 0.525
43.125 19.425 1.425
43.125 17.625 0.375
44.325 14.175 1.725
46.875 11.625 4.275
44.625 13.725 -0.975
44.625 13.725 1.575
45.525 12.675 1.725
45.525 12.675 1.875
45.375 12.825 0.825
45.225 12.975 0.225
45.225 12.975 1.125
45.225 12.975 1.275
45.225 12.975 -0.225
45.675 12.525 0.525
45.675 12.525 0.675
47.625 11.175 0.825
47.625 11.175 0.975
45.075 13.125 -0.525
45.825 12.375 0.675
43.875 14.925 1.425
43.875 14.925 1.575
43.875 14.925 1.725
43.875 22.125 1.425
47.325 11.325 2.025
44.025 14.625 0.975
43.125 19.725 4.875
44.475 13.875 1.725
44.925 13.275 -0.375
47.025 11.475 0.375
44.175 14.325 0.675
44.175 14.325 0.075
44.175 14.325 1.125
48.225 10.875 2.175
44.325 14.025 0.975
44.325 14.025 1.125
43.125 20.025 5.025
42.975 18.525 0.825
42.975 18.525 -0.225
42.975 18.525 1.275
47.475 11.175 0.975
47.475 11.175 0.525
47.475 11.175 1.275
42.975 18.675 0.825
42.975 18.675 0.225
42.975 18.675 2.625
42.975 18.375 1.275
43.875 14.775 0.825
43.875 22.275 1.425
43.725 15.075 1.875
42.975 18.825 1.425
42.975 18.225 -0.525
42.975 18.225 -0.225
43.725 21.975 1.425
43.725 21.975 1.125
43.725 21.975 3.225
47.175 11.325 0.525
44.025 14.475 2.025
44.025 14.475 1.125
44.025 14.475 0.825
44.025 14.475 0.975
44.025 14.475 0.675
44.025 14.475 1.575
44.025 14.475 1.275
42.975 18.975 0.825
43.125 16.875 0.525
42.975 17.925 -0.525
45.375 12.675 0.675
45.225 12.825 -0.225
45.225 12.825 0.675
45.225 12.825 -0.075
46.875 11.475 0.225
42.975 17.775 0.375
44.175 14.175 0.675
44.175 14.175 1.425
45.825 12.225 0.675
45.825 12.225 -3.525
42.975 17.625 -0.375
48.375 10.725 1.725
42.975 17.475 -0.375
47.625 11.025 0.075
43.725 14.925 1.875
47.625 11.025 0.525
43.725 22.125 2.175
44.325 13.875 0.975
43.875 14.625 0.675
43.875 14.625 2.025
43.875 22.425 1.425
47.025 11.325 0.675
47.025 11.325 0.825
44.025 14.325 0.525
44.025 14.325 1.425
44.025 14.325 1.875
44.025 14.325 0.375
44.025 14.325 0.975
42.975 19.725 4.875
44.625 13.425 0.975
48.675 10.575 -0.075
44.175 14.025 1.575
44.175 14.025 0.825
43.125 16.425 -0.825
43.125 16.425 4.425
43.125 16.425 -0.075
44.475 13.575 -0.675
45.225 12.675 0.225
45.225 12.675 -0.225
45.225 12.675 0.675
45.225 12.675 1.125
45.225 12.675 0.375
45.375 12.525 0.675
45.075 12.825 0.075
45.075 12.825 0.375
43.725 22.275 0.675
43.725 22.275 0.975
45.525 12.375 0.675
45.525 12.375 0.825
47.175 11.175 0.825
47.175 11.175 0.525
43.575 21.975 -0.225
43.875 14.475 0.225
43.875 14.475 1.425
43.875 14.475 0.675
43.875 14.475 2.775
43.875 14.475 0.825
44.925 12.975 -0.225
42.825 18.525 0.825
42.825 18.525 0.525
42.825 18.525 1.275
42.825 18.525 1.575
42.825 18.675 0.825
42.825 18.375 -0.225
44.325 13.725 0.525
44.325 13.725 0.975
42.825 18.225 -0.225
42.825 18.225 -0.975
42.825 18.075 2.175
45.825 12.075 0.525
46.875 11.325 0.225
44.025 14.175 1.275
44.025 14.175 1.575
44.025 14.175 0.675
44.025 14.175 0.825
44.025 14.175 0.525
44.775 13.125 -0.825
43.425 15.375 -0.975
42.825 17.925 -0.675
42.825 19.125 0.825
42.825 17.775 0.675
42.825 17.775 0.225
42.825 17.775 0.075
42.825 19.275 0.525
45.975 11.925 0.675
46.575 11.475 4.425
44.175 13.875 0.825
44.175 13.875 1.725
44.175 13.875 0.075
43.125 16.125 -0.525
43.725 14.625 1.875
43.725 14.625 0.975
43.725 22.425 0.375
43.725 22.425 2.025
43.575 14.925 1.725
47.625 10.875 0.525
44.475 13.425 0.675
47.025 11.175 0.975
47.025 11.175 0.225
47.025 11.175 0.525
47.025 11.175 0.675
47.025 11.175 0.825
43.875 14.325 1.575
43.875 14.325 0.975
43.875 14.325 2.025
43.875 14.325 0.675
43.875 14.325 1.725
42.975 16.575 3.825
45.225 12.525 1.275
45.075 12.675 0.075
45.075 12.675 -0.075
45.375 12.375 1.425
45.375 12.375 0.825
45.375 12.375 1.575
44.025 14.025 0.825
44.025 14.025 1.275
44.025 14.025 0.525
44.025 14.025 0.375
44.325 13.575 0.525
44.925 12.825 -0.075
43.275 15.525 0.525
42.825 19.875 5.325
44.775 12.975 -0.825
42.975 16.425 0.225
43.575 22.275 2.175
47.475 10.875 1.425
47.475 10.875 0.975
43.725 14.475 1.875
43.725 14.475 1.725
43.725 14.475 0.375
47.175 11.025 0.975
43.725 22.575 1.875
45.825 11.925 -0.675
45.825 11.925 1.725
44.625 13.125 -0.225
44.625 13.125 1.125
44.625 13.125 -0.375
44.175 13.725 0.675
43.425 21.975 -0.375
46.875 11.175 0.225
46.875 11.175 0.975
46.875 11.175 0.675
43.875 14.175 1.125
43.875 14.175 1.575
43.875 14.175 0.525
43.875 22.875 1.725
42.675 18.525 0.825
42.675 18.525 1.275
42.675 18.525 0.525
42.675 18.675 0.825
42.675 18.825 1.575
42.675 18.825 0.825
42.825 16.875 -2.025
42.675 18.975 1.875
42.675 18.975 0.825
46.575 11.325 0.375
46.575 11.325 1.275
44.025 13.875 0.975
44.025 13.875 1.125
44.025 13.875 1.725
44.325 13.425 1.725
46.125 11.625 0.825
42.675 19.275 -0.675
42.675 19.275 -0.375
42.675 19.275 0.675
43.575 14.625 2.775
47.325 10.875 1.125
42.825 16.725 3.225
43.425 22.125 1.575
45.075 12.525 0.225
45.075 12.525 0.975
42.975 16.125 1.125
45.225 12.375 0.075
45.225 12.375 -1.425
45.225 12.375 0.375
45.225 12.375 0.675
43.725 14.325 1.425
43.725 14.325 0.225
43.725 14.325 2.325
43.725 14.325 4.125
47.025 11.025 0.525
47.025 11.025 0.675
43.725 22.725 2.775
43.725 22.725 2.025
45.375 12.225 0.675
43.275 15.225 4.425
44.775 12.825 0.525
45.525 12.075 0.675
45.525 12.075 1.725
46.275 11.475 4.875
44.175 13.575 1.875
44.175 13.575 1.125
46.725 11.175 0.525
42.825 16.575 3.975
44.625 12.975 0.975
44.625 12.975 -0.375
45.675 11.925 0.675
45.675 11.925 0.525
42.975 15.975 3.975
44.025 13.725 0.375
44.025 13.725 0.975
44.025 13.725 1.125
47.475 10.725 0.375
47.475 10.725 0.525
43.575 22.575 2.025
47.175 10.875 0.975
47.175 10.875 0.075
47.175 10.875 0.825
42.825 16.425 4.575
42.825 16.425 4.425
43.275 21.975 1.275
44.325 13.275 -0.675
44.325 13.275 0.825
43.725 14.175 0.825
43.725 14.175 1.275
46.875 11.025 3.525
46.875 11.025 0.975
46.875 11.025 0.225
42.675 17.025 2.625
42.675 20.025 -3.075
45.075 12.375 -0.225
45.075 12.375 1.275
43.875 13.875 2.475
43.875 13.875 0.525
43.875 13.875 0.675
43.875 13.875 0.825
43.875 13.875 -2.925
45.225 12.225 0.675
45.225 12.225 1.125
44.925 12.525 -0.225
44.925 12.525 -0.075
44.925 12.525 0.225
44.175 13.425 2.025
44.175 13.425 0.825
42.525 18.675 0.375
42.525 18.825 -0.225
45.375 12.075 -0.075
45.375 12.075 1.275
42.525 18.975 -0.075
42.525 18.975 0.825
44.625 12.825 2.775
42.525 19.125 -0.375
42.525 19.125 -0.075
43.575 14.325 0.525
43.575 14.325 0.225
43.575 14.325 1.875
43.575 14.325 2.025
47.625 10.575 0.825
47.025 10.875 0.375
47.025 10.875 3.975
47.025 10.875 0.225
43.275 22.125 1.575
42.525 19.275 0.675
42.525 17.775 -0.825
42.825 16.125 2.925
44.025 13.575 2.325
44.025 13.575 0.975
44.025 13.575 1.725
42.675 16.725 0.225
44.475 12.975 1.275
44.475 12.975 -1.425
44.475 12.975 -0.525
45.675 11.775 0.375
46.725 11.025 2.475
43.725 14.025 1.425
43.725 14.025 1.125
43.725 14.025 0.825
43.725 14.025 1.275
43.725 14.025 0.975
43.725 14.025 1.875
43.725 14.025 1.725
43.125 21.825 0.075
44.325 13.125 1.425
44.325 13.125 0.825
44.325 13.125 1.275
45.825 11.625 0.525
48.225 10.275 -0.225
43.875 13.725 0.825
43.875 13.725 0.675
43.875 13.725 2.325
43.875 13.725 1.875
43.875 23.325 1.275
47.175 10.725 0.975
47.175 10.725 0.825
43.425 14.475 0.375
43.425 22.575 0.375
44.175 13.275 1.125
44.175 13.275 1.575
44.175 13.275 2.025
44.175 13.275 1.275
44.175 13.275 -0.825
46.875 10.875 0.675
46.875 10.875 0.825
45.075 12.225 -0.225
44.925 12.375 -0.375
43.125 21.975 -0.825
42.525 19.875 5.325
42.675 16.425 0.975
42.675 16.425 1.425
45.225 12.075 -0.225
45.225 12.075 0.225
45.375 11.925 1.425
45.375 11.925 1.275
45.375 11.925 0.825
45.375 11.925 -0.225
44.025 13.425 1.725
44.025 13.425 0.825
46.575 11.025 0.075
43.725 13.875 1.275
43.725 13.875 1.125
43.725 13.875 0.975
42.525 20.025 4.425
45.525 11.775 1.875
45.525 11.775 -0.375
42.675 16.275 0.975
42.675 16.275 1.575
42.375 18.525 -0.225
42.375 18.525 -0.075
42.375 18.375 -0.825
42.375 18.675 -0.075
42.375 18.375 -0.075
42.375 18.675 0.225
42.375 18.375 -0.225
42.375 18.375 -0.375
45.675 11.625 0.675
42.525 16.875 5.175
43.275 22.425 1.125
47.025 10.725 1.125
47.025 10.725 0.675
47.025 10.725 0.375
43.875 13.575 -0.225
43.875 13.575 0.975
43.875 13.575 2.025
43.875 13.575 0.825
43.875 13.575 1.725
43.875 13.575 1.875
42.375 18.975 1.875
42.375 18.975 0.825
42.825 15.675 1.725
42.375 19.125 -0.075
42.375 19.125 0.075
42.375 19.125 2.175
42.375 17.925 -3.225
44.175 13.125 -2.025
44.175 13.125 0.825
42.675 16.125 0.825
42.675 16.125 1.125
42.675 16.125 1.275
42.675 16.125 1.575
42.675 16.125 2.625
42.375 19.275 0.825
42.375 19.275 0.075
42.375 19.425 0.225
42.375 19.425 0.825
43.725 13.725 0.975
44.025 13.275 1.875
44.025 13.275 0.825
42.375 19.575 0.975
42.825 15.525 2.475
44.625 12.525 0.675
44.625 12.525 1.125
42.675 15.975 1.725
42.675 15.975 2.325
43.125 22.275 1.275
46.875 10.725 0.375
46.875 10.725 0.675
43.425 22.875 2.925
44.475 12.675 0.675
45.375 11.775 -0.375
45.375 11.775 -0.225
47.775 10.275 2.925
43.875 13.425 0.825
43.875 13.425 2.025
44.325 12.825 0.825
45.525 11.625 1.575
42.525 16.425 2.625
42.525 16.425 1.425
42.375 17.175 4.275
42.675 15.825 1.875
48.075 10.125 0.375
44.175 12.975 1.125
44.175 12.975 1.275
42.375 17.025 4.275
43.725 13.575 0.825
43.725 13.575 2.175
43.725 13.575 2.025
43.725 13.575 0.975
42.525 16.275 1.425
42.525 16.275 2.925
42.525 16.275 2.625
47.025 10.575 0.825
45.825 11.325 -0.525
45.825 11.325 -0.375
44.025 13.125 0.825
47.625 10.275 2.175
42.225 18.675 -0.075
42.225 18.675 4.275
42.975 22.125 1.125
42.375 16.875 4.125
42.375 16.875 2.775
42.375 16.875 5.325
46.725 10.725 0.225
42.225 18.825 1.275
42.225 18.825 -0.375
42.225 18.825 3.075
42.225 18.825 1.125
42.225 18.825 1.575
42.225 18.975 0.825
42.225 18.975 0.375
42.225 18.975 -0.525
42.225 19.125 -0.225
42.225 19.125 -0.375
44.625 12.375 0.225
47.925 10.125 1.125
42.525 16.125 2.775
42.525 16.125 2.025
45.225 11.775 -1.125
45.225 11.775 0.375
45.225 11.775 0.675
45.225 11.775 -0.225
45.225 11.775 -0.375
43.575 13.725 2.025
43.575 13.725 0.975
44.475 12.525 -0.675
42.225 19.275 0.675
42.375 16.725 3.675
45.975 11.175 0.825
43.875 13.275 2.475
43.875 13.275 2.025
43.875 13.275 1.575
42.225 19.425 -0.825
42.225 19.425 0.225
42.225 19.425 0.675
44.325 12.675 0.975
44.325 12.675 1.125
44.325 12.675 0.825
45.375 11.625 -0.675
45.375 11.625 1.125
45.375 11.625 -0.225
45.375 11.625 2.175
45.375 11.625 0.675
47.175 10.425 0.675
42.225 19.575 0.825
46.875 10.575 0.975
46.875 10.575 0.825
42.375 16.575 3.375
42.375 16.575 3.975
42.375 16.575 0.375
45.525 11.475 0.675
45.525 11.475 -0.225
45.525 11.475 -0.525
44.175 12.825 -0.675
44.175 12.825 1.125
43.725 13.425 2.175
47.775 10.125 2.625
44.025 12.975 1.575
44.025 12.975 0.975
45.675 11.325 0.675
42.375 16.425 1.275
42.375 16.425 0.975
42.375 16.425 4.875
42.525 15.825 1.425
42.525 15.825 1.725
43.575 13.575 2.775
45.825 11.175 0.675
43.875 13.125 1.875
43.875 13.125 1.425
47.025 10.425 2.775
47.025 10.425 0.975
47.025 10.425 2.325
47.025 10.425 3.225
42.975 22.425 2.025
45.075 11.775 0.075
42.375 16.275 0.825
42.375 16.275 0.375
42.375 16.275 2.025
42.375 16.275 1.725
42.375 16.275 1.425
47.625 10.125 4.725
45.225 11.625 1.125
42.075 18.675 4.575
42.075 18.675 -0.375
42.075 18.375 -0.675
42.075 18.375 -0.825
42.075 18.675 -1.275
42.075 18.825 -0.075
42.075 18.825 -0.375
45.975 11.025 6.825
43.725 13.275 0.825
43.725 13.275 1.425
43.725 13.275 2.175
48.375 9.825 3.675
42.525 15.675 1.425
42.525 15.675 0.675
42.525 21.375 0.825
43.425 13.725 0.975
42.075 18.975 0.825
42.075 18.975 -0.375
42.075 18.975 0.525
42.075 18.975 -0.225
42.075 18.075 -0.525
42.075 18.075 -2.025
44.175 12.675 0.825
42.075 19.125 0.525
42.075 19.125 -0.225
42.075 19.125 0.675
42.075 19.125 1.725
42.075 17.925 -0.525
42.375 16.125 0.975
42.375 16.125 2.925
42.375 16.125 1.875
42.375 16.125 2.625
42.225 16.725 3.825
45.525 11.325 -0.225
45.525 11.325 1.725
44.025 12.825 0.375
44.025 12.825 0.825
47.175 10.275 0.825
47.175 10.275 1.575
47.175 10.275 0.675
42.075 19.425 0.825
46.875 10.425 0.525
46.875 10.425 0.225
46.875 10.425 0.975
46.875 10.425 3.225
42.525 21.525 0.825
42.225 16.575 2.625
42.225 16.575 3.525
42.225 16.575 0.825
43.875 12.975 1.425
42.375 15.975 1.575
42.375 15.975 2.625
42.375 15.975 1.275
42.375 15.975 1.725
42.375 15.975 1.125
42.375 15.975 1.875
47.775 9.975 4.725
47.775 9.975 0.375
47.775 9.975 1.125
43.425 13.575 0.825
43.425 13.575 1.875
43.425 13.575 0.975
45.825 11.025 0.525
43.725 13.125 0.825
43.725 13.125 2.325
43.725 13.125 1.425
42.225 16.425 1.275
42.225 16.425 0.525
42.225 16.425 3.075
42.225 16.425 2.925
44.325 12.375 1.275
44.325 12.375 -0.075
48.075 9.825 4.275
42.375 15.825 0.375
42.375 15.825 2.025
42.525 21.675 -0.075
42.525 21.675 1.575
45.225 11.475 -0.225
47.025 10.275 1.425
47.025 10.275 0.825
42.975 22.725 2.775
44.175 12.525 1.875
44.175 12.525 0.525
44.175 12.525 0.825
42.825 22.425 0.975
46.725 10.425 0.375
46.725 10.425 0.525
47.625 9.975 4.575
47.625 9.975 1.275
42.225 16.275 1.125
42.225 16.275 3.375
42.225 16.275 3.225
42.225 16.275 2.625
42.225 16.275 1.725
45.375 11.325 0.675
45.375 11.325 -0.825
45.375 11.325 -2.625
45.375 11.325 -0.375
45.375 11.325 1.125
45.375 11.325 0.075
45.375 11.325 1.425
42.225 16.275 1.875
44.025 12.675 0.975
44.025 12.675 0.675
42.675 22.125 1.425
45.975 10.875 0.675
42.075 16.875 4.575
42.375 15.675 0.675
45.525 11.175 -0.225
45.525 11.175 0.525
45.525 11.175 -0.375
43.875 12.825 1.125
41.925 18.675 -0.375
41.925 18.375 2.475
41.925 18.375 -0.525
47.925 9.825 1.125
41.925 18.225 0.225
41.925 18.825 -0.375
41.925 18.975 4.875
41.925 18.975 1.275
41.925 18.075 0.375
41.925 18.075 -0.375
41.925 18.975 1.575
42.225 16.125 1.875
42.225 16.125 2.325
46.125 10.725 0.825
41.925 19.125 1.875
41.925 19.125 -0.225
41.925 19.125 0.675
41.925 19.125 -0.075
41.925 17.925 1.125
46.875 10.275 0.225
46.875 10.275 1.275
46.875 10.275 0.525
46.875 10.275 0.825
43.725 12.975 1.425
43.725 12.975 1.125
41.925 19.275 -0.075
44.625 11.925 1.575
44.775 11.775 0.975
43.125 13.875 -2.925
44.325 12.225 1.275
44.925 11.625 -1.875
41.925 19.425 0.825
41.925 19.425 0.675
41.925 17.625 0.075
42.375 21.525 5.625
42.225 15.975 2.025
42.225 15.975 2.475
42.225 15.975 2.775
42.225 15.975 1.725
42.075 16.575 4.125
42.075 16.575 3.375
42.075 16.575 2.475
45.075 11.475 4.275
45.075 11.475 -2.325
44.175 12.375 0.525
44.175 12.375 0.825
47.775 9.825 4.575
47.775 9.825 1.725
41.925 19.575 0.675
41.925 19.575 1.125
43.575 13.125 2.025
43.275 13.575 -2.925
45.225 11.325 0.675
45.225 11.325 0.375
45.225 11.325 -0.525
45.225 11.325 -0.225
44.025 12.525 1.125
44.025 12.525 0.675
41.925 17.325 4.725
41.925 19.725 4.575
42.075 16.425 3.525
42.075 16.425 1.725
42.075 16.425 3.375
42.075 16.425 0.075
42.075 20.625 -2.925
47.025 10.125 0.675
47.025 10.125 0.975
47.025 10.125 1.425
48.075 9.675 3.225
45.375 11.175 1.425
45.375 11.175 0.675
45.375 11.175 1.725
45.375 11.175 0.825
43.875 12.675 0.975
43.875 12.675 1.425
43.875 12.675 1.575
42.225 15.825 1.875
42.225 15.825 0.825
42.225 15.825 2.325
42.225 15.825 2.025
45.975 10.725 5.325
43.425 13.275 1.725
43.425 13.275 1.425
43.425 13.275 2.175
43.425 13.275 1.875
47.625 9.825 0.375
43.725 12.825 1.275
43.725 12.825 0.675
45.525 11.025 2.925
45.525 11.025 -0.525
41.925 20.025 -0.525
42.075 16.275 2.325
42.075 16.275 3.075
42.075 16.275 2.025
42.075 16.275 2.625
42.075 16.275 1.875
42.075 16.275 2.175
44.475 11.925 0.375
42.225 15.675 1.575
44.625 11.775 0.675
44.325 12.075 0.375
47.925 9.675 2.625
47.925 9.675 3.975
42.375 21.825 1.575
43.575 12.975 1.575
43.575 12.975 0.825
43.575 12.975 0.675
44.925 11.475 -0.525
44.175 12.225 0.825
41.775 18.825 4.575
42.075 16.125 1.725
42.075 16.125 2.775
42.075 16.125 1.575
42.075 16.125 1.425
42.075 16.125 1.875
42.075 16.125 0.975
42.075 16.125 2.625
46.875 10.125 1.275
46.875 10.125 1.125
47.175 9.975 6.075
47.175 9.975 -2.475
41.775 18.975 1.275
41.775 18.975 -0.225
41.775 18.975 -0.375
