# .PCD v0.7 - Point Cloud Data file format
VERSION 0.7
FIELDS x y z
SIZE 4 4 4
TYPE F F F
COUNT 1 1 1
WIDTH 2048
HEIGHT 1
VIEWPOINT 0 0 0 1 0 0 0
POINTS 2048
DATA ascii
11.025 16.725 0.675
11.025 16.725 0.225
10.875 16.875 0.225
11.175 16.875 -0.525
11.325 16.875 -0.975
11.325 16.875 -0.675
11.325 16.575 -0.075
11.175 16.425 0.675
10.875 16.425 -0.975
11.325 16.425 0.375
11.475 16.875 -0.825
11.475 16.575 -0.975
11.475 16.575 -0.075
11.475 16.425 -1.125
10.725 16.275 -0.375
11.625 16.725 -0.225
11.625 16.575 -0.225
10.875 16.125 0.075
11.175 16.125 0.525
10.575 16.275 -0.075
11.625 17.175 -0.675
11.625 16.275 0.975
10.575 16.125 -0.225
10.575 16.125 1.575
11.775 16.875 -0.375
11.175 15.975 -0.675
11.775 17.025 -0.525
11.325 17.475 -0.525
11.625 16.125 -0.375
11.775 16.275 0.975
11.775 16.275 0.075
11.925 16.725 0.675
11.325 15.825 0.375
11.325 15.825 -0.825
10.725 15.825 -0.075
10.275 16.125 0.225
10.125 16.275 0.375
10.875 15.675 0.825
11.925 16.125 -0.075
11.925 16.125 -0.375
12.075 16.425 0.075
12.075 16.425 0.225
12.075 16.275 -0.225
12.075 16.275 -0.375
11.475 15.675 0.525
11.775 17.625 -0.525
11.925 15.975 -0.525
10.125 15.975 -0.075
11.025 15.525 -0.825
12.225 16.875 0.525
12.225 16.575 -0.375
12.075 16.125 -0.375
12.075 16.125 -0.225
11.175 15.525 -0.675
11.175 15.525 -0.225
12.225 17.025 0.675
12.225 16.425 0.075
11.925 15.825 -0.225
11.775 17.775 -0.375
12.075 17.475 1.725
12.075 15.975 0.225
12.075 15.975 -0.825
12.075 15.975 0.525
11.025 15.375 0.975
12.375 16.575 -0.225
12.375 16.575 -0.375
11.175 15.375 0.975
12.375 16.425 -0.375
12.075 15.825 0.525
12.075 15.825 0.825
12.075 15.825 0.975
12.225 17.475 -1.125
12.225 15.975 0.525
12.375 17.175 -0.675
12.375 17.175 0.375
12.375 16.275 -1.275
11.475 15.375 -0.825
11.475 15.375 -0.525
11.625 15.375 -0.525
12.075 15.675 0.375
12.075 15.675 -0.525
11.925 17.925 -0.375
12.225 15.825 -0.675
11.925 15.525 0.975
12.525 16.575 -0.525
12.525 16.575 1.125
11.175 15.225 -0.675
12.525 16.425 1.275
12.525 16.425 0.525
11.325 15.225 0.225
11.325 15.225 -0.525
12.375 17.475 -0.525
12.375 17.475 -0.375
11.775 15.375 -0.525
11.775 15.375 0.075
12.525 17.175 -0.675
12.075 17.925 -0.075
12.225 15.675 -0.675
12.075 15.525 1.275
12.075 15.525 0.375
12.525 16.125 0.375
11.625 15.225 0.525
12.375 17.625 -0.675
12.375 15.825 0.825
10.125 15.375 0.975
12.675 16.725 0.525
12.675 16.725 -0.225
12.675 16.725 0.975
12.675 16.725 1.125
12.675 16.875 0.525
12.675 16.875 0.225
12.675 16.575 0.525
12.675 16.575 0.375
10.875 15.075 -0.225
12.525 17.475 -0.225
12.675 16.425 0.375
12.675 16.425 0.525
11.775 15.225 0.525
11.325 15.075 -0.375
12.225 15.525 1.425
12.675 17.175 0.225
12.075 15.375 0.525
12.675 16.275 0.525
11.475 15.075 -0.375
12.525 15.825 0.525
12.525 15.825 -0.675
11.925 15.225 -0.075
12.675 17.325 -0.375
12.675 17.325 -0.225
12.675 17.325 -0.675
12.675 16.125 0.525
11.625 15.075 0.225
11.625 15.075 -0.375
12.825 16.725 0.525
12.825 16.875 1.125
12.825 16.875 0.675
12.825 16.575 0.525
12.825 16.575 1.575
10.875 14.925 -1.125
10.875 14.925 0.075
12.675 17.475 -0.525
12.675 15.975 0.525
11.775 15.075 0.975
11.775 15.075 -0.825
11.775 15.075 0.525
12.825 17.025 0.525
12.825 16.425 1.725
12.075 18.225 -0.675
12.075 15.225 2.025
12.075 15.225 -0.675
12.825 16.275 1.125
11.925 18.375 0.225
12.675 17.625 -0.975
12.825 17.325 -0.675
11.625 14.925 0.525
11.625 14.925 -0.375
12.525 17.925 0.225
12.225 15.225 0.375
12.825 17.475 -0.225
12.975 16.725 1.575
11.775 14.925 1.125
11.775 14.925 0.525
11.025 14.775 -0.075
12.075 18.375 0.075
12.975 16.875 0.225
12.975 16.875 0.525
10.875 14.775 0.075
10.875 14.775 -0.225
12.075 15.075 0.375
12.975 17.025 -0.375
12.975 17.025 0.975
12.975 17.025 0.525
12.975 17.175 0.225
12.975 16.275 0.225
12.975 16.275 0.675
11.475 14.775 0.225
11.925 18.525 -0.525
12.825 15.825 1.425
11.925 14.925 1.575
12.525 18.075 -0.075
12.525 18.075 1.725
12.525 18.075 -0.525
12.375 18.225 -0.225
12.675 17.925 2.175
12.675 17.925 -0.375
12.675 17.925 3.525
12.675 17.925 -0.525
12.675 15.525 0.525
11.625 14.775 0.525
10.425 14.775 -0.675
11.625 14.775 0.975
12.075 18.525 0.075
12.075 18.525 -0.375
12.825 17.775 0.375
12.825 17.775 1.875
12.825 15.675 -1.125
12.075 14.925 0.225
11.775 14.775 1.125
11.775 14.775 0.525
13.125 16.725 -0.525
13.125 16.875 -0.825
13.125 16.575 0.375
11.175 14.625 0.075
13.125 17.025 0.525
12.525 18.225 -0.375
12.675 18.075 -0.525
12.675 15.375 -0.075
13.125 17.175 0.525
13.125 16.275 0.675
11.925 14.775 1.575
12.225 18.525 -0.675
12.225 18.525 -0.375
12.225 18.525 -0.525
12.825 17.925 0.075
12.225 14.925 0.375
12.225 14.925 -0.375
13.125 17.325 -0.675
11.625 14.625 0.975
11.625 14.625 0.525
11.625 14.625 -0.525
12.975 17.775 0.375
12.075 18.675 -0.375
12.075 14.775 0.075
10.275 18.825 -2.025
12.525 18.375 0.525
13.125 17.475 -0.525
9.375 15.225 4.425
12.375 18.525 -0.525
12.375 18.525 -0.675
12.375 18.525 -0.075
12.825 18.075 0.825
12.825 18.075 -0.075
12.825 18.075 2.025
13.275 16.725 0.225
13.275 16.725 0.375
13.275 16.725 0.525
13.275 17.025 1.275
13.275 17.025 1.425
13.275 16.425 0.675
13.125 17.625 0.225
11.925 14.625 0.525
12.225 18.675 -0.375
13.275 17.175 -0.375
13.275 17.175 0.975
11.475 14.475 -0.525
10.575 14.475 -0.525
10.425 14.475 -0.375
11.625 14.475 1.125
12.675 18.375 0.375
12.525 18.525 0.075
12.825 18.225 0.675
12.825 18.225 0.525
13.125 17.775 1.125
12.075 14.625 1.575
12.375 18.675 -0.825
12.375 18.675 -0.225
13.275 17.475 0.075
13.275 17.475 -0.525
11.775 14.475 1.275
11.775 14.475 0.525
12.225 18.825 -1.425
13.425 17.025 0.525
13.425 17.025 3.375
13.125 15.525 -0.675
13.425 16.425 1.125
12.225 14.625 -0.525
10.725 14.325 -0.975
11.925 18.975 -0.825
11.925 18.975 0.825
11.925 14.475 0.525
11.925 14.475 1.425
11.925 14.475 2.025
12.675 18.525 0.825
13.425 17.175 -0.675
13.425 17.175 0.975
12.975 18.225 0.075
12.525 18.675 -0.225
9.525 14.775 0.225
13.275 17.775 -0.375
13.275 17.775 -0.525
12.375 18.825 -0.225
12.375 14.625 -0.075
12.375 14.625 0.525
13.425 17.475 0.075
11.775 14.325 0.525
12.825 18.525 0.225
12.225 14.475 -0.825
9.825 14.475 -0.225
12.975 18.375 -0.525
13.575 16.875 0.375
13.575 16.875 0.225
12.675 18.675 -0.225
12.675 18.675 0.375
10.875 14.175 -0.675
11.925 14.325 0.375
11.325 19.275 -0.225
13.575 17.025 0.525
11.325 14.175 0.075
12.525 18.825 -0.075
10.575 19.275 0.375
13.575 17.175 0.525
13.575 16.275 1.275
11.475 14.175 -0.225
11.475 14.175 -0.075
11.475 14.175 0.525
13.575 17.325 0.975
12.375 14.475 -0.075
12.975 18.525 0.075
12.825 18.675 -0.225
13.575 17.475 -0.375
12.675 18.825 -0.075
12.675 18.825 -0.525
9.825 14.325 0.975
11.025 14.025 0.225
11.925 19.275 -0.075
13.725 16.875 0.375
13.725 16.875 -0.225
13.275 18.225 -0.375
13.275 18.225 0.075
13.275 18.225 1.575
11.925 14.175 0.525
11.175 14.025 1.275
11.175 14.025 0.525
10.875 14.025 -0.075
11.175 14.025 0.225
10.875 14.025 0.375
12.525 14.475 1.125
9.525 14.475 0.375
11.325 14.025 0.525
11.325 14.025 0.975
11.475 19.425 -0.525
11.475 14.025 0.225
11.475 14.025 -0.075
11.475 14.025 -0.375
11.475 14.025 1.125
10.575 14.025 -0.375
10.575 14.025 -0.075
13.425 18.075 0.525
13.575 17.775 -0.825
12.975 18.675 -0.075
12.075 14.175 0.375
12.075 14.175 0.525
12.825 18.825 -1.275
13.125 18.525 -0.075
12.825 18.825 0.075
12.825 18.825 -0.825
13.125 18.525 -0.225
13.725 17.325 -0.675
13.725 17.325 0.975
13.725 17.325 0.525
13.725 16.125 -1.725
10.425 14.025 -0.825
11.625 14.025 -0.225
12.675 18.975 -0.075
12.675 18.975 0.225
11.775 19.425 -0.075
13.725 17.475 0.225
11.775 19.425 0.075
11.775 19.425 -0.525
13.725 17.475 0.525
11.775 14.025 0.975
13.575 17.925 -1.125
9.525 19.125 3.075
13.725 17.625 -0.525
11.925 19.425 0.075
11.925 14.025 0.375
11.175 19.575 -1.875
10.875 13.875 0.225
12.975 18.825 -0.375
13.125 18.675 -0.525
13.125 18.675 -0.225
13.125 18.675 -0.075
13.875 17.025 0.525
11.325 13.875 0.525
11.325 13.875 2.325
13.275 18.525 -0.225
13.275 18.525 0.225
13.275 18.525 0.825
12.825 18.975 0.075
12.825 18.975 -0.675
13.575 18.075 0.825
13.575 18.075 -0.225
13.575 18.075 0.225
13.875 17.175 0.375
11.475 13.875 1.425
11.475 13.875 0.375
11.475 13.875 -0.225
12.075 19.425 0.525
12.075 14.025 0.525
11.625 19.575 -0.375
13.875 17.325 0.525
13.425 18.375 -1.575
13.425 18.375 0.525
13.425 18.375 0.675
11.775 19.575 0.825
11.775 19.575 -0.075
13.875 17.475 -0.225
11.775 13.875 1.575
12.225 19.425 0.225
13.575 18.225 -0.225
13.575 18.225 0.525
13.125 18.825 -0.375
13.125 18.825 -0.825
8.925 18.825 -0.975
12.975 18.975 -0.675
13.275 18.675 -0.975
13.275 18.675 -0.075
13.275 18.675 -0.675
11.925 19.575 0.075
11.925 19.575 0.675
11.925 13.875 0.525
12.825 19.125 -0.375
13.425 18.525 -0.675
13.425 18.525 -0.225
13.425 18.525 0.075
14.025 16.725 0.675
14.025 16.725 0.525
11.025 19.725 -0.075
11.025 13.725 2.175
11.175 19.725 -0.525
11.175 13.725 -0.375
11.175 13.725 0.525
14.025 17.025 0.375
10.725 19.725 0.375
11.325 13.725 1.125
11.325 13.725 0.075
13.725 18.075 0.525
13.725 18.075 -0.825
12.375 19.425 -0.075
14.025 17.175 0.525
10.575 19.725 -1.125
11.475 13.725 -0.375
11.475 13.725 1.425
11.475 13.725 0.525
11.475 13.725 -0.225
10.575 13.725 -0.975
12.675 19.275 -0.525
13.575 18.375 -0.375
14.025 17.325 1.425
14.025 17.325 0.525
14.025 17.325 1.575
10.425 19.725 0.375
11.625 13.725 1.425
13.275 18.825 -0.375
13.125 18.975 -0.075
13.125 18.975 -0.225
13.125 18.975 -0.525
12.525 19.425 0.375
12.525 19.425 -0.225
13.725 18.225 0.525
9.825 19.575 0.975
12.975 19.125 -0.675
12.975 19.125 -0.075
13.875 17.925 -0.225
13.425 18.675 -0.525
14.025 17.475 1.125
12.825 19.275 -0.225
13.575 18.525 -0.225
13.575 18.525 -0.525
13.575 18.525 -0.075
11.025 19.875 0.225
11.025 13.575 0.525
11.025 13.575 0.225
12.375 19.575 0.375
10.875 19.875 0.225
11.175 13.575 0.975
10.875 13.575 -0.375
11.175 13.575 -0.225
11.175 13.575 1.125
11.175 13.575 0.525
10.725 19.875 0.675
10.725 19.875 0.375
13.725 18.375 0.075
13.725 18.375 -0.075
9.375 19.425 0.075
7.875 17.025 -0.225
12.075 19.725 -0.075
12.075 19.725 0.525
12.075 19.725 0.075
9.975 19.725 -0.825
8.025 15.675 -0.975
11.475 19.875 -0.225
11.475 19.875 -0.075
13.275 18.975 -0.075
13.425 18.825 0.075
13.425 18.825 0.225
11.625 19.875 -0.975
11.625 19.875 0.975
14.175 17.325 0.525
11.625 13.575 0.525
11.625 13.575 -0.075
13.575 18.675 0.075
13.875 18.225 -0.225
14.025 17.925 -0.225
10.275 19.875 1.125
10.275 19.875 0.675
11.775 19.875 0.825
14.175 17.475 0.975
11.775 13.575 -0.525
13.725 18.525 -0.225
13.725 18.525 0.825
9.225 19.425 0.075
10.125 19.875 0.375
11.925 13.575 -1.275
11.925 13.575 -0.375
14.025 18.075 0.525
14.025 18.075 0.375
12.375 19.725 0.525
12.375 19.725 -0.225
13.425 18.975 0.675
13.875 18.375 0.075
14.325 16.725 0.975
13.125 19.275 0.225
13.575 18.825 -0.225
13.575 18.825 0.225
14.325 16.875 0.375
10.875 13.425 -1.125
11.175 13.425 0.525
11.175 13.425 -0.075
11.175 13.425 -0.675
11.175 13.425 -0.375
10.725 20.025 -0.225
10.725 20.025 -0.075
14.325 17.025 0.525
14.325 16.425 1.125
14.325 16.425 0.975
11.325 13.425 -0.375
14.175 17.775 -0.375
10.575 20.025 0.675
10.575 20.025 1.425
12.975 19.425 0.825
13.725 18.675 -0.525
7.725 17.175 -0.075
11.475 13.425 1.425
14.025 18.225 0.975
7.725 17.325 -0.375
11.625 13.425 0.375
12.825 19.575 0.075
12.825 19.575 0.525
12.825 19.575 0.225
12.225 19.875 -0.075
11.775 20.025 0.375
14.325 17.475 0.525
14.325 17.475 0.975
14.325 17.475 1.575
11.775 13.425 0.525
7.725 17.475 0.825
13.575 18.975 0.225
13.575 18.975 0.075
13.575 18.975 -0.075
8.475 18.975 0.975
13.725 18.825 -0.225
14.325 17.625 0.525
14.325 17.625 -0.375
14.325 17.625 0.225
7.725 17.625 1.125
12.675 19.725 -0.075
14.175 18.075 1.725
14.175 18.075 0.225
11.025 20.175 0.225
14.475 16.725 -0.525
14.475 16.875 0.525
14.475 16.875 -0.525
13.875 18.675 -0.975
13.875 18.675 -0.525
7.575 16.875 -0.375
12.975 13.875 2.025
11.175 13.275 0.075
11.175 13.275 0.525
11.175 13.275 -0.225
11.175 13.275 1.125
11.175 13.275 -0.675
14.325 17.775 -0.225
14.475 17.025 0.375
10.725 20.175 -0.675
7.725 17.775 1.275
11.325 13.275 -0.225
11.325 13.275 0.525
14.475 17.175 -0.225
10.575 20.175 0.675
10.575 20.175 0.825
10.575 20.175 0.225
13.425 19.275 0.075
13.575 19.125 0.075
14.475 17.325 -0.975
14.475 17.325 -0.525
11.625 13.275 1.575
12.225 20.025 0.225
9.825 20.025 -0.375
14.325 17.925 -1.275
7.725 17.925 1.125
10.275 20.175 0.975
14.475 17.475 0.525
7.575 17.475 1.425
11.775 13.275 0.675
11.775 13.275 0.525
10.275 13.275 2.925
13.875 18.825 -0.825
14.175 18.375 -0.825
12.375 20.025 0.075
12.375 20.025 0.525
14.475 17.625 0.525
10.125 20.175 -0.375
10.125 20.175 0.375
7.575 17.625 -0.225
10.125 13.275 0.975
11.925 13.275 -0.225
12.975 19.725 0.075
14.025 18.675 -0.525
9.075 19.725 0.225
9.075 19.725 -0.225
9.075 19.725 -0.375
9.075 19.725 -0.975
11.025 13.125 0.525
11.025 13.125 -0.825
7.425 16.875 0.525
10.875 13.125 -0.525
10.875 13.125 -0.225
13.575 19.275 0.525
14.475 17.775 -0.225
9.975 20.175 0.375
12.075 13.275 1.275
9.975 13.275 1.575
13.725 19.125 -0.525
14.625 17.025 0.375
13.425 19.425 0.525
7.425 17.025 0.075
11.325 13.125 0.525
10.725 13.125 0.525
12.525 13.425 0.675
10.575 20.325 0.225
12.825 19.875 -0.375
12.825 19.875 0.975
12.825 19.875 0.225
14.625 17.175 0.375
7.425 17.175 0.375
11.475 13.125 -0.225
8.775 19.575 0.525
13.875 18.975 -0.525
10.425 20.325 0.375
10.425 20.325 0.675
14.625 17.325 1.575
9.825 20.175 1.425
7.575 17.925 2.475
14.025 18.825 -0.075
13.125 19.725 0.075
7.425 17.475 1.425
11.775 13.125 -0.525
11.775 13.125 0.525
12.975 19.875 -0.375
12.975 19.875 0.225
12.375 20.175 0.525
14.175 18.675 -0.075
14.175 18.675 -0.525
11.925 20.325 0.225
11.925 13.125 1.125
13.725 19.275 -0.525
13.875 19.125 0.375
13.875 19.125 -0.225
9.975 20.325 1.575
11.025 20.475 0.225
11.025 20.475 1.125
14.025 18.975 -0.525
7.275 16.725 -0.075
9.975 13.125 3.075
11.025 12.975 -0.525
11.025 12.975 0.375
11.025 12.975 -0.225
7.275 16.575 -0.525
11.175 12.975 -0.075
11.175 12.975 -0.375
11.175 12.975 -0.675
10.875 12.975 0.825
11.175 12.975 -0.525
10.875 12.975 0.525
12.825 20.025 -0.375
14.325 18.525 0.075
14.475 18.225 0.225
7.275 17.025 0.375
7.275 17.025 0.225
7.275 16.425 -0.825
10.725 20.475 0.975
10.725 20.475 1.275
11.325 12.975 -0.225
10.725 12.975 0.225
11.475 12.975 0.075
14.175 18.825 -0.375
14.175 18.825 -0.525
7.275 17.325 0.525
14.775 17.325 0.225
14.775 17.325 0.525
14.775 17.325 -1.125
14.775 17.325 1.275
11.625 12.975 0.525
7.575 18.375 0.225
14.775 17.475 -0.375
14.775 17.475 0.975
10.275 20.475 0.075
14.775 17.475 0.225
10.275 12.975 0.675
11.775 12.975 -0.525
9.075 13.425 0.375
14.025 19.125 0.675
13.425 19.725 0.075
13.425 19.725 -0.525
12.375 20.325 0.225
7.275 17.625 0.075
13.275 19.875 0.075
7.275 17.775 0.975
12.075 20.475 0.075
9.975 12.975 0.525
12.525 20.325 0.525
11.025 20.625 1.725
14.625 18.225 -0.075
7.425 18.225 -0.525
9.525 13.125 -1.725
11.025 12.825 -0.675
11.025 12.825 0.975
11.025 12.825 0.225
7.125 16.875 -0.375
7.125 16.875 1.425
7.125 16.875 -1.125
7.125 16.875 0.975
10.875 12.825 0.375
11.175 12.825 1.425
14.325 18.825 -0.525
10.725 20.625 0.375
7.725 18.825 0.675
7.125 17.025 1.725
11.325 12.825 -0.225
13.725 19.575 0.675
10.575 20.625 -0.075
13.875 19.425 -0.525
8.175 19.425 0.375
7.125 17.175 0.375
11.475 12.825 0.375
8.025 19.275 0.825
13.575 19.725 0.675
14.775 17.925 -0.375
7.125 17.325 0.675
14.925 17.325 0.525
14.925 17.325 1.575
11.625 12.825 0.225
12.675 20.325 0.675
14.175 19.125 0.375
7.425 18.375 0.375
12.975 20.175 1.125
14.925 17.475 -0.375
14.925 17.475 0.525
11.775 12.825 0.525
9.675 12.975 -1.125
14.325 18.975 0.525
11.925 20.625 0.675
7.425 18.525 0.975
13.875 19.575 0.825
13.725 19.725 0.975
14.025 19.425 -0.525
8.025 19.425 0.225
13.125 20.175 1.275
7.125 17.775 1.425
7.275 18.225 1.725
7.275 18.225 -0.675
15.075 16.725 -0.375
11.025 12.675 -0.225
11.025 12.675 0.375
11.025 12.675 -0.675
11.025 12.675 0.975
14.175 19.275 0.675
11.175 12.675 -0.525
11.175 12.675 -0.375
11.325 12.675 -0.975
15.075 16.275 0.225
11.475 12.675 0.375
14.925 17.925 -0.675
10.425 20.775 0.825
14.625 18.675 -0.825
14.625 18.675 4.725
7.425 18.675 0.525
6.975 17.325 0.825
11.625 12.675 -0.225
12.675 20.475 0.375
15.075 17.475 0.525
14.475 18.975 0.375
14.475 18.975 -0.525
10.275 12.675 0.225
11.775 12.675 0.525
14.025 19.575 0.975
15.075 17.625 0.525
15.075 17.625 0.975
14.175 19.425 -0.375
7.875 19.425 0.675
7.875 19.425 0.825
12.825 20.475 0.375
14.625 18.825 -0.075
7.725 19.275 0.675
7.125 18.225 -1.275
9.975 20.775 0.525
15.075 17.775 -0.525
6.975 17.775 1.125
9.975 12.675 -0.375
11.025 20.925 0.525
6.825 16.725 1.425
11.025 12.525 0.525
11.025 12.525 1.275
11.025 12.525 -0.225
15.225 16.875 0.525
11.175 12.525 -0.825
10.875 12.525 0.975
10.725 20.925 0.975
6.825 17.025 0.075
11.325 12.525 -0.075
10.725 12.525 0.525
11.475 20.925 0.825
6.975 17.925 -0.075
10.575 12.525 0.525
10.575 12.525 0.225
10.575 12.525 0.375
10.575 12.525 0.825
14.775 18.675 -0.675
14.775 18.675 -0.225
7.275 18.675 0.525
7.125 18.375 0.375
15.225 17.325 -0.075
6.825 17.325 0.675
6.825 16.125 0.075
11.625 12.525 -0.375
14.625 18.975 0.075
13.875 19.875 0.825
14.175 19.575 0.825
7.725 19.425 0.825
15.225 17.475 0.525
6.825 17.475 0.225
13.575 20.175 0.225
8.475 20.175 -0.075
12.825 20.625 0.525
15.225 17.625 -1.275
6.825 15.825 0.075
11.925 12.525 1.425
14.775 18.825 -0.375
15.075 18.225 -0.525
6.975 18.225 0.075
13.425 20.325 1.575
14.625 19.125 -0.525
14.625 19.125 -0.825
15.225 17.775 0.225
15.225 17.775 0.525
12.075 20.925 0.975
11.025 12.375 -0.075
11.175 21.075 0.525
15.375 16.875 0.525
6.675 16.875 1.125
11.175 12.375 -0.225
11.175 12.375 0.375
11.175 12.375 1.275
15.375 17.025 0.525
14.925 18.675 -0.525
14.925 18.675 -0.375
7.125 18.675 0.975
10.725 12.375 0.975
10.725 12.375 0.825
11.325 12.375 0.525
10.725 12.375 0.525
10.725 12.375 -0.525
12.675 20.775 0.675
11.475 21.075 0.375
15.075 18.375 -0.525
15.375 17.175 0.525
15.375 17.175 0.975
14.775 18.975 -0.825
6.675 16.275 0.225
10.575 12.375 -0.375
7.575 19.425 0.375
11.625 21.075 0.075
11.625 12.375 0.525
10.425 12.375 -0.225
10.425 12.375 -0.375
10.425 12.375 2.925
13.575 20.325 0.375
15.225 18.075 -0.525
7.125 18.825 0.525
15.075 18.525 -0.225
15.075 18.525 -0.075
6.675 17.625 1.125
6.675 15.825 0.225
14.775 19.125 -1.425
14.025 20.025 0.975
12.075 21.075 0.825
15.375 17.775 0.075
15.375 17.775 -0.525
6.675 15.675 -0.225
6.675 15.675 0.375
9.975 12.375 -0.525
15.075 18.675 -0.675
11.025 21.225 0.675
11.025 12.225 1.425
13.275 20.625 1.575
11.175 21.225 1.575
15.525 16.875 0.675
15.525 16.575 0.675
14.925 18.975 -0.375
14.925 18.975 -0.525
10.875 21.225 0.825
10.875 12.225 -0.375
10.875 12.225 -0.975
15.525 17.025 1.575
6.525 16.425 0.075
10.725 12.225 0.975
10.725 12.225 0.525
10.725 12.225 -0.225
11.325 12.225 0.375
10.725 12.225 -0.375
11.325 12.225 0.675
6.825 18.375 -0.225
9.375 12.525 -0.225
12.225 12.375 1.125
9.825 12.375 -0.975
15.525 17.175 0.525
6.525 16.275 0.525
10.575 12.225 -0.525
11.475 12.225 0.525
7.275 19.275 0.525
15.525 17.325 0.525
6.525 17.325 0.525
15.375 18.075 2.175
6.675 15.375 0.675
11.775 12.225 0.525
15.225 18.525 0.075
14.925 19.125 -0.675
15.525 17.625 -0.375
15.525 17.625 -0.525
15.525 17.625 -0.675
15.525 17.625 1.275
6.525 15.825 1.725
11.925 21.225 0.975
11.925 21.225 0.525
10.125 21.225 0.075
10.125 12.225 -1.425
9.525 21.075 0.825
6.675 18.225 1.425
15.525 17.775 -0.225
13.725 20.475 -0.225
6.525 15.675 -0.375
6.525 15.675 0.225
8.325 20.475 0.225
12.075 12.225 0.975
6.825 18.675 1.125
6.375 16.725 0.375
15.675 16.725 -0.525
6.375 16.725 -1.125
6.375 16.725 0.225
11.025 12.075 0.225
11.025 12.075 1.575
6.675 18.375 0.675
15.675 16.875 -0.525
9.375 12.375 -0.825
10.875 12.075 0.525
10.875 12.075 1.125
10.875 12.075 -0.375
10.875 12.075 1.725
9.825 12.225 -0.375
11.325 21.375 1.125
10.725 21.375 0.525
7.125 19.275 0.375
6.375 16.425 0.825
10.725 12.075 -0.525
10.725 12.075 -0.375
15.675 17.175 0.525
6.375 16.275 -1.275
10.575 12.075 -0.675
14.625 19.725 0.225
11.625 21.375 0.675
15.675 17.325 0.525
15.675 17.325 0.675
6.375 16.125 0.075
10.425 12.075 2.475
13.125 12.525 1.125
6.675 18.525 0.675
15.675 17.475 0.225
10.275 12.075 2.625
15.675 17.625 -0.525
6.375 15.825 -0.825
15.525 18.225 1.425
15.525 18.225 0.975
6.525 15.225 1.125
13.275 20.925 -0.225
15.375 18.675 0.825
6.375 15.675 -0.075
12.075 12.075 -0.825
11.025 21.525 0.825
15.825 16.725 -0.525
11.025 11.925 1.125
12.225 21.375 0.375
10.875 11.925 -0.675
10.875 11.925 -0.375
10.875 11.925 0.525
15.825 17.025 0.225
6.225 16.425 -0.075
6.225 17.025 0.225
11.325 11.925 0.225
10.725 11.925 -0.375
10.575 11.925 -0.375
15.825 17.325 -0.225
15.825 17.325 0.825
15.225 19.125 -0.075
6.825 19.125 1.575
6.375 18.075 0.375
6.375 15.375 0.675
15.525 18.525 -0.225
15.525 18.525 0.375
6.525 14.925 0.375
15.825 17.475 1.725
15.825 17.475 1.575
15.825 17.475 0.525
11.775 11.925 -0.225
6.225 17.475 0.375
11.925 21.525 0.375
15.825 17.625 1.125
15.375 18.975 -0.375
15.375 18.975 -0.075
15.525 18.675 -0.075
12.075 21.525 0.525
15.825 17.925 0.075
11.025 21.675 0.675
15.975 16.725 0.525
11.025 11.775 0.375
11.025 11.775 -0.525
10.875 21.675 1.275
15.975 16.875 0.675
15.975 16.875 -0.675
15.975 16.875 0.075
10.875 11.775 -0.675
15.975 17.025 1.875
10.725 11.775 2.175
10.725 11.775 -0.375
11.325 11.775 -0.675
15.525 18.825 -0.675
10.575 11.775 1.875
10.575 11.775 -0.525
10.575 11.775 -0.375
15.975 17.325 -0.375
6.225 18.075 0.825
12.375 11.925 -0.075
9.675 11.925 -0.825
10.425 11.775 -0.375
11.775 11.775 -0.075
15.825 18.225 1.575
6.225 15.225 1.125
15.975 17.625 0.975
15.975 17.625 0.525
15.525 18.975 0.825
15.525 18.975 -0.375
11.925 11.775 -0.075
15.375 19.275 0.225
6.675 19.275 1.275
15.675 18.675 0.225
15.975 17.775 0.225
9.375 11.925 -0.225
14.625 20.325 0.075
12.225 11.775 -0.075
14.475 20.475 0.825
15.525 19.125 0.525
11.025 11.625 -0.375
11.025 11.625 0.375
15.675 18.825 -0.825
16.125 16.875 -0.375
10.875 11.625 -1.575
11.175 11.625 -0.375
11.175 11.625 -0.525
11.175 11.625 0.375
11.175 11.625 -0.675
16.125 17.025 0.825
16.125 17.025 0.525
11.325 11.625 -0.075
11.325 11.625 -0.375
16.125 17.175 0.675
10.575 11.625 -0.525
10.575 11.625 0.525
10.575 11.625 -0.225
11.475 11.625 -0.975
15.825 18.525 -0.075
6.225 18.525 1.125
9.225 11.925 -0.225
9.225 11.925 0.075
12.375 21.675 0.675
9.675 11.775 -0.825
16.125 17.325 0.675
11.625 11.625 -0.375
10.425 11.625 0.525
10.425 11.625 -0.375
16.125 17.475 1.575
11.775 11.625 0.075
10.275 11.625 -0.525
15.675 18.975 -0.225
15.675 18.975 -0.525
15.975 18.225 -0.225
12.525 11.775 0.675
16.125 17.625 0.675
15.825 18.675 -0.825
15.825 18.675 -0.675
12.975 11.925 0.225
14.475 20.625 0.675
16.125 17.775 -0.225
16.125 17.775 0.525
15.975 18.375 -0.825
15.675 19.125 -0.075
15.675 19.125 0.225
15.825 18.825 -0.675
8.925 11.925 4.575
11.025 11.475 -0.675
10.875 11.475 -1.125
10.875 11.475 -0.525
5.775 16.425 1.125
11.325 11.475 0.225
10.725 11.475 -0.675
11.475 11.475 -0.225
10.575 11.475 -0.225
12.375 11.625 -0.225
16.275 17.325 0.525
11.625 11.475 -0.525
10.425 11.475 -0.675
10.425 11.475 0.525
10.425 11.475 0.975
15.825 18.975 0.075
15.675 19.275 0.675
14.775 20.475 0.825
10.275 11.475 0.225
14.925 20.325 0.675
16.125 18.225 -0.975
16.125 18.225 -0.225
12.525 11.625 0.525
9.525 11.625 -0.225
9.525 11.625 -0.675
16.275 17.625 1.425
16.275 17.625 1.575
10.125 11.475 -0.375
14.325 20.925 0.675
9.975 11.475 -0.225
9.975 11.475 -0.525
9.975 11.475 -1.125
12.675 11.625 0.825
15.825 19.125 -0.225
6.225 19.125 0.975
15.975 18.825 -0.525
15.975 18.825 -0.675
11.175 11.325 -0.375
16.125 18.525 -0.675
11.325 11.325 0.675
10.725 11.325 1.575
14.925 20.475 0.825
16.425 17.175 -0.825
16.425 16.275 -0.225
11.475 11.325 0.075
10.575 11.325 0.525
10.575 11.325 -0.675
12.375 11.475 -0.075
9.675 11.475 -0.825
10.425 11.325 1.125
10.425 11.325 -0.675
10.425 11.325 -0.525
15.825 19.275 -0.375
16.425 17.475 0.675
10.275 11.325 -1.125
16.275 18.225 -0.375
16.275 18.225 -0.075
16.125 18.675 -0.525
16.125 18.675 -0.375
16.125 18.675 -0.825
16.125 18.675 -0.675
10.125 11.325 -0.525
15.975 19.125 -0.975
15.975 19.125 -0.375
13.425 11.775 0.375
16.275 18.375 -0.375
9.375 11.475 -0.675
13.725 11.925 0.225
13.125 11.625 0.675
15.225 20.325 0.225
14.625 20.925 0.525
9.825 11.325 -0.675
11.025 11.175 -0.075
11.325 11.175 0.375
11.325 11.175 -0.075
9.675 11.325 -0.675
15.975 19.275 0.225
15.975 19.275 -0.525
15.975 19.275 0.075
16.575 16.275 -1.125
10.575 11.175 0.525
11.475 11.175 -0.075
16.125 18.975 0.225
13.275 11.625 0.225
15.525 20.025 0.375
15.825 19.575 0.225
5.475 16.125 1.575
16.575 17.475 -0.225
10.275 11.175 0.375
16.575 17.625 0.675
16.575 17.625 -0.525
16.575 17.625 1.725
15.225 20.475 0.375
15.375 20.325 0.375
16.575 17.775 0.525
16.275 18.825 -0.975
16.275 18.825 0.225
16.575 17.925 1.125
16.575 17.925 0.675
16.575 17.925 0.975
16.125 19.275 0.225
10.875 11.025 0.075
10.725 11.025 0.375
10.725 11.025 0.525
16.275 18.975 -0.975
13.875 11.775 0.075
16.725 17.175 1.575
10.575 11.025 1.275
5.325 16.125 1.425
16.725 17.325 0.525
10.425 11.025 0.225
16.425 18.675 -0.675
16.725 17.475 -0.825
10.275 11.025 -0.225
15.525 20.325 0.375
16.125 19.425 0.075
16.275 19.125 0.525
9.375 11.175 -0.375
16.725 17.775 0.675
16.725 17.775 -1.875
16.725 17.925 0.225
16.725 17.925 0.525
16.125 19.575 0.075
15.375 20.625 0.225
16.425 18.975 0.225
16.875 17.025 0.225
10.725 10.875 0.525
16.875 17.175 0.825
16.875 17.175 0.675
16.875 17.325 0.675
5.175 16.125 1.425
16.575 18.675 -0.225
10.275 10.875 0.525
13.725 21.975 1.275
13.425 22.125 0.825
15.825 20.175 0.075
10.125 10.875 0.525
16.575 18.825 0.225
15.375 20.775 0.375
16.875 17.925 1.425
16.575 18.975 0.375
15.825 20.325 -0.375
11.025 10.725 0.525
10.875 10.725 0.525
16.875 18.075 -0.375
16.875 18.075 1.275
10.425 10.725 1.575
17.025 17.475 0.525
16.275 19.725 0.075
14.025 21.975 1.425
17.025 17.625 0.375
10.125 10.725 0.525
10.125 10.725 1.125
10.125 10.725 0.225
10.125 10.725 0.975
16.125 20.025 -0.225
16.725 18.825 -0.375
16.875 18.375 1.725
16.875 18.375 -0.675
9.375 10.875 2.625
17.025 17.775 0.675
15.825 20.475 0.075
9.975 10.725 -0.225
16.575 19.275 0.375
17.025 17.925 1.725
15.975 20.325 -0.075
16.275 19.875 0.075
16.725 18.975 0.075
17.025 18.075 1.125
9.675 10.725 -0.525
10.875 10.575 0.675
10.725 10.575 -0.825
10.725 10.575 -0.225
17.175 17.175 0.075
13.725 22.275 0.975
11.625 10.575 0.825
10.425 10.575 -0.225
16.725 19.125 -0.675
16.725 19.125 -0.525
10.275 10.575 0.525
15.975 20.475 -0.225
16.875 18.825 -0.975
16.875 18.825 -1.875
10.125 10.575 1.125
17.025 18.375 1.125
17.025 18.375 1.425
13.875 22.275 1.275
17.175 17.775 0.675
9.975 10.575 -0.375
16.125 20.325 -0.225
16.125 20.325 -0.075
16.725 19.275 -0.675
14.175 22.125 0.675
16.425 19.875 -0.075
17.175 17.925 0.675
9.825 10.575 -0.375
9.825 10.575 -0.225
16.275 20.175 -0.375
17.175 18.075 1.575
17.175 18.075 0.675
9.675 10.575 -0.525
9.675 10.575 -1.125
10.875 10.425 -0.525
10.875 10.425 -0.225
16.725 19.425 0.525
16.725 19.425 -0.225
17.025 18.675 -0.825
9.075 10.725 -0.675
10.575 10.425 -0.225
17.325 17.325 -0.225
14.325 22.125 1.125
10.425 10.425 0.525
17.175 18.225 0.975
17.175 18.225 1.125
17.175 18.225 -0.075
9.525 10.575 -0.675
10.275 10.425 1.425
10.125 10.425 -0.675
16.575 19.875 0.075
17.175 18.525 0.075
16.425 20.175 -0.525
16.425 20.175 -0.225
9.225 10.575 -0.525
17.325 18.075 0.675
16.875 19.425 -0.525
16.875 19.425 0.675
16.875 19.425 -0.375
11.025 10.275 0.075
14.775 21.975 0.075
9.075 10.575 -0.375
16.575 20.025 0.225
16.575 20.025 0.375
16.575 20.025 -0.075
17.025 19.125 -0.675
17.475 17.175 -0.075
17.325 18.225 0.675
17.325 18.225 0.225
9.525 10.425 -0.375
10.425 10.275 -0.225
10.425 10.275 -0.675
10.425 10.275 0.675
14.625 22.125 0.525
15.975 20.925 -0.075
10.275 10.275 0.525
16.875 19.575 -0.225
16.125 20.775 0.375
16.725 19.875 0.075
16.725 19.875 -0.075
17.025 19.275 -0.525
17.025 19.275 0.375
16.575 20.175 -0.075
9.975 10.275 0.525
14.025 10.875 -0.825
17.025 19.425 0.825
16.725 20.025 -0.075
16.725 20.025 -0.225
17.475 18.075 0.675
11.175 10.125 -1.125
11.175 10.125 0.525
10.725 10.125 0.675
14.625 22.275 0.525
17.625 17.175 -0.075
9.525 10.275 -0.525
10.425 10.125 -0.675
10.425 10.125 0.375
17.025 19.575 -0.375
17.025 19.575 4.725
10.275 10.125 1.425
16.875 19.875 -0.075
16.875 19.875 0.075
10.125 10.125 0.225
10.125 10.125 0.975
10.125 10.125 0.525
17.325 18.975 -0.675
17.325 18.975 0.225
9.225 10.275 2.025
17.025 19.725 -0.075
17.175 19.425 -0.375
16.275 20.925 -0.075
17.625 18.075 -0.075
14.625 22.425 0.525
10.575 9.975 0.675
10.425 9.975 0.525
10.425 9.975 -0.675
17.175 19.575 -0.525
10.275 9.975 1.725
10.275 9.975 0.525
17.625 18.375 1.425
9.375 10.125 -0.825
10.125 9.975 0.975
10.125 9.975 1.125
16.725 20.475 -0.075
17.775 17.775 -0.225
17.475 18.975 -0.525
16.425 20.925 -0.075
12.825 10.125 0.525
17.175 19.725 -0.525
17.325 19.425 -0.675
17.625 18.675 -0.375
17.775 18.075 -0.225
10.575 9.825 -0.525
10.575 9.825 0.525
17.625 18.825 2.475
17.625 18.825 2.325
17.475 19.275 -0.825
17.475 19.275 0.375
17.925 17.475 0.225
17.925 17.475 -0.075
17.925 17.475 -0.225
10.275 9.825 0.525
10.275 9.825 -0.525
10.125 9.825 -0.675
16.575 20.925 -0.225
17.625 18.975 -0.525
17.625 18.975 -0.675
17.625 18.975 -0.225
17.325 19.725 -0.375
9.975 9.825 2.175
17.775 18.525 -0.675
17.775 18.525 -0.525
17.475 19.425 -0.075
17.625 19.125 -0.525
17.775 18.675 -0.825
11.325 9.675 0.525
17.925 18.225 -0.225
17.775 18.825 -0.075
10.425 9.675 0.675
10.425 9.675 -0.375
15.225 22.425 0.375
18.075 17.475 -0.075
12.675 9.825 0.225
10.125 9.675 1.275
17.475 19.725 -0.225
15.075 22.575 0.075
17.925 18.525 0.675
17.925 18.525 -0.525
17.625 19.425 0.675
18.075 17.925 -0.075
13.425 9.975 1.575
15.375 22.425 0.375
15.375 22.425 0.075
9.075 9.825 -0.975
18.075 18.075 1.125
18.075 18.075 -0.225
17.625 19.575 -0.525
11.025 9.525 0.225
15.225 22.575 0.525
16.875 20.925 -0.525
11.325 9.525 -2.175
18.075 18.225 -0.225
18.075 18.225 0.375
17.925 18.825 -0.075
17.925 18.825 -0.225
10.575 9.525 0.525
10.425 9.525 -0.375
10.425 9.525 0.525
18.225 17.475 0.525
18.075 18.375 -0.375
9.375 9.675 0.075
17.625 19.725 -0.225
18.225 17.775 -0.225
9.225 9.675 -0.825
9.225 9.675 1.575
9.825 9.525 -0.675
17.925 19.125 -0.075
9.075 9.675 -0.825
18.225 18.075 -0.825
18.225 18.075 -0.075
11.025 9.375 0.525
9.525 9.525 0.675
18.225 18.225 1.575
17.925 19.275 0.825
17.925 19.275 -0.075
10.725 9.375 0.675
13.575 9.825 1.275
10.575 9.375 -1.125
10.575 9.375 0.675
10.425 9.375 -0.375
15.525 22.575 0.225
15.525 22.575 0.825
17.775 19.725 -0.075
18.225 18.375 -0.975
18.225 18.375 -0.375
18.075 18.975 0.525
18.075 18.975 0.075
18.075 18.975 -0.375
17.925 19.425 -0.375
18.225 18.525 1.275
18.375 17.775 -0.075
9.975 9.375 -0.825
9.975 9.375 0.525
15.975 22.275 -0.075
18.075 19.125 0.825
18.375 17.925 0.525
9.825 9.375 0.525
17.925 19.575 -0.525
17.925 19.575 0.675
15.675 22.575 -0.075
18.375 18.075 0.525
9.675 9.375 -0.225
9.675 9.375 0.375
18.075 19.275 -0.375
15.525 22.725 -0.075
8.925 9.525 2.175
18.375 18.225 -0.675
10.725 9.225 0.675
17.925 19.725 -0.075
18.375 18.375 0.525
18.375 18.375 1.725
18.525 17.475 0.525
10.125 9.225 -0.825
10.125 9.225 -0.975
10.125 9.225 -1.125
18.375 18.525 1.575
9.225 9.375 1.875
17.925 19.875 -0.525
17.925 19.875 -0.375
17.925 19.875 1.125
18.525 17.925 -0.375
9.825 9.225 0.525
9.825 9.225 0.225
9.825 9.225 0.975
9.825 9.225 -0.375
18.075 19.575 1.125
18.375 18.675 1.125
13.875 9.675 -1.275
9.675 9.225 -0.225
18.225 19.275 -0.225
18.225 19.275 -1.275
16.275 22.275 -0.375
18.375 18.825 -0.075
18.375 18.825 1.125
18.525 18.225 0.525
10.875 9.075 0.375
10.725 9.075 0.525
18.075 19.725 -0.075
18.075 19.725 0.825
18.075 19.725 0.225
15.825 22.725 0.525
10.275 9.075 -1.575
18.225 19.425 -0.825
18.225 19.425 -0.075
18.525 18.525 0.525
14.175 9.675 -0.075
9.975 9.075 -0.375
9.975 9.075 0.525
18.375 19.125 -0.075
18.225 19.575 0.975
9.825 9.075 -0.525
9.825 9.075 1.425
9.825 9.075 -0.225
18.525 18.675 0.525
18.525 18.675 1.575
16.125 22.575 -0.525
18.675 18.075 0.525
9.675 9.075 1.125
9.675 9.075 -0.375
18.525 18.825 0.975
18.525 18.825 -0.525
18.525 18.825 0.525
9.525 9.075 0.525
9.525 9.075 -0.225
18.225 19.725 -0.975
18.225 19.725 0.975
15.825 22.875 1.125
15.825 22.875 1.425
10.425 8.925 0.825
15.675 23.025 0.825
18.525 18.975 0.525
18.525 18.975 0.225
18.075 20.175 -0.525
9.975 8.925 0.525
9.825 8.925 0.225
18.075 20.325 -0.075
9.675 8.925 1.125
9.675 8.925 1.275
9.675 8.925 -0.075
18.225 20.025 0.825
18.675 18.825 0.375
10.875 8.775 0.825
18.525 19.425 -1.275
18.825 18.375 0.525
10.425 8.775 -0.225
10.425 8.775 0.225
18.675 18.975 -0.225
18.675 18.975 0.675
18.675 18.975 0.825
18.225 20.175 -0.375
10.275 8.775 -0.675
18.375 19.875 0.225
18.825 18.525 0.525
9.975 8.775 0.525
18.525 19.575 0.675
18.525 19.575 2.325
18.825 18.675 -0.075
9.075 8.925 3.225
18.825 18.825 1.275
18.525 19.725 -0.225
10.875 8.625 -1.425
10.575 8.625 0.225
18.825 18.975 0.975
18.225 20.475 -0.375
18.975 18.375 0.525
9.375 8.775 0.225
9.375 8.775 -0.825
18.675 19.575 0.675
9.975 8.625 -0.375
18.375 20.325 0.075
9.075 8.775 -0.525
9.075 8.775 -0.675
18.525 20.025 -0.525
18.525 20.025 -0.975
18.825 19.275 -0.225
18.975 18.825 0.675
8.925 8.775 -0.675
18.375 20.475 -0.225
18.825 19.425 -0.225
18.825 19.425 -0.525
18.525 20.175 -0.375
15.075 23.925 0.075
18.975 18.975 1.575
18.975 18.975 0.525
19.125 18.375 1.575
9.375 8.625 -0.375
9.375 8.625 0.075
9.375 8.625 -0.225
18.675 19.875 -0.375
19.125 18.525 -1.125
9.225 8.625 -0.675
10.125 8.475 0.675
10.125 8.475 0.525
18.975 19.125 1.125
18.525 20.325 -0.525
18.675 20.025 -0.525
18.675 20.025 -0.975
18.975 19.275 0.975
19.125 18.825 1.725
18.525 20.475 0.075
18.675 20.175 -0.525
8.775 8.625 -1.125
10.575 8.325 -1.125
9.375 8.475 -0.375
19.425 17.325 -0.075
9.225 8.475 -0.225
9.225 8.475 -0.525
9.225 8.475 -0.825
9.225 8.475 3.225
19.125 19.125 -0.075
19.125 19.125 0.525
19.125 19.125 -0.375
10.125 8.325 -0.375
9.975 8.325 0.675
18.825 20.025 -1.125
19.275 18.675 0.825
9.075 8.475 0.075
19.125 19.275 0.525
18.975 19.725 -0.525
8.925 8.475 -0.675
19.125 19.425 0.225
19.125 19.425 0.675
19.125 19.425 -0.525
15.375 24.075 0.225
18.975 19.875 -0.525
18.975 19.875 -0.975
19.425 18.375 -2.475
9.225 8.325 -0.225
10.125 8.175 -0.225
10.125 8.175 0.825
9.975 8.175 0.825
17.625 22.275 0.375
19.425 18.675 1.275
9.075 8.325 0.375
9.825 8.175 -0.375
19.275 19.275 0.675
19.125 19.725 -0.525
19.425 18.825 0.525
19.425 18.825 0.375
18.975 20.175 -0.675
19.575 18.225 -0.225
9.525 8.175 -0.225
19.425 18.975 0.675
8.775 8.325 0.825
11.025 8.025 -0.075
9.375 8.175 0.675
9.375 8.175 0.225
9.375 8.175 0.525
19.275 19.575 -0.375
19.275 19.575 -0.225
10.275 8.025 -0.225
9.225 8.175 0.975
17.775 22.275 -0.075
19.125 20.025 -0.525
19.275 19.725 -0.225
18.825 20.775 -0.075
19.575 18.825 1.425
9.675 8.025 0.225
9.675 8.025 -0.225
9.675 8.025 -0.825
8.325 8.325 -0.675
8.325 8.325 -0.975
9.525 8.025 -0.225
19.575 18.975 0.825
11.025 7.875 -0.375
9.375 8.025 1.725
9.375 8.025 0.225
18.825 20.925 -0.375
19.125 20.325 -0.825
10.425 7.875 0.225
19.575 19.125 0.525
9.225 8.025 0.525
9.225 8.025 1.575
9.225 8.025 0.075
9.225 8.025 1.125
9.975 7.875 -0.825
9.075 8.025 -0.525
19.425 19.725 1.125
8.025 8.325 -0.675
19.575 19.275 2.025
19.575 19.275 0.225
9.675 7.875 -0.225
19.575 19.425 1.725
19.575 19.425 0.675
8.775 8.025 0.225
19.125 20.625 -0.975
19.275 20.325 -0.825
19.275 20.325 -0.675
19.275 20.325 -0.375
19.575 19.575 1.425
19.575 19.575 -1.425
19.575 19.575 1.575
17.625 22.875 0.375
19.425 20.025 -0.375
9.225 7.875 0.525
19.575 19.725 1.125
19.725 19.275 -0.075
19.875 18.825 1.875
8.925 7.875 -0.375
8.925 7.875 2.325
19.575 19.875 3.075
19.125 20.925 -0.675
9.525 7.725 -0.375
19.425 20.325 -0.225
19.425 20.325 -1.125
19.425 20.325 -0.825
9.375 7.725 0.225
19.725 19.575 0.525
19.575 20.025 -0.225
9.225 7.725 0.525
19.725 19.725 0.675
19.725 19.725 0.975
19.575 20.175 -0.225
7.575 8.175 -0.675
9.675 7.575 0.825
19.725 19.875 0.225
19.725 19.875 0.675
18.075 22.725 -0.825
19.575 20.325 -0.225
8.175 7.875 -0.225
9.375 7.575 -0.525
19.725 20.025 -0.075
19.725 20.025 -0.375
11.475 7.425 1.125
9.225 7.575 -0.075
9.225 7.575 -0.525
19.575 20.475 -0.375
19.875 19.725 0.675
19.875 19.725 -0.375
20.025 19.275 0.525
9.075 7.575 0.675
19.725 20.175 -0.675
19.725 20.175 -0.225
19.725 20.175 -0.375
9.975 7.425 -0.075
8.925 7.575 1.575
19.875 19.875 0.675
20.025 19.425 0.525
8.175 7.725 -0.075
19.875 20.025 0.375
17.925 23.175 0.075
11.175 7.275 1.425
18.075 23.025 -0.975
10.425 7.275 1.425
19.725 20.475 -0.225
10.125 7.275 0.075
19.875 20.175 -0.075
20.175 19.275 0.825
9.075 7.425 0.675
9.075 7.425 0.525
9.825 7.275 -0.675
19.725 20.625 -0.675
19.875 20.325 -0.375
8.775 7.425 0.375
8.775 7.425 0.075
20.175 19.575 0.525
8.175 7.575 -0.825
19.875 20.475 0.075
20.175 19.725 0.675
20.175 19.725 0.375
20.325 19.275 -2.325
8.475 7.425 3.075
9.075 7.275 0.675
9.975 7.125 -0.525
19.725 20.925 0.825
19.875 20.625 -0.525
8.925 7.275 0.375
20.475 18.975 2.175
20.175 20.025 1.425
20.175 20.025 1.125
19.875 20.775 -0.075
20.025 20.475 -0.525
20.025 20.475 -0.375
20.025 20.475 1.725
8.625 7.275 0.375
8.625 7.275 0.825
20.325 19.725 0.525
18.975 22.425 -0.225
8.475 7.275 -0.075
9.975 6.975 -0.525
20.325 19.875 0.525
20.325 19.875 1.725
20.325 19.875 1.575
8.925 7.125 0.675
18.825 22.725 -0.075
9.675 6.975 2.475
18.075 23.625 -0.075
20.325 20.025 0.525
6.975 7.725 5.325
8.625 7.125 1.425
8.625 7.125 0.375
20.475 19.725 -0.675
20.325 20.175 1.425
20.325 20.175 1.125
20.025 20.925 -0.375
8.475 7.125 0.975
8.475 7.125 -0.225
20.175 20.625 2.925
20.475 19.875 0.525
20.325 20.325 2.775
8.325 7.125 1.125
8.925 6.975 0.825
9.675 6.825 -0.375
20.175 20.775 -0.525
20.475 20.025 1.575
20.475 20.025 0.525
20.475 20.025 0.675
4.725 8.925 1.575
7.275 7.425 -4.275
8.625 6.975 0.375
20.625 19.725 1.725
20.475 20.175 1.425
20.475 20.175 0.975
20.475 20.175 0.525
9.225 6.825 2.175
10.125 6.675 -0.525
9.075 6.825 0.825
20.475 20.325 0.525
20.475 20.325 -0.525
20.475 20.325 0.225
20.475 20.325 1.125
8.325 6.975 -0.375
9.825 6.675 0.375
20.625 20.025 -0.075
8.775 6.825 -0.675
19.725 21.975 0.675
20.475 20.475 -0.525
19.125 22.875 -0.225
20.625 20.175 0.675
20.625 20.175 -0.525
20.625 20.175 0.525
11.625 6.525 1.125
8.475 6.825 -1.425
8.475 6.825 0.375
8.475 6.825 0.075
4.575 8.775 1.425
9.075 6.675 0.525
19.725 22.125 -0.675
20.625 20.325 1.125
8.325 6.825 0.375
8.325 6.825 0.825
20.175 21.375 -0.375
8.925 6.675 2.325
8.625 6.675 1.425
20.475 20.925 -0.825
20.775 20.175 -0.225
4.575 8.625 1.425
8.475 6.675 0.375
8.475 6.675 0.225
4.725 8.475 1.425
7.875 6.825 -0.525
7.875 6.825 -0.375
20.775 20.325 0.525
20.775 20.325 0.975
20.175 21.675 -0.075
20.175 21.675 -0.825
20.175 21.675 -0.675
8.325 6.675 -0.825
8.325 6.675 0.375
8.325 6.675 -0.675
8.325 6.675 0.825
20.625 20.775 -0.375
6.975 7.125 2.025
19.875 22.275 0.225
20.775 20.475 -0.375
20.775 20.475 -0.525
20.775 20.475 0.675
4.425 8.625 1.275
4.425 8.625 1.425
7.575 6.825 -0.525
21.075 19.725 0.825
8.025 6.675 -0.375
8.025 6.675 -0.975
4.725 8.325 1.125
7.125 6.975 -1.425
9.225 6.375 0.825
8.475 6.525 0.375
7.875 6.675 -0.525
9.075 6.375 0.375
20.925 20.325 0.675
7.425 6.825 0.675
7.425 6.825 -0.525
7.425 6.825 -0.675
7.425 6.825 -0.225
20.325 21.675 -0.075
10.125 6.225 2.475
8.325 6.525 0.375
6.975 6.975 -0.975
6.975 6.975 -0.075
5.025 8.025 1.425
7.725 6.675 -0.675
20.925 20.475 0.675
20.925 20.475 0.225
4.575 8.325 0.975
13.275 6.375 2.325
21.075 20.175 -0.225
8.025 6.525 1.125
20.025 22.425 0.075
4.275 8.475 1.425
4.275 8.475 0.825
20.625 21.375 -0.525
21.075 20.325 0.525
7.425 6.675 -0.675
20.775 21.075 -0.525
21.375 19.425 2.475
20.925 20.775 -0.225
8.325 6.375 0.375
8.325 6.375 1.575
6.975 6.825 -0.825
9.825 6.075 0.075
7.725 6.525 -1.425
7.725 6.525 0.075
7.275 6.675 0.375
7.275 6.675 -0.675
5.175 7.725 0.975
8.175 6.375 0.375
20.925 20.925 -0.375
5.625 7.425 1.725
5.625 7.425 -0.525
6.825 6.825 -0.075
21.225 20.175 -0.525
8.025 6.375 1.275
8.025 6.375 -0.825
4.875 7.875 1.575
11.625 5.925 0.525
5.025 7.725 -0.375
5.025 7.725 0.975
4.575 8.025 1.425
21.075 20.775 -0.225
12.075 5.925 -0.525
13.125 6.075 0.975
20.175 22.575 0.075
4.725 7.875 1.575
4.725 7.875 1.275
21.225 20.475 0.375
7.275 6.525 -0.225
4.125 8.325 -0.225
8.175 6.225 0.375
8.175 6.225 -0.675
8.775 6.075 -0.675
21.075 20.925 -0.675
21.075 20.925 -0.375
4.275 8.175 0.675
4.875 7.725 -0.375
13.425 6.075 1.125
4.425 8.025 1.575
7.425 6.375 -0.075
5.475 7.275 -0.225
5.475 7.275 1.575
4.725 7.725 1.575
8.325 6.075 -0.825
4.275 8.025 1.425
4.275 8.025 1.275
12.225 5.775 0.825
8.175 6.075 0.375
8.175 6.075 -0.675
21.225 20.925 -0.225
8.775 5.925 -0.525
5.325 7.275 -0.975
5.325 7.275 1.425
7.575 6.225 -0.375
8.025 6.075 0.075
8.025 6.075 0.375
5.025 7.425 1.125
4.575 7.725 1.275
21.075 21.375 0.225
7.425 6.225 -0.525
4.725 7.575 0.075
5.175 7.275 0.225
21.525 20.475 0.225
8.925 5.775 -0.675
7.725 6.075 -0.525
7.275 6.225 -0.675
7.275 6.225 -0.525
13.875 5.925 2.025
8.175 5.925 0.375
3.825 8.175 0.075
21.675 20.175 1.875
21.525 20.625 0.525
8.025 5.925 0.525
8.025 5.925 0.825
8.025 5.925 0.225
5.475 6.975 0.525
5.475 6.975 -1.125
4.125 7.875 0.375
5.175 7.125 0.675
5.175 7.125 -0.825
8.475 5.775 0.225
8.475 5.775 -0.225
14.175 5.925 0.075
11.025 5.475 0.525
21.525 20.775 1.275
10.425 5.475 0.225
3.675 8.175 -0.075
4.875 7.275 -0.225
5.625 6.825 0.525
3.975 7.875 -0.225
5.025 7.125 0.825
21.825 20.175 0.675
7.575 5.925 1.425
7.575 5.925 -0.075
21.675 20.625 1.575
21.675 20.625 0.525
