# .PCD v0.7 - Point Cloud Data file format
VERSION 0.7
FIELDS x y z
SIZE 4 4 4
TYPE F F F
COUNT 1 1 1
WIDTH 2048
HEIGHT 1
VIEWPOINT 0 0 0 1 0 0 0
POINTS 2048
DATA ascii
51.075 6.675 0.675
50.925 6.825 0.675
50.625 7.725 1.125
49.125 6.975 0.525
48.375 5.925 0.225
48.075 5.625 0.675
50.775 8.475 1.275
47.775 5.625 0.675
48.075 6.975 1.275
47.775 6.375 0.675
47.625 6.225 0.675
47.475 5.475 1.125
47.475 5.625 0.975
47.475 5.625 0.675
47.475 5.775 0.825
47.925 3.525 2.625
47.625 6.525 0.675
47.775 3.675 2.775
47.475 6.225 0.825
47.325 5.775 0.825
47.775 3.375 2.625
47.775 7.275 0.075
47.325 6.225 0.525
48.375 8.025 0.825
47.925 7.575 -2.775
47.175 5.175 1.125
47.175 5.625 0.825
47.175 5.025 0.975
47.175 4.875 0.975
47.175 5.775 0.675
48.075 7.875 1.575
48.075 7.875 0.525
48.375 8.175 0.075
48.375 8.175 0.675
47.175 6.225 0.675
47.025 5.325 0.825
47.025 5.475 0.075
47.025 5.175 0.825
47.025 5.175 0.675
47.625 3.225 2.325
47.025 5.025 0.675
48.075 8.025 0.225
47.025 4.875 0.675
47.925 7.875 1.275
47.925 7.875 0.525
47.025 5.925 0.375
47.025 4.725 0.525
47.025 4.725 0.375
47.325 6.975 -0.225
47.325 3.675 0.825
47.625 3.075 1.725
47.025 6.225 0.375
47.325 7.125 0.225
47.325 3.525 2.025
47.925 8.025 -0.075
47.475 3.225 2.025
46.875 5.175 0.975
46.875 5.475 0.675
46.875 5.025 0.375
46.875 5.625 0.675
46.875 5.025 1.125
46.875 4.875 0.525
46.875 4.875 0.675
46.875 5.775 0.825
47.325 7.275 0.375
46.875 4.725 1.125
48.975 8.925 -0.375
47.475 3.075 2.175
47.475 7.575 -0.075
46.875 6.075 0.525
47.025 6.675 0.225
46.875 4.425 0.675
47.175 7.125 0.975
47.325 7.425 -0.825
47.325 7.425 0.825
47.325 3.225 2.325
47.325 3.225 2.175
47.325 3.225 1.725
47.325 3.225 2.775
46.725 5.325 0.975
46.725 5.325 0.525
46.725 5.475 0.825
46.725 5.625 0.525
46.725 5.625 -0.975
46.725 5.775 0.825
46.725 5.775 0.525
46.875 4.125 0.675
46.875 6.525 -3.975
46.875 6.525 -0.675
46.875 6.525 -2.175
47.175 7.275 0.675
47.175 3.375 2.025
47.175 3.375 1.125
47.175 7.275 0.225
47.175 3.375 1.275
47.025 3.675 1.125
46.725 4.725 0.675
46.725 5.925 0.825
46.725 4.725 0.975
47.925 8.325 0.975
47.325 3.075 2.175
47.325 7.575 0.825
47.325 7.575 0.375
47.325 7.575 1.125
47.325 3.075 1.875
46.875 6.675 0.525
47.475 7.875 1.575
47.025 7.125 0.525
47.175 7.425 0.975
47.175 7.425 0.225
47.175 3.225 1.425
47.175 3.225 2.175
47.175 3.225 0.825
47.175 3.225 1.875
47.175 3.225 1.575
47.325 7.725 1.125
47.325 7.725 0.975
46.725 4.275 0.675
46.725 4.275 0.525
46.575 5.475 1.575
46.575 5.475 0.825
46.575 5.025 1.125
46.575 5.625 0.825
47.625 8.175 1.125
47.625 8.175 0.225
47.025 7.275 0.375
47.025 7.275 0.525
46.725 6.525 -2.025
46.725 4.125 0.825
46.575 4.875 0.975
46.875 3.675 0.525
46.875 6.975 0.525
46.875 6.975 0.675
47.175 7.575 0.825
47.175 3.075 1.725
47.175 7.575 2.025
47.175 7.575 0.975
46.575 4.725 1.275
46.575 5.925 0.675
47.325 7.875 0.675
47.325 7.875 0.525
47.325 2.775 1.875
46.725 6.675 0.225
46.575 6.075 0.375
46.575 4.575 1.425
47.025 7.425 0.525
47.025 7.425 1.125
47.025 3.225 1.425
47.025 3.225 1.125
47.175 7.725 0.975
47.175 7.725 0.825
47.175 2.925 2.025
46.725 6.825 0.375
46.725 3.825 0.525
47.625 8.325 0.525
46.575 4.275 0.675
46.425 5.325 0.825
46.425 5.325 0.675
47.025 3.075 1.725
47.025 3.075 0.975
47.025 7.575 0.525
47.025 3.075 2.025
47.025 7.575 0.675
47.025 7.575 -0.525
46.425 5.475 1.275
46.425 5.175 0.375
46.425 5.475 1.425
46.425 5.475 0.525
46.425 5.175 0.975
46.425 5.025 0.975
46.425 5.025 0.375
46.425 5.025 1.125
46.425 5.025 0.675
46.425 5.625 0.675
46.425 5.025 1.575
46.575 4.125 0.675
46.575 4.125 0.525
46.725 3.675 0.525
46.425 4.875 1.275
47.175 7.875 0.675
46.425 4.725 0.675
46.575 6.675 0.525
46.575 6.675 0.375
46.575 3.975 0.525
47.625 8.475 2.175
46.725 7.125 0.525
47.025 7.725 0.375
47.025 7.725 0.675
47.025 7.725 -0.225
47.025 2.925 1.875
47.025 2.925 1.425
47.325 8.175 0.525
46.575 6.825 0.375
46.575 6.825 0.975
46.575 3.825 0.675
46.425 4.275 0.525
46.425 4.275 1.425
47.175 8.025 0.825
47.175 2.625 1.575
47.175 2.625 1.275
46.425 6.375 0.525
46.425 4.275 0.975
46.725 7.275 0.375
46.725 7.275 0.825
46.875 7.575 0.375
46.875 7.575 -0.225
46.875 3.075 1.125
46.575 6.975 0.375
46.575 6.975 0.075
46.575 6.975 0.675
46.575 3.675 0.225
46.275 5.175 1.575
46.275 5.175 0.525
46.425 4.125 0.675
46.425 4.125 0.525
46.425 6.525 0.825
46.275 5.025 0.525
46.275 5.025 0.825
47.025 7.875 0.675
47.025 2.775 1.275
47.775 8.775 0.975
46.725 7.425 0.675
46.425 6.675 0.975
46.875 7.725 0.225
46.875 2.925 1.275
46.875 2.925 2.025
46.275 4.425 0.975
47.025 2.625 2.025
46.425 3.825 0.975
46.425 3.825 0.675
46.725 7.575 0.525
46.725 7.575 0.675
47.775 8.925 1.875
47.775 8.925 1.575
47.775 8.925 2.175
47.775 8.925 -3.825
46.875 7.875 0.525
46.875 7.875 0.225
46.875 7.875 0.675
46.275 4.125 1.125
47.925 9.075 1.575
47.925 9.075 2.325
47.175 8.325 0.525
46.125 5.025 0.525
46.125 5.025 -2.325
46.125 5.625 -0.825
46.125 5.025 -0.525
46.125 4.875 0.675
46.125 4.875 0.375
46.125 4.875 0.975
46.575 3.225 3.825
47.025 8.175 0.825
47.025 8.175 -0.075
47.025 8.175 0.675
46.725 7.725 0.375
46.275 3.975 0.525
46.425 7.125 0.075
46.125 4.575 0.075
48.225 9.375 2.925
46.875 8.025 0.825
46.125 4.425 0.225
46.125 4.425 1.275
46.275 6.825 -2.775
46.125 4.275 1.125
47.025 8.325 1.125
47.025 8.325 0.675
47.025 8.325 0.525
47.925 9.225 1.425
47.925 9.225 2.025
46.125 4.125 0.375
46.125 4.125 0.225
45.975 5.325 -0.375
45.975 5.175 0.525
48.075 9.375 2.175
46.875 8.175 0.825
45.975 5.025 0.525
45.975 5.025 0.225
46.575 7.725 0.375
45.975 4.875 0.375
47.475 8.925 1.275
47.625 9.075 1.875
47.625 9.075 1.725
47.625 9.075 1.575
47.775 9.225 1.275
46.125 3.825 0.675
45.975 6.225 -1.725
45.975 4.425 1.425
46.875 8.325 0.225
46.875 8.325 0.675
47.925 9.375 1.425
47.925 9.375 1.275
47.925 9.375 2.025
47.925 9.375 2.475
47.925 9.375 2.775
45.975 4.275 0.525
46.725 8.175 1.575
46.125 6.975 -1.725
47.475 9.075 0.825
47.475 9.075 1.275
47.475 9.075 0.225
47.475 9.075 1.575
47.475 9.075 -0.225
45.825 5.325 0.825
45.825 5.325 0.975
45.825 5.175 1.425
45.825 5.175 0.525
45.825 5.175 0.225
45.825 5.175 -0.075
45.825 5.025 0.825
45.825 5.025 0.525
45.825 5.625 1.575
45.825 5.025 0.375
45.825 4.875 0.825
45.825 4.875 -0.825
46.575 8.025 -0.825
45.975 3.975 0.975
45.975 3.975 0.675
45.975 3.975 0.825
47.775 9.375 1.425
47.775 9.375 0.975
47.775 9.375 1.125
47.775 9.375 1.575
45.825 4.725 0.225
46.725 8.325 -0.675
45.975 3.825 0.825
45.975 3.825 0.375
45.975 3.825 1.125
48.375 9.825 3.675
47.325 9.075 0.225
47.325 9.075 0.975
47.175 8.925 0.825
46.575 8.175 -2.025
48.075 9.675 3.225
45.825 4.275 0.975
47.475 9.225 1.725
47.475 9.225 0.375
45.975 3.675 0.075
45.975 3.675 0.825
46.875 8.625 3.225
47.625 9.375 2.175
47.625 9.375 0.975
47.625 9.375 1.875
45.825 4.125 0.825
45.825 4.125 0.975
46.125 7.425 -0.675
47.775 9.525 1.275
45.675 5.325 0.825
45.675 5.325 0.525
45.675 5.175 -0.075
45.675 5.475 0.825
45.675 5.175 0.375
45.675 5.625 0.375
45.675 5.625 4.725
45.825 3.975 1.275
45.825 3.975 -0.975
45.825 3.975 0.825
45.825 3.975 1.125
46.575 8.325 -2.625
46.575 2.325 0.075
45.675 4.725 -2.475
47.925 9.675 2.625
47.925 9.675 3.975
47.325 9.225 1.425
47.325 9.225 0.975
47.025 8.925 -2.625
47.475 9.375 1.125
48.075 9.825 4.275
47.625 9.525 1.575
47.625 9.525 0.675
47.625 9.525 0.975
47.625 9.525 2.175
45.675 4.275 0.525
47.775 9.675 1.725
45.675 4.125 0.675
45.675 4.125 0.975
45.525 5.325 0.375
45.525 5.475 0.675
45.525 5.175 -0.225
45.525 5.175 1.275
45.525 5.175 0.675
45.525 5.175 0.375
45.525 5.025 0.675
47.925 9.825 1.125
45.675 6.675 0.375
45.675 3.975 0.675
45.525 4.725 1.575
47.475 9.525 1.575
46.125 7.875 -1.575
46.125 2.775 3.675
45.525 6.075 -0.225
45.525 6.075 0.675
47.625 9.675 0.225
45.675 3.825 0.975
47.775 9.825 1.725
47.775 9.825 4.575
45.525 4.275 0.525
47.175 9.375 0.075
46.725 8.925 -2.625
45.525 4.125 0.525
45.525 4.125 -0.525
45.375 5.325 0.375
45.375 5.325 0.075
45.375 5.175 0.525
45.375 5.175 0.675
45.375 5.475 0.525
45.375 5.625 0.525
45.375 5.025 0.525
45.525 3.975 0.975
45.375 4.875 0.825
45.375 5.775 -0.225
47.625 9.825 0.375
48.075 10.125 0.375
45.375 6.075 0.075
45.375 6.075 0.675
47.775 9.975 0.375
47.775 9.975 4.725
47.775 9.975 1.125
45.375 6.225 0.675
46.875 9.225 -2.775
46.875 9.225 -2.625
45.975 8.025 0.975
48.225 10.275 -0.225
45.525 6.975 6.075
47.925 10.125 1.125
47.475 9.825 -0.225
45.225 5.325 0.525
45.225 5.325 0.375
45.225 5.325 0.675
45.225 5.175 0.525
45.225 5.475 0.225
45.225 5.175 0.225
47.625 9.975 4.575
47.625 9.975 1.275
45.375 3.975 0.825
48.675 10.575 -0.075
45.675 3.075 3.825
45.225 5.775 0.675
47.775 10.125 2.625
45.225 6.075 -0.675
45.375 6.825 0.675
45.375 3.825 0.375
47.325 9.825 -0.225
45.225 6.225 0.225
45.225 6.225 0.525
45.375 6.975 0.525
46.275 8.775 -2.325
45.225 4.125 0.825
47.625 10.125 4.725
45.675 7.875 4.875
45.675 7.875 -0.225
45.825 8.175 -0.375
45.525 7.575 0.825
45.075 5.175 0.225
45.075 5.475 -0.225
45.075 5.175 -0.075
45.075 5.625 -0.525
45.075 5.025 -3.675
45.225 6.675 0.825
45.075 5.775 0.525
45.975 8.475 0.975
47.775 10.275 2.925
45.075 5.925 0.525
45.225 3.825 0.675
45.225 3.825 0.075
45.675 8.025 0.525
45.675 2.625 3.075
45.525 7.725 0.525
45.525 7.725 5.175
45.525 7.725 0.675
46.125 8.775 0.075
45.825 8.325 0.675
45.075 6.225 -0.525
45.225 6.975 4.725
45.075 6.375 0.675
47.625 10.275 2.175
47.025 9.825 0.225
48.375 10.725 1.725
47.175 9.975 6.075
47.175 9.975 -2.475
45.675 8.175 4.875
45.675 8.175 0.525
45.225 7.125 0.525
45.225 7.125 4.575
45.825 8.475 0.525
46.125 8.925 0.375
44.925 5.025 0.675
44.925 5.775 6.225
45.225 7.275 0.675
44.925 4.725 -0.675
44.925 5.925 -0.375
45.975 8.775 5.025
45.975 1.875 0.825
45.075 6.825 -0.975
45.375 7.725 0.525
45.375 7.725 5.325
45.675 8.325 0.975
45.675 8.325 1.575
44.925 6.075 0.525
44.925 6.075 0.675
44.925 6.225 0.375
46.275 9.225 1.575
46.275 9.225 6.525
45.825 8.625 5.775
45.825 8.625 0.675
45.225 7.425 0.375
45.375 7.875 0.525
44.925 6.525 0.675
45.075 7.125 -0.975
45.075 7.125 1.575
45.075 7.125 -3.675
45.675 8.475 0.525
44.775 5.325 0.525
44.925 6.675 0.675
46.575 9.675 2.625
44.775 5.175 0.675
44.775 5.175 0.225
45.825 8.775 0.525
44.775 5.025 0.525
45.075 7.275 0.675
45.075 7.275 0.075
45.075 7.275 1.725
44.775 4.875 -0.225
48.225 10.875 2.175
44.775 5.925 -0.525
44.775 5.925 -0.675
44.775 4.725 -0.075
46.125 9.225 -4.875
47.025 10.125 0.675
47.025 10.125 0.975
47.025 10.125 1.425
48.525 11.025 2.175
44.925 3.825 0.225
44.775 4.575 -0.375
44.775 4.575 4.725
44.775 6.075 -0.225
47.625 10.575 0.825
45.675 8.625 -0.375
47.175 10.275 1.575
47.175 10.275 0.675
47.175 10.275 0.825
44.775 6.225 1.725
44.775 6.225 0.675
44.775 6.225 0.225
44.925 6.975 -0.675
44.925 6.975 -1.425
45.375 8.175 -0.375
44.775 6.375 0.675
45.225 7.875 0.675
45.525 8.475 0.525
46.575 9.825 2.025
44.925 7.125 1.425
44.925 7.125 -1.725
44.775 4.125 0.525
44.775 6.525 6.675
44.775 6.525 1.425
44.775 6.525 1.725
45.075 7.575 -0.225
46.875 10.125 1.125
46.875 10.125 1.275
45.675 8.775 0.675
44.775 6.675 0.675
44.775 6.675 1.725
44.775 6.675 -0.975
44.625 5.325 0.675
45.975 9.225 0.975
44.625 5.475 0.675
47.025 10.275 0.825
47.025 10.275 1.425
45.225 8.025 0.675
45.375 8.325 1.425
45.375 8.325 1.575
45.375 2.325 1.575
44.925 7.275 4.275
44.925 7.275 1.275
44.625 4.875 -0.225
45.075 7.725 -2.925
48.525 11.175 2.175
44.625 5.925 6.225
45.525 8.625 0.525
45.525 8.625 1.575
45.825 9.075 0.525
44.775 6.825 0.675
47.175 10.425 0.675
44.625 4.575 0.525
44.625 6.075 1.425
44.625 6.075 -0.225
44.925 7.425 -1.275
44.925 7.425 0.675
44.925 7.425 -0.075
44.925 7.425 -0.225
44.625 4.425 0.675
45.675 8.925 0.675
44.775 6.975 2.175
44.775 6.975 0.675
44.775 6.975 -0.525
45.225 2.475 0.375
45.225 8.175 -0.075
45.225 8.175 -0.675
45.225 8.175 -0.225
45.225 8.175 0.825
46.725 10.125 0.675
46.725 10.125 1.125
46.725 10.125 0.375
46.125 9.525 -0.825
45.375 8.475 -1.725
45.375 8.475 0.675
45.375 8.475 4.875
45.375 2.175 1.125
44.625 4.275 0.675
46.875 10.275 0.525
46.875 10.275 0.825
46.875 10.275 1.275
46.875 10.275 0.225
47.475 10.725 0.525
47.475 10.725 0.375
45.525 1.875 0.675
45.525 8.775 -0.225
48.675 11.325 2.025
44.925 7.575 -0.075
44.925 7.575 0.675
44.925 7.575 -0.975
44.625 4.125 -0.375
44.625 4.125 -2.475
44.625 6.525 -1.125
44.625 6.525 -0.225
44.625 6.525 0.675
44.625 6.525 -1.275
45.825 9.225 -2.175
47.025 10.425 2.775
47.025 10.425 2.325
47.025 10.425 3.225
47.025 10.425 0.975
45.225 8.325 -1.875
45.225 8.325 -0.375
45.075 8.025 -2.925
45.075 8.025 -0.375
44.625 6.675 0.675
44.625 6.675 1.275
44.475 5.475 1.725
44.475 5.475 -2.925
44.475 5.475 -1.575
44.775 7.275 -1.275
45.675 9.075 -0.075
44.475 5.625 0.675
44.475 5.625 -0.975
45.375 8.625 0.675
47.625 10.875 0.525
44.925 7.725 -1.125
44.925 7.725 0.675
44.475 4.875 -0.825
44.475 4.875 -0.975
44.475 4.875 0.675
44.475 5.775 -1.575
44.475 5.775 -1.125
44.475 5.775 0.675
44.475 5.775 -1.275
44.475 5.775 -0.375
44.625 6.825 1.125
44.475 4.725 0.975
44.475 5.925 -0.075
44.475 5.925 0.675
46.575 10.125 -2.475
46.575 10.125 0.525
45.525 8.925 5.325
45.975 9.525 0.075
44.475 4.575 0.525
44.775 7.425 -2.325
44.775 7.425 -1.125
44.775 7.425 1.125
45.075 8.175 0.675
45.075 2.475 -0.525
45.825 9.375 5.775
45.825 9.375 0.525
44.475 6.225 -0.675
45.225 8.475 1.125
44.625 6.975 -0.525
44.625 6.975 0.675
46.875 10.425 0.525
46.875 10.425 0.225
46.875 10.425 0.975
46.875 10.425 3.225
44.925 7.875 -0.375
44.925 7.875 -0.075
44.925 7.875 -1.125
44.475 6.375 1.125
44.475 6.375 0.975
44.475 4.275 0.675
45.375 8.775 1.575
47.475 10.875 1.425
47.475 10.875 0.975
47.025 10.575 0.825
44.775 7.575 0.375
44.775 7.575 -0.375
44.775 7.575 0.675
44.775 7.575 -0.225
44.775 7.575 1.125
44.625 7.125 -0.525
44.625 7.125 -0.375
44.475 4.125 -1.425
45.075 8.325 0.675
45.075 8.325 -0.225
45.075 8.325 0.975
45.075 2.325 0.075
45.525 9.075 0.525
45.525 9.075 2.625
45.525 9.075 0.675
47.175 10.725 0.975
47.175 10.725 0.825
44.925 8.025 -0.225
44.925 8.025 1.275
45.225 8.625 -0.225
45.225 8.625 3.825
45.225 8.625 0.675
47.625 11.025 0.525
47.625 11.025 0.075
44.475 6.675 0.375
44.475 6.675 0.675
44.475 6.675 -0.525
44.625 7.275 -1.575
44.625 7.275 -0.075
44.325 5.325 1.425
44.325 5.475 -0.225
44.325 5.475 0.675
44.325 5.475 1.275
44.325 5.175 0.675
44.775 7.725 -1.725
44.775 7.725 0.675
44.775 2.925 0.975
44.325 5.625 1.125
44.325 5.625 -0.375
44.325 5.025 0.675
46.725 10.425 0.375
46.725 10.425 0.525
44.325 5.775 1.125
44.325 5.775 0.675
44.325 4.875 -1.425
44.325 4.875 -1.275
44.325 4.875 -0.225
47.325 10.875 1.125
45.375 1.725 1.425
44.325 5.925 0.375
44.325 5.925 0.675
44.325 4.725 -1.425
44.325 4.725 -0.375
44.325 4.725 -0.225
46.875 10.575 0.825
46.875 10.575 0.975
44.625 7.425 -1.725
44.325 4.575 -0.225
44.325 4.575 -0.375
48.075 11.325 -0.975
44.925 8.175 -0.675
44.925 8.175 1.125
44.925 8.175 -0.525
44.925 8.175 0.675
45.075 8.475 0.675
45.075 8.475 -0.375
45.075 8.475 -0.225
45.075 2.175 1.725
47.775 11.175 0.825
44.775 7.875 0.075
44.775 7.875 -0.375
44.775 2.775 -0.525
44.325 4.425 -0.375
44.325 4.425 -0.075
47.025 10.725 1.125
45.525 9.225 0.075
47.025 10.725 0.375
47.025 10.725 0.675
45.525 1.425 -4.125
45.225 8.775 0.675
45.975 9.825 0.525
45.375 9.075 -1.875
45.375 9.075 1.575
45.375 9.075 0.675
47.175 10.875 0.825
47.175 10.875 0.075
47.175 10.875 0.975
45.825 9.675 0.375
44.925 8.325 -1.275
47.925 11.325 0.225
44.925 8.325 0.675
44.925 8.325 1.125
47.625 11.175 0.825
44.775 8.025 1.275
44.775 8.025 1.125
44.775 8.025 -0.075
44.775 8.025 0.225
44.775 2.625 -0.525
47.625 11.175 0.975
45.675 9.525 -0.075
45.225 8.925 1.125
45.225 8.925 0.675
45.225 8.925 -2.625
46.875 10.725 0.375
46.875 10.725 0.675
44.175 5.325 0.375
44.175 5.325 0.675
44.175 5.175 0.975
44.175 5.175 1.125
44.175 5.475 0.675
44.175 5.025 -1.725
44.175 5.625 -0.225
44.175 4.875 1.425
44.325 3.825 0.525
44.325 3.825 0.675
44.175 4.725 1.425
44.925 8.475 -0.375
44.175 4.725 -0.225
44.925 8.475 -0.225
44.925 8.475 0.675
44.775 8.175 -1.275
44.775 2.475 -0.525
45.375 9.225 -1.575
45.375 9.225 -0.075
45.375 9.225 -2.625
45.375 9.225 0.675
47.025 10.875 0.225
47.025 10.875 3.975
47.025 10.875 0.375
45.075 8.775 0.675
45.075 8.775 1.275
45.075 8.775 1.125
47.475 11.175 0.525
47.475 11.175 1.275
47.475 11.175 0.975
44.175 4.575 0.675
44.625 7.875 -1.125
44.625 7.875 -1.575
44.625 7.875 0.825
44.625 7.875 -1.875
45.825 9.825 -0.675
45.825 9.825 -0.075
44.325 3.675 0.525
44.175 4.425 -1.275
47.175 11.025 0.975
44.175 4.275 0.525
46.725 10.725 0.225
45.525 9.525 1.725
45.525 9.525 0.675
44.775 8.325 -0.525
44.775 2.325 0.525
44.925 8.625 -0.975
44.925 8.625 -0.525
44.625 2.625 -0.375
44.175 4.125 0.525
44.175 4.125 0.675
44.175 4.125 0.225
45.075 8.925 0.375
45.075 8.925 0.525
45.075 8.925 0.675
46.875 10.875 0.825
46.875 10.875 0.675
44.475 7.725 -1.725
44.475 7.725 0.525
44.475 7.725 0.675
48.525 11.775 2.775
48.525 11.775 2.325
44.175 3.975 0.375
44.175 3.975 -1.275
44.025 5.325 0.075
45.825 9.975 0.675
44.025 5.475 -0.825
44.025 5.475 0.675
45.225 9.225 5.475
45.225 9.225 1.125
44.025 5.025 1.125
44.025 5.025 2.025
47.025 11.025 0.675
47.025 11.025 0.525
44.775 8.475 0.375
44.775 8.475 -0.825
47.775 11.475 0.375
44.625 8.175 1.425
44.625 8.175 0.975
44.625 2.475 5.775
48.075 11.625 -0.075
44.025 4.875 -0.525
44.025 4.875 1.275
44.025 4.875 -0.375
44.925 8.775 -0.525
45.525 9.675 0.675
45.525 9.675 -0.075
44.475 7.875 -2.025
44.475 7.875 0.975
44.475 7.875 0.525
44.025 4.575 -0.375
44.025 4.575 0.525
44.025 4.575 0.225
45.075 9.075 -0.225
45.075 9.075 0.825
45.075 9.075 -0.525
47.175 11.175 0.825
47.175 11.175 0.525
44.025 4.425 0.525
44.025 4.425 -0.375
44.025 4.425 -1.425
45.375 9.525 -0.375
44.625 8.325 -0.675
44.625 2.325 0.525
47.925 11.625 0.075
47.925 11.625 0.375
47.625 11.475 1.125
44.025 4.275 -1.575
44.025 4.275 1.575
44.025 4.275 1.725
44.025 4.275 -0.375
44.775 2.025 0.375
44.475 8.025 -0.525
45.225 9.375 0.675
46.875 11.025 0.975
46.875 11.025 0.225
46.875 11.025 3.525
47.325 11.325 2.025
44.925 8.925 -0.375
44.925 8.925 -0.225
46.125 10.425 0.075
45.675 9.975 0.375
44.325 7.725 0.375
48.525 11.925 -0.075
44.175 3.375 0.525
47.025 11.175 0.975
47.025 11.175 0.225
47.025 11.175 0.675
47.025 11.175 0.525
47.025 11.175 0.825
44.625 8.475 1.425
44.625 8.475 -0.375
47.775 11.625 -0.225
47.775 11.625 0.225
44.475 8.175 -0.525
44.475 8.175 0.525
44.475 8.175 -0.225
48.075 11.775 0.525
48.075 11.775 0.675
45.375 9.675 -0.375
45.375 9.675 1.725
45.375 9.675 -0.225
45.375 9.675 0.675
44.775 8.775 -0.225
44.325 7.875 -0.075
44.325 7.875 0.825
44.325 7.875 0.675
44.925 9.075 -1.275
48.375 11.925 -1.425
47.175 11.325 0.525
45.225 9.525 -0.825
45.225 9.525 0.825
46.725 11.025 2.475
44.025 3.675 -0.525
44.025 3.675 0.525
45.825 10.275 -0.825
45.825 10.275 0.525
43.875 4.425 -1.875
43.875 4.425 0.975
43.875 4.425 -0.525
43.875 4.425 1.125
44.625 8.625 0.525
44.625 8.625 -0.675
47.625 11.625 1.125
47.625 11.625 0.525
47.925 11.775 0.075
47.925 11.775 1.125
47.925 11.775 0.375
45.075 9.375 1.125
46.875 11.175 0.225
46.875 11.175 0.675
46.875 11.175 0.975
44.775 8.925 -0.975
44.775 8.925 -2.325
44.775 8.925 -2.475
44.775 8.925 -1.125
43.875 4.275 0.225
43.875 4.275 0.675
43.875 4.275 1.125
44.325 8.025 0.975
44.325 8.025 -0.075
44.025 3.525 -0.225
44.025 3.525 0.375
48.225 11.925 0.975
48.225 11.925 1.125
45.375 9.825 0.675
45.375 9.825 4.425
43.875 4.125 -0.525
43.875 4.125 0.525
47.025 11.325 0.675
47.025 11.325 0.825
44.925 9.225 0.975
44.175 7.725 0.375
44.175 7.725 0.525
44.175 7.725 0.075
46.575 11.025 0.075
45.225 9.675 1.125
44.025 3.375 -0.375
44.025 3.375 -0.975
44.025 3.375 0.525
44.025 3.375 -0.675
44.025 7.275 0.375
44.475 2.175 0.525
43.875 3.975 -0.375
43.875 3.975 0.525
47.775 11.775 0.075
47.775 11.775 0.525
44.325 2.475 -0.375
45.075 9.525 0.675
45.075 9.525 3.975
45.075 9.525 -1.425
43.725 5.175 -0.375
46.725 11.175 0.525
44.775 9.075 1.275
47.175 11.475 0.525
43.875 3.825 0.525
43.875 3.825 1.575
43.875 3.825 1.725
43.875 3.825 -0.525
45.825 10.425 0.525
45.825 10.425 5.325
44.025 3.225 0.375
44.175 7.875 0.525
45.675 10.275 0.675
44.175 7.875 -0.525
44.175 7.875 0.075
44.175 7.875 1.125
44.175 7.875 0.225
46.125 10.725 0.825
45.525 10.125 -0.225
45.525 10.125 0.675
43.725 6.075 0.675
46.875 11.325 0.225
44.475 8.625 -2.025
44.325 2.325 -0.225
44.325 2.325 2.175
47.925 11.925 0.375
43.725 6.225 -0.375
47.325 11.625 1.125
47.325 11.625 2.325
47.325 11.625 0.975
44.625 8.925 -0.225
44.025 7.575 0.225
44.025 7.575 0.525
45.225 9.825 1.125
48.225 12.075 0.825
44.175 8.025 0.075
44.175 8.025 0.825
43.725 6.375 -0.375
43.725 6.375 0.975
43.725 4.275 0.525
47.025 11.475 0.375
44.775 9.225 1.425
45.075 9.675 -3.525
45.075 9.675 -1.125
45.075 9.675 -0.975
43.725 4.125 0.975
44.025 7.725 0.675
44.025 7.725 0.375
44.025 2.925 0.225
44.325 8.475 -0.675
47.775 11.925 1.125
47.775 11.925 -0.075
47.475 11.775 0.525
47.475 11.775 -2.625
45.675 10.425 0.675
45.675 10.425 6.675
44.925 1.125 5.475
44.925 9.525 -0.675
43.725 3.975 1.125
45.975 10.725 5.325
45.525 10.275 1.575
48.075 12.075 0.825
47.175 11.625 3.375
47.175 11.625 0.675
47.175 11.625 0.825
47.175 11.625 1.575
45.375 10.125 -0.225
45.375 10.125 1.125
45.225 9.975 0.075
45.225 9.975 0.675
43.575 5.775 -0.675
46.875 11.475 0.225
44.325 2.025 2.925
47.625 11.925 0.225
43.725 3.675 -0.375
43.725 3.675 1.275
43.725 3.675 -0.225
47.325 11.775 0.525
47.325 11.775 2.175
47.325 11.775 1.125
47.325 11.775 0.975
47.325 11.775 3.825
47.925 12.075 0.975
47.925 12.075 0.075
47.925 12.075 1.575
47.925 12.075 0.825
44.175 2.325 -0.075
43.875 7.575 -0.675
43.875 7.575 -0.225
43.875 7.575 0.075
44.025 8.025 -0.825
47.025 11.625 2.775
46.575 11.325 0.375
46.575 11.325 1.275
44.925 9.675 0.075
44.925 9.675 -0.075
44.925 9.675 -0.525
43.725 7.125 0.375
43.725 3.525 -0.225
43.725 3.525 -0.375
43.575 6.375 0.825
45.675 10.575 0.675
45.525 10.425 0.675
45.525 10.425 -0.675
45.525 10.425 -2.775
45.975 10.875 0.675
45.375 10.275 -0.675
45.375 10.275 -0.225
45.375 10.275 0.675
43.575 4.125 0.375
43.875 7.725 0.825
43.875 7.725 1.125
43.875 7.725 0.525
47.475 11.925 0.825
47.475 11.925 0.375
44.775 9.525 -1.575
48.525 12.375 1.575
48.525 12.375 -0.675
47.775 12.075 0.525
47.775 12.075 0.675
43.725 7.275 0.375
44.475 9.075 1.275
47.175 11.775 0.975
47.175 11.775 0.825
47.175 11.775 1.425
48.075 12.225 0.825
48.075 12.225 1.575
44.025 8.175 0.975
44.025 8.175 0.675
44.025 8.175 0.825
45.075 9.975 0.375
45.075 9.975 0.675
45.075 9.975 -1.425
45.075 9.975 -0.375
46.875 11.625 4.275
43.875 7.875 0.825
43.875 7.875 0.225
43.875 7.875 0.375
43.875 7.875 -0.075
43.875 7.875 0.075
43.875 7.875 0.525
48.375 12.375 1.575
43.725 7.425 0.375
43.725 3.225 0.225
43.575 6.825 1.425
50.775 12.825 2.025
43.425 5.175 -0.525
43.425 5.025 -0.675
47.625 12.075 -0.975
43.425 4.875 -0.375
47.325 11.925 0.825
47.925 12.225 3.675
45.525 10.575 0.675
45.675 10.725 0.525
45.675 10.725 -0.375
43.575 6.975 0.975
46.575 11.475 4.425
45.375 10.425 0.675
45.375 10.425 0.075
45.375 10.425 -0.075
45.375 10.425 1.575
47.025 11.775 1.125
43.425 6.075 0.825
43.725 3.075 0.225
43.725 7.575 0.975
43.725 7.575 0.375
48.675 12.525 0.975
45.225 10.275 1.125
45.225 10.275 2.625
43.875 8.025 0.525
43.875 2.625 -2.325
45.975 11.025 6.825
48.225 12.375 0.975
48.225 12.375 0.675
43.425 6.225 -0.075
43.425 6.225 2.025
43.425 6.225 0.525
43.425 4.425 2.025
43.425 4.425 0.675
43.575 3.525 -0.225
43.575 3.525 -0.375
44.175 8.775 -2.025
47.775 12.225 0.525
47.775 12.225 -1.725
43.725 7.725 0.975
43.725 7.725 0.675
43.725 7.725 -0.525
43.725 7.725 0.825
43.725 7.725 0.525
48.525 12.525 -0.975
46.275 -0.675 -0.525
44.925 9.975 -0.675
47.175 11.925 0.225
43.575 7.275 0.075
43.875 8.175 0.675
48.075 12.375 0.975
48.075 12.375 0.075
46.875 11.775 -2.775
44.775 9.825 -0.675
44.775 9.825 0.225
43.425 6.675 0.825
43.425 6.675 0.975
43.425 3.975 -0.375
45.525 10.725 0.675
43.725 7.875 1.575
43.725 7.875 -3.075
43.725 2.775 -0.525
45.375 10.575 0.675
45.375 10.575 2.775
43.575 7.425 0.825
45.825 11.025 0.525
45.225 10.425 1.125
45.225 10.425 0.675
47.625 12.225 0.525
47.625 12.225 0.675
43.425 6.825 1.125
43.425 3.825 -0.525
47.325 12.075 1.275
47.325 12.075 1.125
43.275 5.325 0.225
43.275 5.475 0.225
44.625 9.675 0.225
43.275 5.625 0.375
43.875 2.325 -0.075
47.925 12.375 -0.075
45.975 11.175 0.825
43.275 5.925 0.675
43.575 3.075 -1.425
43.575 3.075 -1.275
43.575 7.575 0.675
43.575 7.575 0.525
43.575 7.575 0.825
43.275 6.075 0.075
43.275 6.075 1.275
43.725 8.025 0.975
43.725 8.025 0.825
43.725 8.025 0.375
43.725 8.025 0.225
48.225 12.525 -1.125
48.225 12.525 1.425
44.475 9.525 5.025
46.725 11.775 4.725
43.275 6.225 0.075
43.275 4.425 -0.675
44.775 9.975 0.825
44.775 9.975 -1.575
46.275 11.475 4.875
43.425 3.525 -0.375
43.425 3.525 -0.225
47.475 12.225 0.525
47.475 12.225 0.825
43.875 2.175 0.075
43.275 6.375 0.975
43.275 6.375 0.375
43.275 6.375 -0.075
43.275 6.375 0.825
47.175 12.075 1.125
47.175 12.075 0.525
47.175 12.075 1.275
47.175 12.075 -0.075
47.775 12.375 0.225
47.775 12.375 1.575
47.775 12.375 0.825
47.775 12.375 -0.525
47.775 12.375 1.125
47.775 12.375 0.375
47.775 12.375 -0.225
43.575 7.725 0.825
43.575 7.725 1.575
43.575 7.725 0.525
43.575 7.725 1.125
43.575 2.925 -0.375
44.625 9.825 -4.125
44.325 9.375 -0.525
43.725 8.175 0.525
43.725 2.475 -0.225
45.375 10.725 1.725
45.375 10.725 -0.825
45.375 10.725 0.675
45.375 10.725 -0.525
45.375 10.725 -0.075
48.075 12.525 1.425
45.525 10.875 0.675
45.225 10.575 -0.975
45.225 10.575 0.675
45.225 10.575 0.375
43.425 3.375 -1.575
43.425 3.375 0.675
43.425 3.375 -0.225
43.425 3.375 -0.375
43.425 7.275 -0.075
45.825 11.175 0.675
43.275 6.675 0.675
44.925 10.275 5.025
44.925 10.275 -0.975
44.925 10.275 -0.825
43.575 7.875 2.775
44.475 9.675 -0.225
48.375 12.675 0.825
47.325 12.225 0.675
47.325 12.225 0.825
43.875 2.025 4.425
47.625 12.375 0.975
47.625 12.375 0.675
43.425 3.225 0.525
43.425 3.225 1.575
43.425 3.225 -0.375
43.425 7.425 -0.675
47.025 12.075 0.825
43.275 6.825 0.525
43.725 8.325 5.325
47.925 12.525 -0.225
43.125 5.025 0.675
43.125 5.775 -0.225
44.325 1.125 -3.375
43.125 5.925 0.375
43.275 6.975 0.675
43.275 3.675 0.525
43.275 3.675 0.225
43.575 8.025 0.375
43.575 2.625 -1.575
43.575 2.625 -0.225
43.425 7.575 0.375
43.425 7.575 0.525
43.425 7.575 0.975
43.425 7.575 0.675
43.425 3.075 0.525
43.125 6.075 0.375
43.125 6.075 0.975
43.875 1.875 2.175
43.875 1.875 -0.075
45.375 10.875 -0.375
45.375 10.875 0.675
47.475 12.375 0.975
47.475 12.375 2.025
47.475 12.375 1.275
47.475 12.375 0.675
47.475 12.375 -0.825
45.225 10.725 1.275
43.125 6.225 1.125
43.125 6.225 0.975
43.125 4.425 -3.375
45.525 11.025 2.925
45.525 11.025 -0.525
44.025 1.575 2.025
47.175 12.225 0.675
47.175 12.225 1.125
43.275 7.125 0.375
43.275 7.125 0.825
43.275 3.525 0.525
47.775 12.525 0.525
47.775 12.525 0.825
47.775 12.525 -1.125
47.775 12.525 0.975
45.075 10.575 -1.125
44.475 9.825 -0.675
43.125 6.375 0.525
43.125 4.275 -0.375
45.825 11.325 -0.525
45.825 11.325 -0.375
43.425 7.725 0.675
43.425 7.725 0.375
43.425 7.725 0.975
43.425 7.725 -0.075
44.925 0.225 -0.825
44.925 10.425 -0.825
44.925 10.425 -0.375
43.425 2.925 0.675
43.425 2.925 0.525
43.575 2.475 0.525
43.125 6.525 0.975
43.275 3.375 0.225
43.275 3.375 0.525
43.275 3.375 -0.525
43.125 6.675 0.975
47.325 12.375 0.525
47.325 12.375 -0.225
47.325 12.375 1.125
47.325 12.375 0.675
43.875 1.725 0.675
43.875 8.925 -3.675
43.725 2.025 0.375
46.125 11.625 0.825
47.625 12.525 0.825
43.425 7.875 -0.225
47.025 12.225 0.975
43.275 7.425 0.525
43.275 7.425 0.675
43.275 3.225 -0.525
43.275 3.225 0.975
43.275 3.225 1.125
43.575 2.325 0.525
43.125 6.825 0.075
43.125 3.825 -0.675
42.975 5.325 0.825
42.975 5.025 0.375
42.975 5.625 0.075
45.225 10.875 1.125
45.225 10.875 1.425
45.375 11.025 0.675
45.375 11.025 -0.375
45.075 10.725 0.075
45.525 11.175 -0.225
45.525 11.175 0.525
45.525 11.175 -0.375
42.975 5.775 0.375
43.425 2.625 -0.825
43.425 2.625 0.525
43.425 8.025 -0.075
43.125 6.975 0.975
43.125 3.675 -0.525
44.925 10.575 -0.825
45.675 11.325 0.675
44.925 0.075 -0.975
43.275 7.575 0.675
43.275 7.575 0.375
43.275 7.575 0.225
47.475 12.525 1.575
42.975 6.075 0.525
42.975 6.075 -0.975
42.975 4.575 0.525
43.875 1.575 3.975
47.175 12.375 0.825
47.175 12.375 0.975
44.775 10.425 -1.275
47.775 12.675 1.875
47.775 12.675 0.375
42.975 6.225 0.375
42.975 4.425 1.275
42.975 4.425 0.225
42.975 4.425 0.525
46.875 12.225 0.825
43.125 3.525 0.375
44.625 10.275 -0.375
48.525 12.975 -1.575
43.275 2.925 1.575
42.975 6.375 1.125
43.425 2.475 -1.125
43.425 2.475 -0.975
43.425 2.475 0.825
43.425 8.175 0.375
43.425 8.175 0.825
44.175 9.675 -4.125
44.475 0.525 -4.575
43.125 7.275 0.825
43.125 7.275 0.225
43.725 8.925 -4.125
47.325 12.525 1.125
47.325 12.525 0.825
47.325 12.525 0.675
47.325 12.525 1.275
43.575 2.025 0.075
43.575 2.025 -2.475
47.025 12.375 0.525
47.025 12.375 1.125
45.225 11.025 0.675
45.225 11.025 0.375
45.075 10.875 -0.375
42.975 6.675 0.525
42.975 6.675 1.275
45.375 11.175 1.725
45.375 11.175 1.425
45.375 11.175 0.825
45.375 11.175 0.675
43.275 7.875 1.125
45.525 11.325 -0.225
45.525 11.325 1.725
44.925 10.725 -0.225
44.325 9.975 -4.275
44.325 9.975 5.325
43.125 7.425 0.075
43.125 7.425 0.675
46.725 12.225 0.375
47.925 12.825 -0.525
47.925 12.825 4.725
42.975 3.825 0.825
42.975 3.825 1.125
42.825 5.475 -3.075
42.825 5.175 0.225
42.825 5.625 0.375
42.825 5.025 0.375
42.825 5.025 0.225
45.825 11.625 0.525
42.825 4.875 0.225
43.125 7.575 1.275
43.125 3.075 3.375
47.175 12.525 0.525
47.175 12.525 0.825
47.175 12.525 0.975
43.575 1.875 -0.075
42.975 3.675 0.525
45.975 -1.125 -0.075
43.875 9.375 -4.125
42.825 6.075 0.675
42.825 6.075 3.075
42.825 6.075 0.975
42.825 4.425 0.375
42.975 7.125 0.375
42.975 7.125 -0.225
42.975 7.125 1.275
42.975 7.125 1.575
46.575 12.225 4.875
43.125 7.725 0.525
43.125 7.725 0.825
43.125 7.725 1.125
43.125 2.925 1.275
43.125 2.925 -0.525
43.125 2.925 0.675
43.125 2.925 1.125
48.075 12.975 1.425
43.275 2.475 -0.525
43.275 2.475 -0.675
43.275 8.175 -0.075
42.825 6.375 0.825
42.825 4.275 0.525
42.825 4.275 1.125
45.075 11.025 -0.225
45.075 11.025 -0.975
45.225 11.175 1.275
45.225 11.175 0.675
45.225 11.175 -0.075
45.225 11.175 1.125
45.225 11.175 -0.525
45.375 11.325 0.675
45.375 11.325 -2.625
45.375 11.325 1.425
45.375 11.325 -0.825
45.375 11.325 0.075
45.375 11.325 -0.375
45.375 11.325 1.125
44.925 10.875 -0.375
43.575 8.925 -3.525
47.325 12.675 0.525
45.525 11.475 -0.225
45.525 11.475 -0.525
45.525 11.475 0.675
44.775 10.725 -1.275
42.975 7.275 0.675
42.975 7.275 0.375
42.975 7.275 0.225
48.975 13.275 4.875
42.825 6.525 0.825
42.825 6.525 0.375
43.425 2.025 0.375
43.425 2.025 -0.375
44.175 0.675 4.725
44.625 10.575 -2.025
44.625 10.575 -0.825
44.625 10.575 -0.675
45.675 11.625 0.675
42.825 6.675 0.675
42.825 3.975 -0.075
49.575 13.425 1.275
43.275 2.325 -0.525
43.275 2.325 0.675
42.975 7.425 0.525
48.825 13.275 -2.775
42.825 6.825 0.225
42.825 3.825 -0.075
44.025 0.825 4.725
45.975 11.925 0.675
42.675 5.475 0.375
47.175 12.675 0.525
47.475 12.825 0.525
47.475 12.825 -1.725
43.425 1.875 -0.225
43.425 1.875 -0.525
42.975 7.575 0.825
42.975 7.575 0.525
42.975 3.075 0.525
42.975 3.075 0.225
42.675 5.775 1.125
42.675 4.875 0.825
42.675 4.875 0.525
42.825 3.675 0.675
42.825 3.675 1.275
42.675 4.725 -0.075
45.075 11.175 -0.525
45.225 11.325 -0.225
45.225 11.325 0.375
45.225 11.325 -0.525
45.225 11.325 0.675
44.925 11.025 -0.375
42.675 4.575 1.275
42.675 4.575 0.225
42.675 6.075 -3.075
42.675 6.075 0.675
45.525 11.625 1.575
42.675 6.225 1.125
42.975 7.725 0.375
42.975 7.725 0.675
42.975 7.725 0.825
42.975 7.725 1.125
42.975 2.925 -0.525
42.975 2.925 0.525
43.125 2.475 -0.825
43.125 2.475 -2.175
43.125 2.475 -1.125
45.675 11.775 0.375
42.675 4.275 -0.075
42.675 4.275 0.075
42.675 6.375 0.375
47.325 12.825 0.075
43.425 8.925 -1.875
43.425 1.725 0.375
43.575 1.425 0.375
46.275 12.225 2.775
47.025 12.675 0.675
42.825 7.275 0.825
43.275 2.025 0.525
48.975 13.425 -1.875
42.675 4.125 0.525
42.675 4.125 0.075
42.675 6.525 0.825
45.825 11.925 -0.675
45.825 11.925 1.725
42.975 2.775 0.525
42.975 2.775 -0.975
42.975 2.775 -0.675
47.925 13.125 0.675
47.925 13.125 1.275
42.825 7.425 0.825
42.825 7.425 0.525
42.825 7.425 0.675
45.075 11.325 -0.075
45.075 11.325 -2.475
44.925 11.175 -1.575
45.225 11.475 -0.225
43.425 1.575 0.075
47.475 12.975 0.825
43.275 1.875 0.375
42.975 2.625 -0.525
42.975 2.625 -1.425
42.975 2.625 0.525
42.975 2.625 -0.975
42.975 8.025 0.825
42.975 8.025 1.875
45.375 11.625 1.125
45.375 11.625 -0.225
45.375 11.625 2.175
45.375 11.625 0.675
45.375 11.625 -0.675
48.225 13.275 -2.325
50.625 13.725 -0.825
42.525 5.625 0.525
44.025 10.125 0.525
44.025 10.125 0.825
44.025 10.125 0.975
44.025 10.125 2.325
44.025 10.125 2.025
42.825 7.575 0.825
42.825 7.575 0.375
42.525 4.875 0.525
42.525 5.775 0.975
45.525 11.775 -0.375
45.525 11.775 1.875
47.775 13.125 -1.725
42.675 3.675 0.225
42.675 3.675 1.125
42.675 6.975 0.975
42.525 4.725 0.525
42.525 4.725 0.675
42.525 4.725 1.125
42.525 4.725 0.975
42.525 4.575 1.125
45.675 11.925 0.525
45.675 11.925 0.675
42.675 3.525 0.975
42.675 3.525 0.825
42.675 7.125 0.675
42.975 2.475 -0.675
42.975 2.475 0.525
42.975 8.175 1.875
42.975 8.175 0.825
43.875 9.975 0.975
43.875 9.975 0.375
42.825 2.925 0.375
42.825 2.925 -0.225
42.525 4.425 0.075
42.525 4.425 1.125
47.025 12.825 0.375
47.325 12.975 0.375
45.825 12.075 0.525
44.175 10.425 -1.425
44.175 0.225 -0.225
44.175 0.225 0.675
43.125 2.025 0.675
43.125 2.025 0.225
42.525 4.125 0.525
45.075 11.475 -2.325
45.075 11.475 4.275
43.725 9.825 0.675
43.725 9.825 -0.075
43.725 9.825 0.075
42.825 2.775 0.975
42.825 2.775 -0.675
42.825 2.775 1.125
42.825 7.875 1.725
44.025 10.275 1.275
45.225 11.625 1.125
44.625 11.025 -1.575
44.625 11.025 -1.725
42.975 2.325 0.375
42.975 2.325 -0.225
42.525 3.975 1.275
42.525 3.975 -0.225
42.525 3.975 0.825
45.375 11.775 -0.375
45.375 11.775 -0.225
42.675 7.425 -0.375
42.675 7.425 0.075
42.675 7.425 0.975
42.675 7.425 0.225
43.275 1.575 0.375
47.175 12.975 0.525
43.425 1.275 1.425
44.325 10.725 -1.725
44.325 10.725 -4.425
44.325 10.725 1.725
44.325 10.725 0.675
43.125 1.875 0.225
47.475 13.125 5.025
42.525 3.825 0.525
42.825 2.625 1.575
42.825 2.625 1.425
43.575 9.675 0.075
42.375 5.325 1.575
42.975 2.175 0.075
42.975 2.175 0.525
42.975 2.175 -0.975
44.175 0.075 0.075
42.375 5.625 0.525
42.375 4.875 0.525
43.725 9.975 0.825
43.725 9.975 0.675
43.725 9.975 -1.125
43.725 9.975 0.075
42.375 4.725 0.525
42.375 5.925 2.475
42.375 4.725 0.675
46.275 12.525 -0.075
45.825 12.225 -3.525
45.825 12.225 0.675
44.025 0.225 0.225
42.375 4.575 0.975
42.825 2.475 1.575
42.825 2.475 -0.525
47.025 12.975 0.675
47.325 13.125 0.075
42.525 3.525 0.975
44.925 11.475 -0.525
42.675 7.725 1.425
42.675 7.725 1.575
44.925 -0.825 2.025
42.675 2.925 -0.675
42.375 4.425 0.375
42.375 4.425 0.675
42.375 4.425 0.825
42.375 6.225 0.675
44.625 11.175 -1.125
42.975 2.025 -0.825
42.975 2.025 0.525
42.975 2.025 -0.525
45.225 11.775 -1.125
45.225 11.775 -0.225
45.225 11.775 0.375
45.225 11.775 0.675
45.225 11.775 -0.375
42.375 4.275 0.525
42.375 4.275 0.675
45.975 12.375 0.675
43.875 10.275 -4.275
43.875 10.275 1.725
43.875 10.275 -3.975
43.575 9.825 0.225
43.575 9.825 -0.225
43.575 9.825 -2.475
43.575 9.825 0.825
46.425 12.675 -3.825
44.325 10.875 5.775
44.325 10.875 1.275
42.525 7.275 1.575
45.375 11.925 0.825
45.375 11.925 -0.225
45.375 11.925 1.275
45.375 11.925 1.425
42.675 7.875 0.825
45.525 12.075 1.725
45.525 12.075 0.675
44.175 -0.075 0.075
43.725 10.125 0.675
43.725 10.125 0.075
43.725 10.125 -2.625
46.125 12.525 0.825
46.125 12.525 -0.375
47.175 13.125 1.275
47.175 13.125 2.325
42.375 3.975 0.675
42.975 1.875 0.375
44.025 0.075 0.525
43.425 9.675 0.825
42.375 3.825 0.675
42.375 3.825 0.525
42.675 2.625 -0.675
42.675 2.625 -0.225
42.675 2.625 0.975
42.675 8.025 2.175
42.825 2.175 -0.375
42.825 2.175 -0.225
47.775 13.425 0.675
48.675 13.725 -0.825
42.525 7.575 0.375
42.525 7.575 0.225
43.575 9.975 0.375
44.775 11.475 6.075
46.275 12.675 -0.075
46.275 12.675 2.925
44.925 11.625 -1.875
45.825 12.375 0.675
42.225 5.625 0.525
45.075 11.775 0.075
42.375 3.675 0.525
42.375 3.675 0.225
44.475 11.175 1.275
42.225 4.875 0.525
42.225 5.775 2.025
44.325 11.025 -0.825
44.325 11.025 1.575
44.325 11.025 1.125
43.125 9.225 -0.975
47.025 13.125 0.675
47.025 13.125 0.825
42.975 8.925 1.125
46.725 12.975 3.225
42.675 8.175 1.575
42.225 4.575 0.525
42.525 7.725 0.525
42.525 7.725 0.825
43.725 10.275 1.875
43.725 10.275 0.825
43.725 10.275 0.975
42.375 3.525 -0.675
45.375 12.075 -0.075
45.375 12.075 1.275
44.175 10.875 1.425
42.825 2.025 -0.675
42.825 2.025 0.525
42.225 4.425 0.675
42.225 4.425 1.125
43.425 9.825 0.375
43.425 9.825 0.975
43.425 9.825 0.675
47.625 13.425 0.975
44.025 10.725 0.825
44.025 10.725 2.925
42.225 4.275 0.525
43.575 10.125 0.975
43.575 10.125 1.875
43.575 10.125 0.675
46.125 12.675 0.825
46.125 12.675 -0.975
46.125 12.675 -0.075
42.675 2.325 -0.225
42.225 4.125 0.975
42.975 1.575 2.475
43.875 10.575 1.575
43.875 0.075 0.075
47.175 13.275 0.375
47.175 13.275 0.675
47.175 13.275 -0.225
43.275 9.675 0.675
42.825 1.875 -1.125
42.825 1.875 -0.975
42.825 1.875 0.375
47.475 13.425 1.125
44.325 11.175 0.975
45.825 12.525 0.675
46.275 12.825 3.225
43.425 9.975 0.675
43.425 9.975 0.525
43.425 9.975 0.825
42.225 3.825 0.525
45.225 12.075 -0.225
45.225 12.075 0.225
42.225 3.675 0.675
42.225 3.675 0.525
42.225 6.975 -0.525
45.375 12.225 0.675
44.025 10.875 0.825
44.025 10.875 2.025
44.025 10.875 -0.225
42.075 4.875 0.825
43.575 10.275 0.525
45.975 12.675 -0.225
45.975 12.675 0.975
50.475 14.175 0.225
42.825 8.925 -2.625
47.325 13.425 1.125
47.325 13.425 0.675
42.075 4.725 0.675
42.075 4.725 0.525
42.075 5.925 1.875
42.525 2.475 -0.375
43.275 9.825 1.125
43.275 9.825 0.675
43.275 9.825 0.525
43.875 10.725 2.475
43.875 -0.075 0.375
43.875 -0.075 -0.075
42.375 2.925 -0.675
45.525 12.375 0.825
45.525 12.375 0.675
48.525 13.875 -1.275
42.075 6.075 0.375
42.225 3.525 0.075
42.675 2.025 -0.225
42.075 4.425 0.525
42.075 4.425 -2.325
46.125 12.825 0.225
43.425 10.125 0.375
43.425 10.125 0.525
43.425 10.125 0.975
43.725 10.575 0.975
43.725 0.075 0.525
43.725 0.075 0.375
45.675 12.525 0.525
45.675 12.525 0.675
42.075 4.275 0.675
44.475 11.475 -0.525
44.775 11.775 0.975
42.525 2.325 0.675
42.375 2.775 1.575
42.825 1.575 0.525
47.175 13.425 3.225
47.175 13.425 0.525
47.175 13.425 0.825
42.075 4.125 0.675
42.075 4.125 -0.075
42.075 6.525 0.375
46.575 13.125 -4.125
43.125 9.675 0.675
43.125 9.675 0.825
49.725 14.175 2.325
44.175 11.175 0.225
44.175 11.175 1.125
44.175 11.175 0.975
47.475 13.575 5.625
42.675 1.875 0.525
42.675 1.875 0.375
43.575 10.425 0.225
43.575 10.425 0.525
45.825 12.675 0.675
45.225 12.225 0.675
45.225 12.225 1.125
44.025 11.025 0.975
42.075 3.975 0.075
43.275 9.975 0.675
43.275 9.975 0.225
48.225 13.875 1.425
47.775 13.725 0.825
43.875 -0.225 -0.075
45.375 12.375 1.425
45.375 12.375 0.825
45.375 12.375 1.575
42.075 3.825 0.525
43.425 10.275 1.725
43.425 10.275 0.375
42.975 9.525 0.675
43.725 -0.075 0.225
42.675 1.725 0.675
42.675 1.725 0.375
42.675 1.725 0.825
43.125 9.825 0.675
43.125 9.825 0.825
43.125 9.825 0.975
42.375 2.475 0.225
42.375 2.475 0.675
44.625 11.775 0.675
44.325 11.475 0.825
42.225 2.925 -0.225
47.625 13.725 1.875
42.075 3.525 -1.875
43.275 10.125 0.675
46.125 12.975 -3.825
41.925 4.575 0.675
44.175 11.325 0.825
44.175 11.325 0.975
43.575 10.575 0.375
45.675 12.675 0.675
45.675 12.675 0.825
45.075 12.225 -0.225
42.825 1.275 -0.525
46.875 13.425 -0.525
42.375 2.325 0.675
41.925 4.275 0.375
42.075 7.275 0.825
42.975 9.675 0.825
47.175 13.575 0.825
42.675 1.575 -0.825
45.225 12.375 0.075
45.225 12.375 0.375
45.225 12.375 0.675
45.225 12.375 -1.425
43.875 11.025 0.525
45.825 12.825 0.675
43.425 10.425 0.225
41.925 4.125 0.525
41.925 4.125 0.375
43.125 9.975 0.975
42.525 1.875 -0.225
42.525 1.875 0.075
42.525 1.875 0.375
43.725 10.875 0.975
43.725 10.875 0.675
43.725 10.875 0.525
45.375 12.525 0.675
42.225 2.625 -0.675
42.225 2.625 -0.225
42.375 2.175 0.675
42.375 2.175 -0.075
42.375 2.175 1.725
43.275 10.275 0.675
43.275 10.275 0.525
43.575 10.725 0.525
43.575 10.725 1.125
43.575 10.725 0.225
43.575 -0.075 -0.825
43.575 -0.075 0.075
45.525 12.675 1.725
45.525 12.675 1.875
44.325 11.625 1.125
44.625 11.925 1.575
41.925 3.825 0.675
47.025 13.575 0.825
47.025 13.575 2.625
42.975 9.825 0.825
46.425 13.275 -0.525
47.325 13.725 0.675
42.525 1.725 -0.375
41.925 3.675 -2.175
42.225 2.475 -0.375
