# .PCD v0.7 - Point Cloud Data file format
VERSION 0.7
FIELDS x y z
SIZE 4 4 4
TYPE F F F
COUNT 1 1 1
WIDTH 2048
HEIGHT 1
VIEWPOINT 0 0 0 1 0 0 0
POINTS 2048
DATA ascii
21.675 -37.125 0.825
21.825 -37.125 1.425
21.825 -37.125 0.975
21.825 -37.125 1.575
21.525 -37.125 1.875
21.825 -36.975 1.275
21.825 -37.275 0.975
21.825 -37.275 1.275
21.525 -37.275 0.675
21.675 -37.425 2.775
21.375 -37.125 1.125
21.375 -37.125 1.275
21.975 -37.125 0.975
21.825 -36.825 2.175
21.375 -37.275 1.425
21.375 -37.275 0.975
21.975 -37.275 0.675
21.975 -37.425 0.525
21.975 -37.425 1.275
21.975 -37.425 1.125
21.375 -37.425 1.275
21.375 -37.425 0.975
22.125 -37.125 1.125
21.225 -37.125 1.875
22.125 -37.125 0.825
22.125 -37.275 1.125
22.125 -37.275 -0.225
21.225 -36.975 1.575
22.275 -36.975 1.425
21.075 -36.975 0.975
21.075 -37.275 2.025
21.525 -37.725 0.075
22.275 -37.425 2.775
22.275 -37.425 1.275
21.075 -37.425 2.325
21.975 -37.725 0.075
22.425 -37.125 1.425
22.425 -37.125 0.825
20.925 -37.125 0.975
22.425 -37.275 1.275
22.425 -37.275 1.425
20.925 -37.275 1.125
22.425 -36.975 1.425
22.425 -37.275 0.975
21.525 -37.875 -0.375
20.925 -37.425 1.275
20.925 -37.425 1.125
20.925 -37.425 2.025
21.375 -37.875 0.075
21.225 -37.875 0.075
22.125 -37.875 -0.525
22.425 -37.575 3.975
21.675 -38.025 4.575
22.575 -37.125 1.725
21.675 -38.025 -1.125
22.575 -37.125 1.575
20.775 -37.125 1.425
20.775 -37.125 0.825
22.575 -37.275 1.725
22.575 -37.275 1.575
21.525 -38.025 0.375
21.525 -38.025 0.825
20.775 -37.275 1.575
20.775 -37.275 1.875
20.775 -37.275 1.275
20.775 -37.275 0.825
22.575 -37.425 1.425
22.575 -37.425 1.575
22.575 -37.425 1.725
22.575 -36.825 0.975
21.975 -38.025 0.075
21.975 -38.025 -0.375
21.975 -38.025 0.375
22.275 -37.875 0.525
21.075 -37.875 0.225
22.575 -37.575 0.075
22.575 -37.575 1.875
22.575 -37.575 1.575
21.675 -38.175 -0.525
21.675 -38.175 -0.375
21.525 -38.175 0.225
20.925 -37.875 -0.075
22.725 -37.275 1.425
22.725 -36.975 1.725
22.725 -37.275 1.125
22.725 -36.975 1.125
22.275 -38.025 0.675
21.075 -38.025 0.075
21.375 -38.175 -0.375
21.975 -38.175 -0.075
21.375 -38.175 -0.075
21.975 -38.175 -0.225
20.625 -37.425 0.675
22.725 -37.425 1.125
20.625 -37.425 0.825
20.625 -37.425 1.125
22.725 -37.425 1.575
21.225 -38.175 0.525
22.125 -38.175 0.225
20.625 -37.575 2.025
22.875 -37.125 1.575
21.675 -35.925 -1.425
21.675 -38.325 -0.525
22.275 -38.175 -0.075
21.075 -38.175 0.525
21.075 -38.175 -0.225
21.075 -38.175 -0.075
22.875 -36.975 1.575
20.475 -37.275 2.175
20.625 -37.725 2.775
21.825 -38.325 0.075
21.825 -38.325 -0.225
22.875 -36.825 0.525
20.475 -37.425 0.825
21.375 -38.325 0.225
21.375 -38.325 0.525
21.975 -38.325 0.225
21.375 -38.325 -0.225
22.125 -38.325 0.075
20.925 -38.175 -0.075
20.925 -38.175 0.075
22.725 -37.875 0.525
22.875 -37.725 0.075
23.025 -37.125 0.825
23.025 -37.125 3.225
23.025 -37.125 2.325
23.025 -37.125 1.125
21.675 -38.475 -0.225
23.025 -37.275 1.425
23.025 -37.275 2.925
20.325 -37.275 2.175
21.825 -38.475 0.075
21.525 -38.475 -1.275
21.525 -38.475 0.075
21.525 -38.475 -0.225
22.575 -38.175 -0.975
22.575 -38.175 -0.675
20.775 -38.175 -0.675
20.625 -38.025 -0.375
22.725 -38.025 -0.675
20.325 -37.425 2.025
22.425 -38.325 -0.375
20.925 -38.325 -0.525
20.925 -38.325 0.075
20.925 -38.325 -0.225
23.025 -36.675 1.875
21.225 -38.475 -0.825
21.225 -38.475 -0.075
22.125 -38.475 0.075
22.275 -38.475 -1.275
21.075 -38.475 0.225
22.725 -38.175 0.525
20.625 -38.175 -0.075
20.475 -38.025 -0.225
22.875 -38.025 0.525
20.475 -38.025 0.075
20.475 -38.025 0.225
21.675 -38.625 -0.225
23.175 -37.125 3.075
22.575 -38.325 -0.975
20.775 -38.325 -0.075
23.175 -37.275 3.225
20.175 -37.275 0.825
20.175 -37.275 1.125
20.175 -37.275 1.275
20.175 -37.275 0.525
23.175 -36.975 1.125
23.175 -37.425 2.325
20.175 -37.425 0.525
20.175 -37.425 0.975
23.175 -36.825 1.575
23.025 -37.875 0.975
22.425 -38.475 -0.525
20.325 -37.875 -0.375
20.925 -38.475 -0.225
20.175 -37.575 2.325
23.175 -37.575 -0.075
22.875 -38.175 0.225
22.875 -38.175 -0.375
20.475 -38.175 -0.075
22.875 -38.175 -0.675
20.625 -38.325 -0.525
22.725 -38.325 0.675
22.725 -38.325 -0.075
22.575 -38.475 0.675
20.325 -38.025 -0.375
20.775 -38.475 -0.225
21.825 -38.775 -0.675
23.325 -37.275 3.225
21.525 -38.775 0.825
20.025 -37.275 1.275
23.325 -37.425 3.225
23.175 -37.875 -0.075
20.925 -38.625 -1.725
20.025 -37.425 1.125
20.025 -37.425 1.425
22.875 -38.325 0.975
22.875 -38.325 -0.375
20.475 -38.325 -0.825
20.475 -38.325 -0.225
22.125 -38.775 0.075
23.325 -37.575 0.375
20.625 -38.475 -0.225
20.625 -38.475 -0.075
21.075 -38.775 2.025
23.475 -37.125 1.875
19.875 -37.125 1.275
23.475 -36.975 1.725
20.475 -38.475 -0.525
23.475 -37.275 3.075
23.475 -36.975 1.125
20.475 -38.475 0.525
19.875 -37.275 0.825
22.875 -38.475 -0.525
20.325 -38.325 -0.075
23.325 -37.875 4.125
21.975 -38.925 -0.525
23.475 -37.425 2.625
20.175 -38.175 -0.225
20.175 -38.175 -0.075
23.325 -38.025 0.375
20.775 -38.775 -0.225
20.025 -38.025 -0.075
20.325 -38.475 0.225
23.175 -38.325 -0.825
23.625 -37.125 2.175
23.625 -37.125 2.775
21.675 -39.075 0.225
19.725 -37.275 1.275
19.725 -37.275 0.675
20.025 -38.175 0.225
21.525 -39.075 -0.225
23.625 -37.425 2.625
23.625 -37.425 -0.225
23.625 -37.425 -0.675
19.725 -37.425 1.125
19.725 -37.425 2.625
23.625 -36.825 1.125
19.725 -37.575 0.225
23.625 -37.575 0.975
21.225 -39.075 -0.225
19.875 -38.025 0.225
20.175 -38.475 -0.525
20.325 -38.625 0.375
23.625 -36.525 2.925
23.325 -38.325 -0.975
20.025 -38.325 -0.375
19.875 -36.075 0.975
19.725 -37.875 2.625
19.575 -37.125 0.825
19.575 -37.275 1.125
23.775 -37.425 3.075
19.575 -37.425 0.975
23.025 -38.775 -1.425
20.025 -38.475 3.675
23.775 -37.575 2.775
23.775 -36.675 0.975
23.775 -37.575 0.375
23.775 -36.675 2.925
23.625 -38.025 0.075
19.725 -38.025 2.775
19.575 -37.575 1.425
19.575 -37.575 2.175
23.475 -38.325 0.375
19.875 -38.325 -0.225
23.775 -37.725 0.225
23.625 -38.175 -1.275
19.575 -37.875 2.775
23.925 -37.125 2.325
23.475 -38.475 0.375
23.475 -38.475 -4.125
19.425 -37.275 2.625
19.425 -37.275 1.575
19.425 -37.425 1.125
23.775 -38.025 0.825
19.575 -38.025 -0.075
19.725 -38.325 -0.075
19.725 -38.325 -0.525
22.875 -39.075 -0.675
19.425 -37.575 0.375
19.425 -37.575 0.825
19.875 -38.625 -0.075
19.575 -38.175 -0.375
19.725 -38.475 -0.675
19.725 -38.475 -0.525
19.275 -37.125 0.975
19.275 -37.275 0.675
19.275 -37.275 0.975
24.075 -36.825 0.825
24.075 -36.825 1.425
23.775 -38.325 1.275
19.275 -37.425 2.625
19.275 -37.425 1.125
19.275 -37.425 1.875
19.575 -38.325 -0.075
19.575 -38.325 -0.375
19.425 -38.025 -0.075
19.275 -37.575 0.525
19.275 -37.575 0.975
19.275 -37.575 2.625
24.075 -37.725 -0.075
19.425 -38.175 -0.225
19.425 -38.175 -0.675
19.575 -38.475 -0.375
20.925 -39.525 -2.775
20.475 -39.375 2.475
19.125 -37.275 1.275
19.125 -37.275 1.575
19.125 -36.975 0.375
24.075 -38.025 1.725
24.075 -38.025 -0.225
19.125 -37.425 0.975
19.125 -37.425 2.775
19.125 -37.425 0.675
24.225 -36.825 1.275
19.125 -36.675 1.275
19.125 -37.575 2.475
24.075 -38.175 1.425
19.275 -38.175 2.325
19.275 -38.175 -0.375
24.225 -37.725 -0.375
24.225 -37.725 0.225
24.225 -36.525 1.425
19.425 -38.475 -0.825
19.125 -37.875 3.225
24.225 -37.875 0.525
19.275 -38.325 4.875
19.275 -38.325 -0.375
24.375 -37.125 1.575
18.975 -37.125 0.825
18.975 -37.125 0.975
18.975 -37.275 0.975
24.225 -38.025 -0.075
24.375 -36.825 -0.375
18.975 -37.425 1.575
18.975 -37.575 1.275
18.975 -37.575 2.775
24.375 -36.675 2.175
21.225 -39.825 0.225
19.275 -38.475 0.075
22.725 -39.675 -0.975
19.125 -38.175 0.225
18.975 -37.725 1.125
23.475 -39.225 -0.225
24.375 -37.875 -0.225
22.425 -39.825 0.975
22.875 -39.675 -0.675
19.125 -38.325 -0.075
24.525 -37.125 1.575
21.675 -39.975 -0.825
18.825 -37.125 0.675
24.525 -36.975 1.275
18.825 -37.275 0.525
18.825 -37.275 1.125
18.825 -37.275 0.825
18.825 -36.975 0.825
18.825 -37.275 0.675
18.825 -37.425 0.975
18.825 -37.425 1.425
18.825 -37.425 1.275
18.825 -37.425 1.725
18.825 -37.425 2.175
21.375 -39.975 -0.975
20.325 -39.675 -0.525
24.525 -37.575 0.225
21.225 -39.975 -0.075
21.225 -39.975 0.225
18.825 -37.575 0.975
18.825 -37.575 1.425
18.975 -38.175 0.225
18.975 -38.175 0.075
20.625 -39.825 -0.975
22.725 -39.825 -1.125
24.525 -37.725 0.525
18.825 -37.725 0.375
18.825 -36.525 -0.225
21.075 -39.975 -0.075
18.825 -36.375 -0.225
18.975 -38.325 -0.225
18.975 -38.325 -0.525
18.975 -38.325 4.575
20.175 -39.675 -1.275
18.825 -38.025 -0.075
20.775 -39.975 -0.525
18.675 -37.125 2.025
21.675 -40.125 -0.975
18.675 -37.125 1.875
18.675 -37.275 0.975
18.675 -37.275 1.575
24.675 -36.975 1.125
18.675 -36.975 1.275
18.675 -36.975 0.825
21.525 -40.125 -0.525
24.675 -36.825 1.125
24.675 -36.825 1.575
24.675 -36.825 0.075
21.375 -40.125 -0.675
21.975 -40.125 -0.525
21.375 -40.125 0.075
18.975 -38.475 -0.075
18.975 -38.475 -0.375
22.125 -40.125 -1.125
18.825 -38.175 -0.075
20.625 -39.975 -1.275
18.675 -37.725 1.575
24.675 -37.725 0.225
18.675 -37.725 0.825
24.675 -37.725 0.075
21.075 -40.125 -0.975
18.975 -38.625 -0.525
23.175 -39.825 -0.225
24.525 -38.325 0.825
22.425 -40.125 0.075
22.425 -40.125 -0.675
20.925 -40.125 -0.525
18.675 -37.875 0.375
24.675 -37.875 0.225
22.875 -39.975 0.075
18.825 -38.325 0.225
18.825 -38.325 -0.375
18.825 -38.325 -0.225
22.575 -40.125 -0.975
18.675 -38.025 -0.225
21.525 -40.275 0.075
21.525 -40.275 -0.375
18.825 -38.475 -0.225
18.825 -38.475 -0.375
18.525 -36.975 0.675
18.525 -37.275 0.825
24.825 -36.825 1.125
21.375 -40.275 0.225
21.975 -40.275 -1.275
18.525 -37.425 2.025
18.525 -37.425 1.275
18.525 -36.825 0.675
18.525 -37.425 2.625
18.675 -38.175 -0.525
22.725 -40.125 -1.725
20.625 -40.125 0.075
21.225 -40.275 -0.075
22.125 -40.275 -0.375
22.125 -40.275 -1.125
18.525 -37.575 1.425
18.525 -37.575 1.875
21.075 -40.275 -1.575
24.825 -37.725 0.075
18.525 -37.725 2.925
18.525 -37.725 2.475
23.175 -39.975 -0.225
18.675 -38.325 -0.075
18.675 -38.325 -0.225
20.925 -40.275 -1.125
22.425 -40.275 -0.825
22.425 -40.275 -1.275
20.925 -40.275 -0.375
22.575 -40.275 0.075
24.825 -38.025 0.225
20.775 -40.275 -3.075
18.525 -38.025 0.075
23.025 -40.125 -0.675
18.675 -38.475 -0.225
18.675 -38.475 -0.525
20.325 -40.125 -0.525
18.675 -38.475 4.425
18.375 -37.125 2.625
21.525 -40.425 -0.075
24.975 -36.975 1.425
24.975 -36.975 0.975
18.375 -37.425 1.275
18.375 -37.425 0.675
20.625 -40.275 -1.275
18.525 -38.175 -0.225
18.525 -38.175 0.075
18.375 -37.575 0.825
18.375 -37.575 1.125
18.375 -37.575 2.175
21.075 -40.425 -0.825
18.675 -38.625 -1.125
22.875 -40.275 -0.375
22.875 -40.275 -0.075
22.875 -40.275 -0.225
24.825 -38.325 -0.225
23.475 -39.975 0.225
18.525 -38.325 -0.225
20.925 -40.425 -0.975
20.925 -40.425 -1.125
20.925 -40.425 -0.525
22.425 -40.425 0.075
22.425 -40.425 -0.825
18.375 -37.875 3.525
19.425 -39.675 2.175
20.775 -40.425 -1.575
24.975 -38.025 0.225
18.375 -38.025 3.825
23.325 -40.125 0.075
20.025 -40.125 -0.375
23.025 -40.275 -0.675
21.825 -40.575 -0.825
21.825 -40.575 -0.975
21.525 -40.575 -0.975
21.525 -40.575 -0.075
22.725 -40.425 -1.125
18.225 -36.825 0.525
25.125 -36.825 1.275
25.125 -36.825 1.125
18.225 -37.425 1.125
18.375 -38.175 -0.075
18.375 -38.175 -0.225
21.975 -40.575 -0.675
25.125 -36.675 1.275
18.225 -36.675 0.825
25.125 -37.575 0.075
25.125 -37.575 0.375
18.225 -37.575 -0.375
18.225 -37.575 3.075
18.225 -37.575 1.575
18.225 -37.725 -0.525
19.125 -39.525 -0.075
22.275 -40.575 -0.975
22.275 -40.575 1.575
21.075 -40.575 -1.725
21.075 -40.575 -0.375
21.075 -40.575 -1.875
20.475 -40.425 -0.075
18.375 -38.325 0.075
18.225 -37.875 -0.225
22.425 -40.575 -0.375
20.925 -40.575 -0.525
20.925 -40.575 -0.825
20.925 -40.575 -0.975
22.425 -40.575 0.225
18.825 -35.025 0.825
20.025 -40.275 -0.525
20.325 -40.425 -0.525
25.125 -38.025 1.125
18.375 -38.475 0.225
18.375 -38.475 -0.525
18.375 -38.475 -0.225
18.375 -38.475 -0.675
18.375 -38.475 -0.375
20.775 -40.575 -0.825
19.725 -40.125 -0.225
21.675 -40.725 -1.125
18.075 -37.125 0.225
18.075 -37.125 0.975
18.225 -38.175 -0.075
22.725 -40.575 -1.275
25.275 -36.825 1.275
25.275 -36.825 0.825
18.075 -37.425 0.675
18.075 -37.425 1.575
18.075 -37.425 0.225
18.075 -37.425 1.275
18.075 -37.425 1.725
18.075 -37.425 3.075
21.975 -40.725 -0.975
19.275 -39.825 -0.225
23.175 -40.425 -0.975
23.475 -40.275 0.075
22.125 -40.725 -0.525
22.125 -40.725 -0.675
22.125 -40.725 -1.125
18.075 -37.575 2.025
18.075 -37.575 2.625
19.425 -39.975 -0.825
19.425 -39.975 0.225
19.425 -39.975 0.075
22.275 -40.725 -1.125
18.225 -38.325 -0.225
18.225 -38.325 -0.075
22.875 -40.575 -0.525
20.475 -40.575 -0.375
19.575 -40.125 -0.075
19.575 -40.125 0.075
25.275 -37.875 0.375
22.425 -40.725 0.075
20.925 -40.725 0.075
20.925 -40.725 -0.975
18.075 -37.875 -0.225
19.725 -40.275 -0.825
19.725 -40.275 0.225
23.025 -40.575 -0.675
23.025 -40.575 -0.825
18.075 -38.025 -0.225
24.075 -39.975 -0.525
19.425 -40.125 0.075
21.675 -40.875 -0.525
17.925 -37.125 0.975
18.075 -38.175 -0.075
20.625 -40.725 -0.375
21.825 -40.875 1.575
17.925 -37.275 0.675
21.525 -40.875 -0.975
19.875 -40.425 -0.825
18.225 -38.625 -0.075
21.975 -40.875 -1.125
21.975 -40.875 0.975
21.375 -40.875 -0.675
20.175 -40.575 -0.525
23.175 -40.575 -0.825
21.225 -40.875 -1.125
21.225 -40.875 -0.975
22.125 -40.875 -0.825
22.125 -40.875 -0.675
21.225 -40.875 -0.825
23.775 -40.275 -1.125
19.575 -40.275 0.675
18.075 -38.325 -0.375
22.275 -40.875 -0.975
22.275 -40.875 -0.825
21.075 -40.875 -0.375
17.925 -36.525 0.225
17.925 -36.375 -0.375
20.925 -40.875 -0.225
22.425 -40.875 -0.675
17.925 -37.875 -0.225
19.125 -39.975 -0.525
18.375 -39.075 -1.575
20.325 -40.725 -1.275
18.075 -38.475 -0.375
20.325 -40.725 -0.675
22.575 -40.875 0.075
17.925 -38.025 -0.225
20.775 -40.875 -0.825
19.425 -40.275 -1.125
19.425 -40.275 -0.525
17.925 -38.175 -0.225
17.925 -38.175 -0.375
20.175 -40.725 -1.425
18.075 -38.625 -0.525
18.075 -38.625 -0.675
20.175 -40.725 -1.275
21.825 -41.025 -0.675
21.825 -41.025 -0.975
21.825 -41.025 -1.125
25.575 -36.975 1.875
25.575 -36.975 1.425
21.825 -41.025 -0.525
21.525 -41.025 -1.575
21.525 -41.025 0.525
17.775 -37.275 0.375
19.575 -40.425 -0.375
21.375 -41.025 -2.025
24.975 -39.225 -2.175
17.775 -37.425 0.525
22.125 -41.025 -0.825
21.225 -41.025 -0.375
24.525 -39.825 0.225
17.775 -36.675 0.225
17.775 -37.575 0.975
17.775 -37.575 1.425
22.875 -40.875 -0.225
22.875 -40.875 -0.825
19.125 -40.125 -0.225
17.925 -38.325 -0.375
22.275 -41.025 -0.675
21.075 -41.025 0.075
17.775 -36.525 0.525
17.775 -37.725 0.075
23.325 -40.725 -1.275
20.025 -40.725 -0.375
20.925 -41.025 -1.125
20.925 -41.025 -0.525
17.775 -36.375 -0.525
23.025 -40.875 -0.075
20.325 -40.875 -1.125
20.325 -40.875 -1.275
17.925 -38.475 -0.675
20.325 -40.875 -0.975
17.925 -38.475 -0.225
19.425 -40.425 -0.225
25.575 -38.025 0.225
22.575 -41.025 -0.525
20.775 -41.025 -0.225
17.775 -38.025 -0.225
19.875 -40.725 -0.375
18.975 -40.125 -0.075
24.675 -39.825 -0.675
20.625 -41.025 -0.825
20.625 -41.025 -0.675
17.925 -38.625 -2.925
20.175 -40.875 -1.275
20.175 -40.875 -0.375
17.925 -38.625 -0.525
17.925 -38.625 -1.125
17.925 -38.625 -0.675
17.925 -38.625 -0.075
21.675 -41.175 0.525
21.825 -41.175 0.825
21.825 -41.175 -0.075
21.825 -41.175 -0.225
21.525 -41.175 0.225
21.525 -41.175 -0.225
21.525 -41.175 -1.125
21.825 -41.175 -0.975
21.825 -41.175 -0.675
21.975 -41.175 -1.275
21.975 -41.175 -0.675
17.625 -37.425 0.675
25.725 -36.825 1.875
17.625 -37.575 1.575
25.725 -36.675 -0.075
24.075 -40.425 -0.525
17.775 -38.325 -0.075
17.775 -38.325 -0.525
17.775 -38.325 -0.975
21.075 -41.175 -0.975
23.625 -40.725 -0.075
19.725 -40.725 1.125
17.625 -37.725 0.075
17.625 -36.525 -0.075
25.725 -37.725 0.075
17.925 -38.775 -1.725
23.325 -40.875 -0.075
20.025 -40.875 -0.225
20.025 -40.875 0.225
20.925 -41.175 -0.525
22.425 -41.175 0.075
22.425 -41.175 -0.825
25.725 -37.875 0.525
25.725 -37.875 -0.075
25.725 -37.875 0.375
19.425 -40.575 -2.325
19.425 -40.575 -0.975
23.025 -41.025 -0.375
20.325 -41.025 -1.125
20.325 -41.025 -0.375
20.325 -41.025 -0.825
20.325 -41.025 0.375
17.775 -38.475 -0.225
17.775 -38.475 -0.525
17.775 -38.475 -0.675
18.825 -40.125 0.525
24.675 -39.975 0.225
18.825 -40.125 -1.125
18.675 -39.975 -0.825
24.675 -39.975 -0.525
22.575 -41.175 -0.375
20.775 -41.175 -0.825
20.775 -41.175 -0.975
20.775 -41.175 -1.425
18.975 -40.275 -0.225
17.625 -38.025 -0.225
25.725 -38.025 0.375
17.925 -35.325 0.675
17.925 -35.325 -0.375
23.475 -40.875 -0.225
19.125 -40.425 -0.075
20.175 -41.025 0.975
20.175 -41.025 0.225
20.175 -41.025 -1.275
17.775 -38.625 -0.225
22.725 -41.175 -0.075
17.625 -38.175 -0.375
17.475 -37.125 0.525
21.675 -41.325 -0.825
21.675 -41.325 0.675
21.675 -41.325 -0.525
24.075 -40.575 -0.675
21.525 -41.325 -0.525
21.825 -41.325 -0.675
21.825 -41.325 0.075
19.275 -40.575 -0.225
19.275 -40.575 -1.125
19.275 -40.575 -1.275
17.475 -37.425 0.675
17.475 -36.825 0.225
21.975 -41.325 -0.375
20.475 -41.175 1.425
20.475 -41.175 -0.525
22.875 -41.175 -0.375
22.875 -41.175 -0.975
17.625 -38.325 -0.375
22.125 -41.325 -0.675
21.225 -41.325 -1.275
21.225 -41.325 0.375
21.225 -41.325 -0.825
19.725 -40.875 0.825
19.725 -40.875 -0.075
23.625 -40.875 -0.225
20.025 -41.025 -0.375
18.675 -40.125 -0.675
22.275 -41.325 0.375
21.075 -41.325 0.225
21.075 -41.325 -0.825
19.425 -40.725 -0.225
23.925 -40.725 0.225
25.875 -37.875 0.375
22.425 -41.325 -0.825
20.925 -41.325 -2.175
20.325 -41.175 -0.075
20.325 -41.175 0.375
17.625 -38.475 -0.375
19.125 -40.575 -1.125
19.125 -40.575 1.125
24.225 -40.575 -0.075
19.875 -41.025 -0.225
23.475 -41.025 -0.375
17.775 -38.925 0.375
22.575 -41.325 -0.675
20.775 -41.325 0.525
20.775 -41.325 -0.975
23.775 -40.875 -0.075
17.925 -35.025 0.675
23.175 -41.175 -0.075
17.625 -38.625 -0.075
19.275 -40.725 -1.575
17.475 -38.175 -0.975
20.625 -41.325 -0.825
22.725 -41.325 -0.675
22.725 -41.325 -0.825
22.725 -41.325 -0.075
24.675 -40.275 3.825
18.675 -40.275 1.425
21.675 -41.475 -0.675
18.525 -40.125 -0.675
18.525 -40.125 1.275
21.825 -41.475 0.675
21.525 -41.475 0.075
21.825 -41.475 -0.525
17.325 -37.275 -0.075
18.375 -39.975 -0.675
24.975 -39.975 -0.675
21.975 -41.475 0.675
21.975 -41.475 -0.375
21.375 -41.475 -0.825
21.375 -41.475 -0.975
21.375 -41.475 0.675
17.325 -37.425 -0.225
17.775 -39.075 -0.525
17.475 -38.325 -0.825
17.475 -38.325 -0.375
20.475 -41.325 -0.675
22.875 -41.325 -1.125
23.325 -41.175 -0.075
23.325 -41.175 -0.375
20.025 -41.175 0.225
20.025 -41.175 0.075
17.925 -39.375 -1.275
17.925 -39.375 -0.975
19.425 -40.875 -0.825
23.925 -40.875 -0.375
23.925 -40.875 -0.525
22.125 -41.475 -0.675
22.125 -41.475 -0.525
22.125 -41.475 -0.825
17.325 -36.675 1.425
18.975 -40.575 0.075
18.975 -40.575 -1.575
18.975 -40.575 0.825
18.975 -40.575 -0.525
22.275 -41.475 -0.225
22.275 -41.475 -1.125
21.075 -41.475 1.425
21.075 -41.475 -0.825
18.075 -39.675 -0.675
17.475 -35.775 0.375
17.475 -38.475 -0.075
17.475 -38.475 -0.225
23.025 -41.325 -0.675
23.025 -41.325 -0.525
23.025 -41.325 -0.375
20.325 -41.325 -1.275
20.925 -41.475 0.525
17.325 -36.375 0.525
22.425 -41.475 -1.275
19.575 -41.025 -2.475
23.475 -41.175 -0.375
23.475 -41.175 1.275
22.575 -41.475 -0.825
17.925 -39.525 -1.275
24.075 -40.875 0.375
18.525 -40.275 -0.975
18.525 -40.275 -0.675
18.675 -40.425 -1.125
17.475 -38.625 -0.675
23.175 -41.325 -0.675
23.175 -41.325 -0.075
20.175 -41.325 0.075
18.225 -39.975 -0.975
20.625 -41.475 0.675
20.625 -41.475 0.075
20.625 -41.475 -0.225
22.725 -41.475 -0.225
18.825 -40.575 -1.125
18.825 -40.575 -0.525
23.625 -41.175 0.075
19.725 -41.175 2.325
21.675 -41.625 0.075
21.675 -41.625 0.525
21.675 -41.625 1.275
21.675 -41.625 -0.075
18.975 -40.725 -1.125
18.975 -40.725 -0.675
19.425 -41.025 -0.675
25.575 -39.375 2.025
21.525 -41.625 0.075
17.175 -37.275 0.075
17.175 -37.275 0.375
21.525 -41.625 0.525
21.525 -41.625 -0.975
21.825 -41.625 0.525
21.825 -41.625 0.075
21.825 -41.625 -0.825
21.825 -41.625 -0.225
17.775 -39.375 -1.125
21.375 -41.625 -0.225
17.175 -37.425 0.525
21.375 -41.625 0.075
21.375 -41.625 1.425
21.975 -41.625 -0.525
21.975 -41.625 0.525
17.475 -38.775 0.075
20.475 -41.475 0.525
20.475 -41.475 0.075
22.875 -41.475 -0.225
23.325 -41.325 -0.375
17.325 -38.325 -0.975
21.225 -41.625 -0.975
21.225 -41.625 0.075
21.225 -41.625 -0.075
22.125 -41.625 0.675
22.125 -41.625 -0.975
17.175 -37.575 0.225
26.175 -37.575 -0.075
17.175 -36.675 0.375
17.925 -39.675 -0.825
22.275 -41.625 0.825
22.275 -41.625 -1.275
17.175 -37.725 -0.075
26.175 -37.725 -0.375
17.175 -36.525 0.975
21.075 -41.625 0.525
21.075 -41.625 0.375
21.075 -41.625 -0.075
23.025 -41.475 -0.375
20.325 -41.475 0.525
20.325 -41.475 -0.675
20.325 -41.475 -0.525
20.325 -41.475 0.075
20.325 -41.475 -0.225
17.325 -38.475 0.075
23.775 -41.175 -0.075
23.775 -41.175 1.275
24.825 -40.425 0.225
19.575 -41.175 -0.675
19.575 -41.175 -0.075
18.375 -40.275 -1.125
18.375 -40.275 -0.075
18.375 -40.275 -0.675
24.975 -40.275 0.225
22.425 -41.625 -0.375
26.175 -37.875 0.675
17.175 -36.375 0.975
20.925 -41.625 -0.075
20.925 -41.625 -0.825
17.625 -39.225 -0.525
17.625 -35.025 1.425
23.475 -41.325 -1.275
23.475 -41.325 -1.125
19.875 -41.325 -0.825
19.875 -41.325 -0.225
19.875 -41.325 0.075
23.475 -41.325 -0.225
18.225 -40.125 -1.125
18.225 -40.125 -0.825
24.075 -41.025 -0.225
19.275 -41.025 -0.375
19.275 -41.025 -0.525
19.275 -41.025 -0.675
19.275 -41.025 -0.975
19.275 -41.025 -1.875
17.775 -39.525 -0.825
17.775 -39.525 -0.975
17.775 -39.525 -1.125
17.175 -36.225 0.825
17.175 -36.225 0.375
20.775 -41.625 -0.075
20.775 -41.625 -0.825
18.825 -40.725 -1.125
18.825 -40.725 -0.525
17.325 -35.625 0.075
20.175 -41.475 0.075
20.175 -41.475 0.525
17.175 -38.175 0.075
17.175 -38.175 -0.375
17.175 -38.175 -0.075
17.175 -36.075 0.675
18.975 -40.875 -0.825
18.975 -40.875 -0.975
22.725 -41.625 0.225
20.625 -41.625 0.075
20.625 -41.625 0.825
20.625 -41.625 -0.825
19.725 -41.325 0.075
19.725 -41.325 0.525
23.625 -41.325 -1.125
23.625 -41.325 -0.975
23.925 -41.175 -0.825
19.425 -41.175 -0.075
23.925 -41.175 -0.225
19.425 -41.175 -0.675
19.425 -41.175 0.075
19.425 -41.175 0.225
17.625 -39.375 -0.825
17.625 -39.375 -0.975
21.675 -41.775 -0.975
21.675 -41.775 -0.075
21.675 -41.775 1.125
17.025 -37.125 0.525
17.025 -37.125 0.075
17.025 -37.125 0.675
17.025 -37.125 0.225
21.525 -41.775 -0.825
21.525 -41.775 -0.075
21.825 -41.775 0.975
21.825 -41.775 0.075
21.825 -41.775 0.225
21.825 -41.775 -0.075
17.325 -35.475 1.275
17.325 -38.775 -0.675
17.025 -37.275 0.525
17.025 -37.275 -0.225
20.025 -41.475 0.075
20.025 -41.475 -0.675
20.025 -41.475 0.675
20.025 -41.475 0.525
20.475 -41.625 0.075
22.875 -41.625 -0.375
17.175 -38.325 -0.375
21.375 -41.775 1.125
26.325 -36.825 1.275
21.975 -41.775 0.075
21.975 -41.775 0.975
21.975 -41.775 -0.975
17.775 -39.675 -0.525
17.775 -39.675 -0.975
17.025 -37.425 0.975
17.025 -37.425 -0.075
18.225 -40.275 -1.275
21.225 -41.775 0.075
22.125 -41.775 0.075
22.125 -41.775 0.825
26.325 -36.675 0.375
26.325 -37.575 0.375
17.025 -36.675 0.975
18.525 -40.575 -0.225
18.525 -40.575 -1.425
18.525 -40.575 -0.825
18.675 -40.725 4.125
22.275 -41.775 -0.225
22.275 -41.775 0.675
22.275 -41.775 -0.675
22.275 -41.775 -1.125
22.275 -41.775 -0.525
17.025 -37.725 0.225
17.025 -37.725 -0.075
17.475 -39.225 -0.825
17.475 -39.225 -0.675
23.775 -41.325 -0.975
19.575 -41.325 0.375
19.575 -41.325 0.675
23.025 -41.625 -0.075
20.325 -41.625 0.075
17.175 -38.475 -1.275
19.275 -41.175 0.225
19.275 -41.175 -0.675
19.275 -41.175 -0.825
19.875 -41.475 -0.525
19.875 -41.475 0.225
19.875 -41.475 0.675
19.875 -41.475 -0.825
23.475 -41.475 -0.525
23.475 -41.475 -1.125
22.425 -41.775 -0.375
20.925 -41.775 -0.075
18.825 -40.875 -1.725
18.825 -40.875 -0.075
17.025 -37.875 0.675
17.025 -37.875 -0.225
17.025 -36.375 0.375
20.775 -41.775 -0.975
20.775 -41.775 1.125
20.775 -41.775 -0.825
17.025 -38.025 -0.675
18.975 -41.025 -0.375
18.975 -41.025 -0.825
20.175 -41.625 0.225
20.175 -41.625 1.125
20.175 -41.625 0.075
17.775 -39.825 -1.575
23.925 -41.325 0.075
19.425 -41.325 -0.525
19.425 -41.325 0.225
19.425 -41.325 0.675
23.925 -41.325 0.525
22.725 -41.775 -0.525
19.725 -41.475 0.075
19.725 -41.475 -0.525
23.625 -41.475 -0.675
23.625 -41.475 -0.375
17.025 -38.175 -0.975
18.225 -40.425 -0.525
18.525 -40.725 -0.825
19.125 -41.175 -0.375
19.125 -41.175 -0.525
19.125 -41.175 0.525
24.225 -41.175 -0.375
19.125 -41.175 -1.275
19.125 -41.175 -0.825
19.125 -41.175 0.675
23.325 -41.625 -0.675
26.175 -38.775 0.975
20.025 -41.625 0.075
20.025 -41.625 1.125
20.025 -41.625 -0.975
16.875 -37.125 0.225
16.875 -37.125 -0.375
22.875 -41.775 -0.825
22.875 -41.775 -0.525
20.475 -41.775 0.075
20.475 -41.775 -0.225
20.475 -41.775 -0.975
18.675 -40.875 0.225
16.875 -36.975 0.225
16.875 -37.275 0.075
16.875 -37.275 0.525
16.875 -37.275 -0.075
17.025 -38.325 -0.375
21.975 -41.925 -0.075
21.975 -41.925 -0.375
21.975 -41.925 1.275
21.375 -41.925 0.375
16.875 -37.425 -0.075
16.875 -37.425 0.075
16.875 -37.425 0.525
16.875 -37.425 -0.225
16.875 -37.425 -0.675
22.125 -41.925 0.975
22.125 -41.925 0.225
21.225 -41.925 0.375
16.875 -37.575 -0.225
16.875 -37.575 0.075
16.875 -37.575 -0.075
16.875 -36.675 1.125
26.025 -39.225 0.975
18.825 -41.025 0.225
18.825 -41.025 0.675
18.825 -41.025 0.825
18.825 -41.025 -0.075
23.775 -41.475 -0.375
19.575 -41.475 0.075
17.775 -39.975 -0.825
17.775 -39.975 -0.675
22.275 -41.925 0.075
22.275 -41.925 0.675
22.275 -41.925 -0.225
17.475 -39.525 -0.825
17.475 -39.525 -1.125
17.475 -39.525 -0.975
16.875 -37.725 -0.375
16.875 -37.725 -0.225
16.875 -37.725 0.075
16.875 -37.725 0.375
26.475 -37.725 0.975
16.875 -36.525 0.675
16.875 -36.525 0.975
24.075 -41.325 0.225
24.075 -41.325 -0.225
19.275 -41.325 0.525
23.025 -41.775 -0.525
20.325 -41.775 -0.075
26.175 -38.925 0.825
26.175 -38.925 0.375
17.175 -38.925 -0.675
23.475 -41.625 -0.375
19.875 -41.625 -0.675
19.875 -41.625 -0.075
19.875 -41.625 0.075
23.475 -41.625 -1.125
23.475 -41.625 -0.525
22.425 -41.925 0.675
22.425 -41.925 0.525
22.425 -41.925 0.075
20.925 -41.925 -0.825
16.875 -37.875 0.075
16.875 -37.875 -0.225
16.875 -36.375 0.675
18.975 -41.175 1.125
18.975 -41.175 -0.525
18.975 -41.175 -0.825
18.975 -41.175 -0.075
17.625 -39.825 -1.125
18.225 -40.575 -0.825
18.225 -40.575 -0.225
22.575 -41.925 -0.225
22.575 -41.925 -0.525
22.575 -41.925 1.575
22.575 -41.925 0.225
18.075 -40.425 -1.125
16.875 -38.025 -0.225
16.875 -36.225 -0.075
18.375 -40.725 -1.125
20.175 -41.775 -0.075
17.025 -38.625 -0.225
17.925 -40.275 -0.975
17.325 -34.875 0.825
18.525 -40.875 -1.725
18.525 -40.875 0.675
18.525 -40.875 -0.075
23.925 -41.475 -0.375
19.425 -41.475 -0.675
23.625 -41.625 -0.675
19.725 -41.625 0.075
19.725 -41.625 -0.975
26.175 -39.075 0.225
17.175 -35.175 0.825
17.475 -39.675 -0.975
16.875 -38.175 -0.225
16.875 -38.175 -0.375
16.875 -36.075 0.075
19.125 -41.325 -0.975
19.125 -41.325 -0.675
19.125 -41.325 -0.825
19.125 -41.325 0.225
19.125 -41.325 -0.375
24.225 -41.325 -1.125
18.675 -41.025 0.375
18.675 -41.025 0.225
18.675 -41.025 -0.075
23.325 -41.775 1.275
23.325 -41.775 -0.375
20.025 -41.775 0.975
20.025 -41.775 -0.675
20.025 -41.775 0.075
16.875 -38.325 -1.125
16.875 -35.925 -0.225
16.875 -35.925 0.975
16.725 -37.125 0.075
16.725 -37.125 0.525
16.725 -37.125 0.225
16.725 -37.125 0.375
24.525 -41.175 0.225
18.825 -41.175 0.375
16.725 -37.275 0.075
16.725 -36.975 0.675
16.725 -36.975 0.825
16.725 -36.975 0.225
16.725 -36.975 0.525
17.625 -39.975 -0.975
16.725 -36.825 0.075
16.725 -36.825 0.525
16.725 -37.425 0.075
16.725 -37.425 -0.075
23.775 -41.625 -0.825
26.175 -39.225 0.975
19.575 -41.625 1.125
17.175 -39.225 -0.825
19.275 -41.475 1.275
19.275 -41.475 0.825
19.275 -41.475 -0.825
16.725 -36.675 0.825
16.725 -37.575 0.225
16.725 -36.675 0.375
16.725 -37.575 -0.225
23.025 -41.925 0.975
23.025 -41.925 -0.675
20.325 -41.925 -0.825
23.475 -41.775 -0.525
23.475 -41.775 -1.125
23.475 -41.775 -0.675
16.725 -36.525 0.825
16.725 -37.725 -0.525
16.725 -37.725 0.375
16.725 -37.725 0.225
26.625 -37.725 0.675
16.875 -38.475 -0.525
16.875 -38.475 0.075
17.025 -38.925 -1.575
16.875 -35.775 0.375
22.275 -42.075 1.125
18.075 -40.575 -0.675
18.075 -40.575 -0.225
17.475 -39.825 -0.825
18.975 -41.325 0.075
24.375 -41.325 0.225
18.375 -40.875 0.825
18.375 -40.875 0.675
18.375 -40.875 -1.275
18.375 -40.875 0.975
16.725 -36.375 0.975
16.725 -37.875 -0.375
22.425 -42.075 0.075
22.425 -42.075 -0.675
22.425 -42.075 0.225
24.825 -41.025 0.375
18.525 -41.025 -0.825
18.525 -41.025 -0.675
18.525 -41.025 0.225
18.525 -41.025 0.675
17.775 -40.275 -1.275
23.175 -41.925 -0.225
16.725 -38.025 -0.075
16.725 -38.025 -0.375
26.175 -39.375 0.675
19.425 -41.625 0.075
22.575 -42.075 0.225
18.675 -41.175 -0.375
17.625 -40.125 -1.125
17.625 -40.125 -1.275
19.725 -41.775 -0.225
17.325 -39.675 -0.975
19.125 -41.475 0.825
17.025 -35.175 1.125
16.725 -38.175 0.075
16.725 -38.175 -0.825
22.725 -42.075 0.225
22.725 -42.075 -1.425
22.725 -42.075 -0.225
16.875 -35.475 0.225
17.475 -39.975 -0.525
18.825 -41.325 -0.825
18.825 -41.325 0.075
18.075 -40.725 -0.075
18.075 -40.725 0.225
16.725 -38.325 -1.275
22.875 -42.075 -0.825
22.875 -42.075 -0.975
22.875 -42.075 -0.525
18.225 -40.875 0.975
18.225 -40.875 -0.375
18.225 -40.875 0.675
17.925 -40.575 0.225
17.925 -40.575 -0.825
17.925 -40.575 -0.075
17.925 -40.575 -0.525
26.175 -39.525 0.825
26.175 -39.525 1.125
26.175 -39.525 1.875
26.175 -39.525 0.975
17.175 -39.525 -0.975
19.275 -41.625 0.075
16.575 -37.125 0.375
16.575 -37.125 0.525
23.775 -41.775 -0.675
26.775 -36.975 0.375
26.325 -39.225 0.825
26.325 -39.225 0.525
26.325 -39.225 0.225
19.575 -41.775 -0.075
16.575 -36.975 0.075
16.575 -36.975 0.675
16.575 -37.275 0.675
16.575 -37.275 0.375
16.575 -37.275 0.225
16.575 -37.275 0.075
17.025 -35.025 0.525
18.375 -41.025 1.425
18.375 -41.025 0.225
16.575 -36.825 -0.075
16.575 -37.425 0.225
21.975 -42.225 0.075
21.375 -42.225 0.225
18.975 -41.475 -0.525
16.575 -37.575 -0.525
16.575 -37.575 -0.375
16.575 -36.675 -0.075
16.575 -36.675 0.675
17.325 -39.825 -0.825
19.875 -41.925 -0.525
16.875 -35.325 -0.075
18.525 -41.175 -0.375
18.525 -41.175 -0.675
17.625 -40.275 -0.225
16.725 -35.775 0.075
16.725 -35.775 0.675
16.725 -38.475 0.075
23.025 -42.075 -0.975
16.575 -37.725 -0.225
16.575 -37.725 -0.075
16.575 -36.525 0.525
16.575 -37.875 -0.375
20.925 -42.225 -0.525
16.575 -37.875 -0.675
16.575 -36.375 0.675
16.575 -36.375 -0.075
17.475 -40.125 -0.675
17.475 -40.125 -0.975
18.675 -41.325 0.075
26.325 -39.375 0.675
26.325 -39.375 0.825
19.425 -41.775 0.075
19.425 -41.775 -0.075
26.175 -39.675 0.975
16.725 -35.625 0.075
19.125 -41.625 0.075
20.175 -42.075 -0.675
20.175 -42.075 -0.525
16.575 -38.025 0.075
16.575 -38.025 -0.375
16.575 -38.025 -0.225
16.575 -36.225 0.675
16.575 -36.225 0.225
16.575 -36.225 -0.075
20.775 -42.225 -0.525
19.725 -41.925 -0.375
23.625 -41.925 -0.375
17.925 -40.725 -1.125
17.925 -40.725 0.525
17.925 -40.725 0.075
17.925 -40.725 0.825
18.075 -40.875 0.975
18.075 -40.875 0.375
18.075 -40.875 -1.125
17.925 -40.725 0.675
24.525 -41.475 -0.075
17.325 -39.975 -0.375
17.325 -39.975 -0.975
17.325 -39.975 -0.825
18.225 -41.025 1.125
16.575 -38.175 -0.525
16.575 -38.175 -0.225
16.575 -38.175 -1.125
22.725 -42.225 0.225
17.775 -40.575 0.225
17.775 -40.575 -0.525
18.375 -41.175 0.225
24.075 -41.775 -0.225
24.075 -41.775 -0.675
19.275 -41.775 -2.475
19.275 -41.775 -0.675
17.025 -34.725 0.375
17.025 -34.725 -0.675
23.775 -41.925 -0.675
23.775 -41.925 -0.525
22.875 -42.225 0.075
26.475 -39.225 0.375
26.475 -39.225 0.525
16.575 -38.325 -1.125
16.575 -38.325 -0.675
16.575 -38.325 -0.525
18.975 -41.625 -0.825
26.175 -39.825 0.975
17.175 -39.825 -0.075
17.475 -40.275 -0.975
18.525 -41.325 -0.375
16.425 -37.275 -0.525
16.425 -36.975 0.825
16.425 -37.275 0.525
16.425 -37.275 -0.375
16.425 -37.425 0.225
16.425 -37.425 0.675
16.425 -37.425 -0.075
23.475 -42.075 -1.125
22.125 -42.375 -1.575
22.125 -42.375 1.275
16.425 -36.675 0.825
16.425 -36.675 1.575
16.425 -37.575 -0.375
16.425 -36.675 0.675
23.025 -42.225 0.675
23.025 -42.225 1.125
16.575 -38.475 -0.525
16.425 -36.525 -0.225
16.425 -36.525 -0.375
16.425 -36.525 0.375
16.425 -36.525 0.675
16.425 -37.725 0.375
16.425 -37.725 -0.375
16.425 -37.725 -0.825
16.425 -37.725 -0.075
16.425 -37.725 -0.675
24.675 -41.475 -0.225
19.425 -41.925 -0.375
17.925 -40.875 0.225
16.425 -37.875 -0.225
16.425 -37.875 -0.525
16.425 -36.375 1.125
16.425 -36.375 0.525
17.025 -39.675 -0.975
17.025 -39.675 -0.675
18.075 -41.025 1.125
18.075 -41.025 0.525
18.075 -41.025 -0.675
17.775 -40.725 0.375
17.775 -40.725 -0.675
17.775 -40.725 0.825
20.175 -42.225 -0.075
20.175 -42.225 -0.375
18.225 -41.175 0.225
18.225 -41.175 -0.375
17.625 -40.575 0.675
17.625 -40.575 0.825
17.625 -40.575 0.975
19.725 -42.075 -0.975
24.525 -41.625 -0.525
24.525 -41.625 -0.675
24.525 -41.625 -0.075
16.425 -38.025 -0.525
16.425 -36.225 1.275
17.175 -39.975 -0.975
17.175 -39.975 0.375
18.825 -41.625 0.525
25.875 -40.425 2.025
17.475 -40.425 -0.825
17.475 -40.425 0.825
18.375 -41.325 -0.225
18.375 -41.325 -0.675
16.425 -38.175 -0.375
22.725 -42.375 0.225
20.625 -42.375 -0.075
16.575 -35.475 0.225
16.575 -35.475 1.125
24.075 -41.925 -0.075
19.275 -41.925 -0.075
17.325 -40.275 0.225
17.325 -40.275 -0.825
17.325 -40.275 -1.425
18.525 -41.475 0.075
18.525 -41.475 1.275
18.975 -41.775 -0.075
18.975 -41.775 -1.875
23.775 -42.075 -0.525
23.775 -42.075 0.825
17.025 -39.825 -0.375
22.875 -42.375 0.075
22.875 -42.375 0.225
20.475 -42.375 -0.525
16.425 -38.325 -0.525
16.425 -35.925 0.225
16.425 -35.925 -0.075
16.425 -35.925 0.975
21.675 -42.525 -1.425
16.275 -37.125 0.075
16.275 -37.275 0.225
16.275 -36.975 0.075
16.275 -37.275 0.375
16.275 -37.275 0.825
16.275 -36.975 0.225
16.275 -36.975 0.525
21.975 -42.525 -0.075
21.975 -42.525 -0.675
17.175 -40.125 -0.675
18.675 -41.625 -0.075
16.575 -38.925 -0.375
19.875 -42.225 -1.275
19.875 -42.225 -0.525
16.275 -37.425 0.225
16.275 -37.425 -0.075
16.275 -37.425 -0.225
16.275 -37.425 -0.525
17.925 -41.025 -0.225
17.775 -40.875 0.225
17.775 -40.875 -0.825
22.125 -42.525 0.075
18.075 -41.175 0.225
17.625 -40.725 -0.675
17.625 -40.725 1.275
17.625 -40.725 0.225
16.275 -37.575 -0.225
16.275 -37.575 0.675
23.025 -42.375 0.825
23.025 -42.375 0.225
20.325 -42.375 -0.975
22.275 -42.525 0.375
16.275 -37.725 -0.825
16.275 -37.725 -0.075
19.125 -41.925 -0.525
24.225 -41.925 -0.975
16.875 -34.575 -0.075
17.475 -40.575 -0.375
17.475 -40.575 1.275
16.725 -34.875 0.225
19.425 -42.075 -0.825
19.425 -42.075 -1.125
23.925 -42.075 -0.075
23.925 -42.075 0.225
20.925 -42.525 -0.225
20.925 -42.525 -1.275
20.925 -42.525 -0.075
16.275 -36.375 -0.075
16.275 -36.375 0.225
16.275 -37.875 -0.225
18.825 -41.775 -0.075
17.025 -39.975 -0.975
17.025 -39.975 -0.525
17.325 -40.425 0.375
17.325 -40.425 0.225
17.325 -40.425 -0.075
17.325 -40.425 0.975
16.425 -38.625 -0.075
23.175 -42.375 0.825
23.625 -42.225 0.075
23.625 -42.225 -0.075
18.375 -41.475 0.075
16.575 -39.075 -0.225
16.275 -38.025 -0.075
16.275 -38.025 -0.375
16.275 -38.025 -0.225
26.175 -40.275 -0.075
17.175 -40.275 -2.175
17.175 -40.275 0.675
26.175 -40.275 -0.225
26.175 -40.275 0.225
26.175 -40.275 1.275
18.525 -41.625 -0.225
22.725 -42.525 1.275
22.725 -42.525 -0.825
20.625 -42.525 0.225
16.725 -34.725 0.075
16.725 -39.525 1.275
16.725 -39.525 0.225
16.275 -38.175 0.075
16.275 -38.175 -0.375
16.275 -38.175 -0.525
16.425 -35.475 0.975
23.325 -42.375 0.825
18.975 -41.925 -1.875
26.475 -39.825 0.825
17.775 -41.025 -0.525
23.775 -42.225 -0.825
23.775 -42.225 -0.675
23.775 -42.225 -0.525
16.575 -35.025 -0.975
16.575 -35.025 0.675
17.625 -40.875 -0.075
17.625 -40.875 -0.975
17.625 -40.875 -0.225
17.625 -40.875 0.225
22.875 -42.525 0.225
20.475 -42.525 -0.525
17.475 -40.725 -0.675
17.475 -40.725 0.225
16.275 -35.925 0.975
26.325 -40.125 0.075
18.675 -41.775 0.675
18.675 -41.775 -0.225
16.425 -35.325 0.375
23.475 -42.375 -0.375
16.125 -37.125 1.125
16.125 -37.125 -0.225
16.125 -37.125 0.075
26.025 -40.575 1.875
26.025 -40.575 2.925
16.125 -37.275 0.825
16.125 -37.275 -0.525
16.125 -37.275 0.675
16.125 -37.275 0.075
16.125 -36.975 0.825
16.125 -36.975 0.675
18.225 -41.475 0.525
17.325 -40.575 -0.975
16.125 -36.825 0.525
16.125 -36.825 0.225
16.125 -36.825 0.825
16.125 -36.825 -0.075
16.125 -36.825 -0.225
16.125 -37.425 -0.225
16.125 -37.425 0.375
16.125 -37.425 0.675
23.025 -42.525 0.225
23.025 -42.525 0.675
23.025 -42.525 1.275
16.275 -38.475 -0.975
22.125 -42.675 0.225
26.625 -39.675 -0.075
16.725 -34.575 -0.375
16.125 -36.675 0.675
16.125 -36.675 0.375
16.125 -37.575 0.075
16.125 -37.575 -0.525
24.225 -42.075 -0.825
24.225 -42.075 -0.975
23.925 -42.225 0.375
23.925 -42.225 -0.825
17.175 -40.425 -0.225
17.175 -40.425 0.225
18.375 -41.625 -0.525
18.375 -41.625 0.525
18.375 -41.625 0.975
24.975 -41.625 -0.375
24.525 -41.925 0.075
24.525 -41.925 0.825
22.275 -42.675 0.075
21.075 -42.675 -0.225
18.825 -41.925 -0.075
16.125 -37.725 -0.375
16.875 -39.975 -0.675
16.875 -39.975 -1.875
22.425 -42.675 0.525
22.425 -42.675 0.225
23.625 -42.375 -0.375
16.125 -36.375 1.275
16.125 -37.875 -0.225
16.125 -37.875 -0.675
16.425 -35.175 0.375
23.175 -42.525 0.825
23.175 -42.525 -0.525
23.175 -42.525 0.975
23.175 -42.525 0.225
16.275 -38.625 -0.825
26.325 -40.275 1.275
26.325 -40.275 0.375
24.825 -41.775 -0.675
24.825 -41.775 -0.525
24.825 -41.775 -0.375
18.525 -41.775 -0.225
18.525 -41.775 0.375
18.525 -41.775 -1.725
17.025 -40.275 0.675
22.575 -42.675 -1.125
22.575 -42.675 -0.975
17.625 -41.025 -0.075
17.775 -41.175 0.075
17.775 -41.175 -0.075
16.125 -38.025 -0.525
16.125 -38.025 -0.375
16.125 -38.025 0.225
17.475 -40.875 0.225
17.475 -40.875 -0.225
17.925 -41.325 0.225
24.075 -42.225 1.725
16.575 -39.525 0.825
19.275 -42.225 -0.675
16.725 -39.825 2.475
16.725 -39.825 0.075
26.025 -40.725 1.575
26.025 -40.725 1.875
16.275 -38.775 -0.375
16.275 -38.775 -1.125
17.325 -40.725 -0.525
17.325 -40.725 0.225
17.325 -40.725 -0.975
23.775 -42.375 0.225
23.775 -42.375 -0.525
16.875 -40.125 -0.075
16.875 -40.125 0.225
26.475 -40.125 0.825
26.475 -40.125 0.675
17.175 -40.575 -1.125
26.175 -40.575 1.275
16.125 -38.325 0.075
16.125 -38.325 -0.075
23.475 -42.525 -0.675
21.675 -42.825 -0.225
26.325 -40.425 1.275
18.375 -41.775 -0.975
24.975 -41.775 -0.975
17.025 -40.425 1.275
17.025 -40.425 -0.225
17.025 -40.425 0.225
15.975 -36.975 0.525
15.975 -36.975 -0.075
21.825 -42.825 -0.075
21.525 -42.825 0.075
15.975 -36.825 0.675
15.975 -37.425 -0.375
15.975 -37.425 0.075
15.975 -37.425 0.225
21.975 -42.825 -0.225
23.025 -42.675 0.375
23.025 -42.675 0.225
23.025 -42.675 1.275
16.725 -39.975 0.675
16.725 -39.975 0.525
23.925 -42.375 0.075
26.625 -39.975 -0.225
26.625 -39.975 0.825
16.125 -38.475 -0.225
16.125 -38.475 0.225
18.825 -42.075 0.075
15.975 -36.675 -0.075
15.975 -36.675 0.225
15.975 -37.575 -0.525
15.975 -37.575 0.075
21.225 -42.825 0.225
21.225 -42.825 0.075
22.125 -42.825 0.075
17.625 -41.175 0.525
17.475 -41.025 0.225
15.975 -36.525 0.525
15.975 -36.525 0.075
15.975 -37.725 -0.525
21.075 -42.825 -0.075
17.775 -41.325 0.225
17.775 -41.325 0.075
23.625 -42.525 -0.675
16.875 -40.275 -1.125
16.875 -40.275 0.675
16.875 -40.275 0.225
26.475 -40.275 0.525
26.475 -40.275 0.825
26.025 -40.875 1.875
17.325 -40.875 -0.675
17.925 -41.475 0.225
17.925 -41.475 -0.075
23.175 -42.675 0.225
23.175 -42.675 0.825
23.175 -42.675 0.675
15.975 -37.875 -0.825
15.975 -37.875 -0.075
20.925 -42.825 -0.225
26.175 -40.725 1.575
17.175 -40.725 0.075
18.075 -41.625 -0.975
17.175 -40.725 -0.525
26.775 -39.825 -0.375
15.975 -38.025 -0.075
15.975 -38.025 0.075
15.975 -38.025 -0.975
22.575 -42.825 0.225
22.575 -42.825 0.375
16.425 -34.725 1.725
19.275 -42.375 -1.275
16.725 -40.125 0.675
16.725 -40.125 0.225
16.725 -40.125 0.975
26.625 -40.125 1.125
24.675 -42.075 -1.125
23.325 -42.675 -0.075
26.325 -40.575 0.675
26.325 -40.575 0.975
16.125 -38.775 -0.525
26.325 -40.575 1.275
19.575 -42.525 -0.225
15.975 -36.075 -0.075
15.975 -38.175 -0.825
16.875 -40.425 0.075
16.875 -40.425 0.225
26.475 -40.425 0.675
15.975 -38.325 -0.675
15.975 -38.325 -0.525
15.975 -38.325 -0.225
20.475 -42.825 -0.225
17.475 -41.175 -0.075
17.475 -41.175 0.525
23.475 -42.675 -0.075
16.425 -39.675 -0.225
26.775 -39.975 0.075
17.325 -41.025 -1.125
17.325 -41.025 -0.525
17.325 -41.025 0.225
16.575 -39.975 -0.825
16.575 -39.975 0.825
17.775 -41.475 0.075
23.925 -42.525 -1.425
15.825 -37.125 0.525
15.825 -37.125 -0.225
15.825 -37.125 0.075
16.275 -39.375 -0.225
16.275 -39.375 -0.525
16.275 -39.375 0.675
15.825 -36.975 -0.375
15.825 -36.975 0.825
15.825 -36.975 0.075
15.825 -36.975 -0.825
15.825 -36.975 -0.225
15.825 -36.975 0.525
15.825 -37.275 1.275
15.825 -37.275 0.075
15.825 -37.275 -0.375
15.825 -37.275 -0.525
15.825 -37.275 -0.225
17.925 -41.625 -1.125
15.825 -36.825 0.525
15.825 -36.825 0.375
15.825 -36.825 -0.225
15.825 -37.425 -0.525
15.825 -37.425 0.825
15.825 -37.425 0.075
15.975 -35.775 -0.225
23.025 -42.825 0.675
21.975 -42.975 0.525
21.375 -42.975 0.225
16.725 -40.275 0.375
16.725 -40.275 -0.525
26.625 -40.275 0.525
26.625 -40.275 0.675
15.825 -36.675 -0.675
15.825 -36.675 0.825
15.825 -37.575 -0.675
15.825 -37.575 -0.225
15.825 -37.575 -0.075
21.225 -42.975 0.075
18.525 -42.075 -1.125
18.525 -42.075 -0.675
15.825 -36.525 -0.375
15.825 -36.525 -0.075
15.825 -37.725 -1.125
22.275 -42.975 -0.075
21.075 -42.975 -0.375
17.025 -40.725 0.225
17.025 -40.725 -0.675
23.625 -42.675 0.225
15.975 -38.625 -0.375
23.175 -42.825 0.225
23.175 -42.825 0.375
23.175 -42.825 0.825
23.175 -42.825 1.125
15.825 -37.875 -0.075
15.825 -37.875 -1.125
22.425 -42.975 0.075
20.925 -42.975 -0.075
16.425 -39.825 -0.525
16.425 -39.825 -0.075
16.425 -39.825 0.975
16.425 -39.825 0.225
24.075 -42.525 -0.075
16.275 -34.725 -0.225
16.275 -34.725 1.275
16.275 -39.525 -0.975
26.475 -40.575 1.275
26.475 -40.575 0.975
16.575 -40.125 1.275
16.575 -40.125 0.225
22.575 -42.975 0.375
15.825 -38.025 -0.975
15.825 -38.025 0.075
16.125 -35.025 -0.225
23.325 -42.825 0.075
23.325 -42.825 0.825
23.325 -42.825 0.375
17.475 -41.325 -0.225
17.325 -41.175 0.075
15.825 -38.175 -0.675
15.825 -38.175 -1.125
22.725 -42.975 0.375
17.625 -41.475 -0.225
17.625 -41.475 0.225
16.725 -40.425 -0.225
16.725 -40.425 -0.975
16.725 -40.425 0.225
26.625 -40.425 2.925
17.175 -41.025 -0.525
17.175 -41.025 0.225
19.125 -42.525 -0.825
24.225 -42.525 -0.825
16.275 -39.675 0.675
16.275 -34.575 0.075
22.875 -42.975 0.225
15.825 -38.325 -0.675
15.825 -38.325 0.225
24.525 -42.375 -0.825
16.425 -39.975 0.225
17.025 -40.875 -0.825
17.025 -40.875 -0.375
23.475 -42.825 -0.375
23.475 -42.825 1.575
23.925 -42.675 -2.025
16.125 -34.875 -0.225
16.575 -40.275 0.975
15.675 -37.125 -0.075
21.675 -43.125 0.225
15.675 -37.125 -0.375
16.875 -40.725 0.225
15.675 -36.975 0.375
15.675 -36.975 -0.675
15.675 -36.975 -0.525
15.675 -37.275 -0.975
15.675 -37.275 0.375
15.675 -37.275 -0.375
15.675 -37.275 -0.675
23.025 -42.975 1.275
15.825 -38.475 -1.125
15.675 -37.425 0.525
15.675 -36.825 0.825
15.675 -36.825 0.525
15.675 -36.825 0.225
15.675 -37.425 -1.125
15.675 -37.425 -0.225
15.675 -37.575 -0.225
15.675 -36.675 0.675
15.675 -37.575 -0.825
15.675 -37.575 0.075
15.675 -37.575 -0.525
15.675 -36.675 0.525
22.125 -43.125 0.225
22.125 -43.125 -0.525
23.625 -42.825 -0.075
15.675 -36.525 -0.075
15.675 -37.725 -0.675
15.675 -37.725 0.225
21.075 -43.125 0.075
15.675 -36.525 1.275
22.275 -43.125 -0.975
26.625 -40.575 0.225
26.625 -40.575 1.875
18.975 -42.525 -2.925
24.375 -42.525 -1.125
16.275 -39.825 0.225
23.175 -42.975 0.675
23.175 -42.975 0.375
15.825 -38.625 0.075
23.175 -42.975 0.225
24.075 -42.675 1.125
19.275 -42.675 1.575
22.425 -43.125 2.175
15.675 -37.875 -0.675
16.425 -40.125 -0.675
16.425 -40.125 0.225
15.675 -36.375 0.375
16.125 -39.525 -0.825
16.125 -39.525 0.675
15.675 -37.875 -0.225
15.675 -37.875 -0.825
17.325 -41.325 -0.375
25.725 -41.625 0.075
15.675 -38.025 -0.825
15.675 -38.025 0.225
17.025 -41.025 0.375
26.775 -40.425 0.825
26.775 -40.425 0.375
23.775 -42.825 -0.075
18.375 -42.225 -0.525
23.325 -42.975 0.825
23.325 -42.975 0.375
23.325 -42.975 0.225
15.675 -38.175 -0.675
20.625 -43.125 -0.075
20.625 -43.125 -0.225
20.625 -43.125 0.075
16.275 -39.975 -0.825
16.275 -39.975 1.275
16.275 -39.975 -0.675
16.275 -39.975 -0.525
20.475 -43.125 -0.075
15.675 -38.325 -0.225
16.725 -40.725 0.375
23.475 -42.975 -1.725
23.475 -42.975 -1.575
18.075 -42.075 -0.675
26.925 -40.275 0.225
15.975 -34.875 -0.225
15.975 -39.375 -0.675
15.675 -38.475 -0.375
15.675 -38.475 -1.125
15.675 -38.475 -0.975
15.525 -37.125 0.525
15.525 -37.125 -0.525
15.525 -37.125 -0.075
21.825 -43.275 0.975
15.525 -36.975 -0.225
15.525 -37.275 -0.525
15.525 -37.275 -0.825
15.525 -37.275 0.375
15.525 -36.975 0.075
15.525 -36.975 -0.825
15.525 -36.975 -0.675
