# .PCD v0.7 - Point Cloud Data file format
VERSION 0.7
FIELDS x y z
SIZE 4 4 4
TYPE F F F
COUNT 1 1 1
WIDTH 2048
HEIGHT 1
VIEWPOINT 0 0 0 1 0 0 0
POINTS 2048
DATA ascii
20.475 11.775 1.725
19.725 10.425 0.825
21.225 14.325 0.375
22.875 11.325 1.125
23.025 11.175 0.825
21.675 14.475 -0.075
23.025 12.975 0.825
20.625 15.075 -1.275
23.325 12.525 0.825
23.325 10.425 0.075
23.625 12.375 0.675
23.475 10.425 0.525
23.625 10.875 0.525
23.775 12.525 0.675
24.075 10.425 0.075
24.225 10.425 -0.225
22.725 8.025 -0.075
23.775 9.075 -0.825
23.475 8.625 -0.075
23.475 15.075 1.275
21.375 16.425 -3.375
23.625 14.925 0.975
23.325 15.375 -0.075
23.475 8.325 0.375
23.625 15.075 0.375
21.525 16.575 -3.525
23.475 15.375 1.725
23.475 15.375 1.275
23.475 15.375 1.125
23.625 15.225 1.275
23.325 15.525 2.025
23.625 15.225 1.575
23.325 15.525 -0.075
23.625 15.225 1.725
23.325 15.525 1.875
23.625 15.225 1.425
23.775 15.075 1.275
24.225 9.075 -0.225
21.675 16.575 -0.225
23.025 7.725 -0.225
22.875 7.575 -0.075
22.125 16.425 0.375
24.375 14.325 -0.225
23.625 8.175 -0.075
23.625 15.375 2.175
23.625 15.375 0.225
22.725 16.125 0.675
23.775 15.225 1.725
23.775 15.225 1.275
23.775 15.225 1.425
23.775 8.325 0.675
24.975 12.825 2.175
21.975 16.575 0.675
19.875 17.025 -2.175
23.625 15.525 1.725
23.625 15.525 2.625
23.625 15.525 1.875
23.625 15.525 0.975
23.775 15.375 1.575
23.775 15.375 1.425
23.775 15.375 1.725
23.475 15.675 1.875
23.925 15.225 1.125
23.925 15.225 0.525
23.925 8.325 0.225
23.925 8.325 -0.525
24.075 8.475 -0.075
23.175 7.575 0.075
23.775 15.525 1.875
23.775 15.525 1.425
23.775 15.525 1.575
23.775 15.525 1.725
23.625 15.675 1.725
23.625 15.675 1.125
23.625 15.675 1.575
19.425 6.375 0.825
23.925 15.375 1.125
23.925 15.375 1.725
23.925 15.375 1.275
23.475 15.825 2.025
23.925 15.375 1.425
24.075 15.225 0.975
24.675 14.325 5.025
24.675 9.225 -0.225
23.025 7.275 1.425
20.925 6.375 0.375
23.775 15.675 1.725
23.775 15.675 1.575
24.975 13.875 4.875
24.975 9.675 -0.525
23.625 15.825 1.575
23.625 15.825 2.025
23.625 15.825 1.725
23.625 15.825 1.425
23.925 15.525 1.425
23.925 15.525 1.575
24.075 8.175 -0.525
24.075 15.375 2.025
24.075 15.375 1.575
23.475 15.975 1.875
23.475 15.975 2.775
24.525 8.775 0.075
24.825 9.225 0.075
19.425 6.225 0.525
22.125 16.875 0.075
24.375 8.475 0.375
25.125 9.825 -0.375
24.525 8.625 0.375
23.775 15.825 2.475
23.775 15.825 1.725
23.775 15.825 1.575
23.775 15.825 1.875
23.775 15.825 -1.125
23.925 15.675 0.675
23.925 15.675 1.875
23.925 15.675 1.725
23.925 15.675 2.025
24.075 15.525 0.525
23.625 15.975 2.175
23.625 15.975 1.425
24.075 15.525 1.725
24.975 9.375 -0.375
22.575 6.825 0.225
22.575 6.825 -0.075
23.475 16.125 2.475
24.225 15.375 1.275
24.225 15.375 1.575
25.125 9.675 -0.075
24.675 8.775 2.475
24.675 14.775 0.225
24.375 8.325 -0.375
24.375 8.325 0.075
25.275 9.975 -0.525
22.425 6.675 2.025
24.975 9.225 0.375
25.125 9.525 2.025
23.925 15.825 2.025
23.925 15.825 0.075
23.925 15.825 1.575
23.925 15.825 1.875
23.925 15.825 1.725
23.925 15.825 1.125
23.775 15.975 1.725
23.775 15.975 2.325
24.075 15.675 1.725
23.625 16.125 1.875
23.625 16.125 2.175
24.225 15.525 0.975
24.375 8.175 0.075
24.375 8.175 -0.375
25.575 10.875 -0.825
22.575 6.675 -1.575
24.975 9.075 0.225
22.275 6.525 1.875
21.525 6.225 -0.525
21.975 6.375 0.975
25.575 12.975 2.325
24.675 15.075 0.975
24.675 8.475 -0.525
24.075 15.825 2.175
24.075 15.825 1.725
23.925 15.975 1.725
25.425 9.975 0.075
22.425 17.025 0.225
22.425 17.025 0.075
23.775 16.125 2.175
23.775 16.125 1.725
23.775 16.125 2.025
24.225 7.875 -0.225
24.225 7.875 -0.675
24.225 7.875 -0.375
25.275 9.525 -0.675
22.125 6.375 0.975
22.125 6.375 1.425
25.575 10.425 -0.225
24.375 15.525 1.125
24.825 8.625 0.075
24.525 8.175 0.225
24.525 8.175 -0.075
25.725 11.175 -0.825
21.825 6.225 1.125
25.425 9.825 1.875
22.575 6.525 2.025
25.125 9.075 0.225
25.275 9.375 1.725
22.275 6.375 0.825
22.275 17.175 0.675
24.675 8.325 -0.375
24.675 8.325 -0.225
24.975 8.775 -0.075
24.975 14.775 0.525
24.975 14.775 0.225
21.975 6.225 2.025
24.075 15.975 2.175
24.075 7.575 0.375
23.925 16.125 2.025
23.925 16.125 2.175
23.925 16.125 1.875
23.925 16.125 2.325
24.225 7.725 0.675
24.825 15.075 0.375
24.825 8.475 -0.525
24.825 8.475 0.225
23.775 16.275 2.475
24.375 7.875 -0.075
24.375 7.875 -0.375
24.375 15.675 0.675
25.275 14.325 0.675
25.275 9.225 -0.075
22.425 6.375 1.425
22.425 6.375 2.175
22.425 6.375 1.875
22.425 6.375 1.725
25.725 10.575 -0.525
22.725 17.025 0.375
25.125 14.625 0.225
25.575 9.975 1.575
25.575 9.975 -0.675
25.425 9.525 -0.075
24.975 8.625 -0.225
24.975 14.925 0.375
24.675 8.175 -0.375
24.675 8.175 -0.825
24.675 8.175 0.675
20.025 17.775 -2.925
21.225 5.925 -0.225
25.725 10.425 -0.525
25.875 11.325 2.775
25.575 13.725 2.025
23.325 16.725 3.825
25.275 14.475 0.525
25.275 9.075 0.225
22.575 6.375 1.575
22.575 6.375 1.275
22.575 6.375 1.425
25.125 14.775 0.225
22.275 6.225 1.575
24.075 7.425 -0.075
24.075 7.425 0.525
24.075 7.425 -1.275
22.275 6.225 2.025
22.275 6.225 1.275
22.275 6.225 1.425
25.125 8.775 -0.675
22.275 6.225 -0.375
24.225 7.575 0.525
25.425 14.175 0.675
25.425 14.175 0.825
24.375 7.725 0.075
25.875 10.875 -1.125
23.775 16.425 2.775
24.525 15.675 1.725
25.575 13.875 0.375
25.575 13.875 0.975
25.575 13.875 0.225
24.975 15.075 0.225
21.975 6.075 1.425
21.975 6.075 1.125
24.975 8.475 -0.975
23.625 6.975 0.225
24.675 8.025 -0.525
24.675 8.025 0.975
24.675 8.025 -0.225
25.275 8.925 -1.425
22.725 6.375 2.025
22.725 6.375 1.725
22.425 17.325 -0.225
25.425 14.325 0.675
25.425 14.325 0.525
22.425 6.225 1.875
22.425 6.225 1.425
22.425 6.225 2.175
22.425 6.225 1.725
22.425 6.225 1.275
22.425 6.225 1.575
25.875 10.575 -0.375
24.825 8.175 -0.225
24.825 8.175 -0.075
21.675 5.925 5.475
25.725 9.975 -0.225
25.725 9.975 1.725
25.125 8.625 -0.225
25.125 8.625 -0.525
25.125 14.925 0.825
22.125 6.075 0.225
22.125 6.075 1.575
22.125 6.075 1.125
22.125 6.075 0.075
22.125 6.075 1.725
25.875 10.425 -0.525
24.225 7.425 0.075
24.075 7.275 0.375
24.075 7.275 -0.225
24.375 7.575 -0.075
24.375 7.575 1.275
24.375 7.575 -0.225
24.375 7.575 -1.275
24.975 8.325 0.075
24.975 8.325 0.375
21.825 5.925 5.775
23.925 7.125 1.875
25.725 9.825 -0.375
25.725 9.825 -0.225
22.575 6.225 1.575
25.425 14.475 0.525
22.575 6.225 1.275
25.425 14.475 0.075
25.425 14.475 0.375
25.425 9.075 -2.025
25.275 14.775 0.525
25.275 14.775 0.675
22.875 6.375 1.275
22.875 6.375 1.575
22.875 6.375 1.875
22.275 6.075 1.425
23.775 6.975 -0.525
22.275 6.075 -0.375
22.275 6.075 1.125
22.275 6.075 1.275
25.575 9.375 -0.225
25.575 14.175 0.375
25.575 14.175 0.675
25.125 8.475 0.225
25.125 8.475 1.275
24.825 15.525 0.225
24.825 15.525 1.575
26.025 10.875 -0.525
25.725 9.675 0.225
25.725 13.875 0.225
25.725 9.675 -0.075
25.725 9.675 -0.375
22.725 17.325 -0.075
25.425 14.625 0.375
25.425 14.625 0.675
22.725 6.225 1.575
22.725 6.225 1.275
22.725 6.225 1.425
24.975 8.175 -0.225
24.975 15.375 0.825
24.975 15.375 0.525
24.975 8.175 -0.075
24.975 8.175 -0.375
25.575 14.325 0.375
22.425 6.075 -0.375
22.425 6.075 1.575
22.425 6.075 1.425
22.425 6.075 0.975
22.425 17.475 -0.375
25.275 14.925 0.825
25.275 14.925 0.975
25.275 8.625 2.475
25.275 8.625 -0.075
25.275 14.925 0.675
23.025 17.175 0.675
24.225 7.275 0.075
24.225 7.275 2.025
24.225 7.275 -0.375
24.525 7.575 1.425
24.075 7.125 0.075
24.075 16.425 1.725
24.075 16.425 1.425
24.075 7.125 0.225
24.075 16.425 2.775
22.125 5.925 1.125
25.725 14.025 -0.075
23.925 16.575 0.675
25.125 15.225 0.075
25.125 15.225 0.525
23.325 6.525 0.525
26.025 10.425 -0.225
19.875 18.075 -3.075
24.825 7.875 -0.975
25.575 14.475 0.675
25.575 14.475 0.525
25.575 14.475 -0.375
25.575 14.475 0.225
22.575 6.075 1.425
25.575 9.075 -1.275
25.575 9.075 0.075
22.575 6.075 1.575
25.875 13.725 0.225
25.425 8.775 -0.675
25.425 14.775 0.675
25.425 14.775 0.225
22.275 5.925 1.425
22.275 5.925 1.575
25.725 9.375 -1.575
25.725 9.375 -0.225
25.725 14.175 0.375
25.275 15.075 0.825
25.275 15.075 0.225
23.175 6.375 -0.525
24.975 8.025 -0.075
24.975 8.025 0.525
24.975 8.025 0.075
25.875 13.875 -0.075
25.875 13.875 0.825
25.875 13.875 2.925
21.975 5.775 1.575
25.125 8.175 -0.075
25.125 15.375 -0.225
25.125 15.375 0.075
23.475 6.525 -0.375
24.525 16.125 0.675
18.225 17.925 0.675
24.225 7.125 -0.675
24.225 7.125 -0.075
24.225 7.125 0.225
25.575 14.625 0.675
25.575 8.925 0.825
25.575 14.625 0.825
25.575 14.625 -0.225
25.575 14.625 0.525
22.725 6.075 1.575
24.075 6.975 0.075
24.675 7.575 0.525
23.025 17.325 -0.075
22.425 5.925 0.975
25.725 14.325 -0.075
22.425 5.925 1.875
25.425 14.925 0.375
25.725 14.325 0.525
25.425 14.925 0.225
25.725 9.225 -0.075
26.175 10.725 -0.675
24.825 7.725 0.075
24.825 7.725 -0.375
24.825 7.725 1.275
23.925 6.825 0.075
25.275 15.225 -0.225
26.025 9.975 -0.225
26.025 9.975 -0.075
25.275 8.325 -0.225
25.275 8.325 -0.975
25.275 8.325 -0.075
25.875 14.025 0.375
25.875 14.025 0.675
25.875 14.025 0.075
25.875 9.525 0.825
22.125 5.775 1.425
23.775 6.675 0.225
23.775 6.675 -0.375
24.975 15.675 -0.075
24.975 15.675 0.225
24.975 7.875 0.525
24.975 7.875 -0.525
25.575 8.775 0.225
25.575 8.775 -0.075
25.575 8.775 0.075
25.575 8.775 0.825
25.575 14.775 0.525
25.575 14.775 0.375
25.575 14.775 -0.225
25.575 14.775 0.075
22.875 6.075 1.875
22.875 17.475 0.225
22.575 5.925 1.575
25.725 14.475 0.075
25.725 14.475 0.675
25.725 14.475 0.225
25.725 14.475 0.525
26.025 9.825 -0.075
21.825 5.625 0.675
25.125 8.025 -0.975
23.175 17.325 0.075
25.425 15.075 0.375
25.425 15.075 -0.075
23.175 6.225 -0.225
25.425 8.475 0.825
22.275 5.775 0.675
25.875 14.175 0.075
25.875 9.375 -0.075
24.375 7.125 0.075
24.675 7.425 -0.075
24.675 7.425 0.225
24.225 6.975 1.125
24.225 6.975 1.725
25.275 8.175 0.825
25.275 15.375 0.075
25.275 15.375 1.425
24.825 7.575 0.825
24.825 7.575 0.075
24.825 7.575 0.525
26.025 9.675 0.525
26.025 13.875 -0.075
26.025 9.675 0.825
26.025 9.675 1.125
25.725 14.625 1.425
25.725 14.625 0.225
25.725 14.625 -0.225
25.725 14.625 0.675
25.725 14.625 0.525
25.725 8.925 -0.075
25.575 8.625 0.225
25.575 8.625 0.375
25.575 8.625 0.825
25.575 14.925 0.075
25.575 8.625 -0.075
25.575 8.625 1.275
23.025 6.075 2.775
25.575 14.925 0.825
25.575 14.925 1.275
26.325 10.875 0.075
25.575 8.625 0.075
23.025 17.475 0.075
26.175 10.125 -0.075
26.175 10.125 0.825
24.975 7.725 0.075
24.975 7.725 1.275
22.425 17.775 0.375
25.875 14.325 0.075
25.875 14.325 0.525
22.425 5.775 0.975
22.425 5.775 1.425
25.875 9.225 -0.225
23.325 17.325 5.175
26.325 10.725 -0.525
25.425 15.225 0.525
23.325 6.225 -0.225
25.425 15.225 -0.825
25.425 8.325 0.825
25.425 8.325 1.425
25.425 8.325 1.275
23.775 6.525 -0.675
25.125 15.675 0.525
25.125 7.875 0.825
26.025 9.525 1.275
26.025 14.025 0.825
26.025 14.025 0.225
26.025 9.525 1.425
26.025 9.525 0.825
26.175 9.975 -0.375
26.175 9.975 0.825
26.325 10.575 0.825
26.325 10.575 2.325
25.275 8.025 1.275
25.275 8.025 0.825
25.275 8.025 0.375
25.275 15.525 0.525
25.275 8.025 -0.075
22.875 5.925 -0.525
23.625 17.175 0.225
25.725 14.775 0.225
25.725 14.775 -0.375
25.725 14.775 -0.075
25.725 8.775 0.225
25.725 14.775 1.575
25.725 14.775 0.075
25.725 8.775 -0.075
25.725 8.775 0.975
24.525 7.125 0.075
24.525 7.125 -0.075
24.525 7.125 -0.675
25.875 14.475 0.525
25.875 14.475 0.075
25.875 14.475 0.225
22.575 5.775 1.125
24.375 6.975 -1.425
24.675 7.275 -0.225
24.675 7.275 2.175
24.675 7.275 0.075
24.675 7.275 0.225
24.675 7.275 -0.075
25.875 9.075 0.075
25.875 9.075 -0.075
25.575 8.475 1.275
25.575 8.475 1.575
25.575 8.475 1.425
25.575 8.475 0.975
25.575 8.475 -0.075
25.575 8.475 -0.225
25.575 8.475 0.825
25.575 8.475 0.075
26.325 10.425 0.525
26.325 10.425 -0.075
24.825 7.425 0.525
24.825 7.425 -0.225
24.825 7.425 0.375
24.825 7.425 0.975
24.225 6.825 2.175
21.825 5.475 -0.075
26.175 9.825 1.425
26.175 9.825 1.275
26.175 9.825 -0.375
26.025 9.375 1.425
26.025 14.175 0.075
26.025 14.175 1.125
26.025 9.375 1.275
26.025 9.375 -0.075
26.025 14.175 0.975
26.025 9.375 0.825
26.025 9.375 0.225
22.275 5.625 -0.075
22.275 5.625 0.675
24.075 6.675 0.075
24.975 7.575 1.425
24.975 7.575 0.075
24.975 7.575 -0.225
25.425 8.175 0.825
25.425 8.175 -0.075
25.425 8.175 0.975
25.425 8.175 1.425
25.425 8.175 1.575
26.325 10.275 -0.225
26.325 10.275 1.275
26.325 10.275 1.425
26.325 10.275 -0.075
25.125 7.725 0.375
25.125 7.725 -0.225
25.125 7.725 -0.075
25.125 7.725 1.425
25.125 7.725 0.825
23.925 6.525 -0.675
26.175 9.675 0.975
26.175 13.875 0.075
26.175 9.675 -0.075
26.175 9.675 1.575
26.175 9.675 0.075
25.875 14.625 0.075
25.875 8.925 -0.075
25.875 8.925 1.575
22.725 5.775 0.675
26.475 11.025 -0.675
25.725 14.925 0.225
25.725 8.625 0.825
25.725 8.625 0.975
25.725 8.625 -0.075
25.725 14.925 -0.075
25.725 14.925 0.525
26.025 14.325 0.075
26.025 14.325 -0.225
26.025 9.225 1.575
26.025 9.225 1.425
26.025 9.225 0.825
26.025 9.225 -0.225
26.025 9.225 -0.075
26.325 10.125 1.425
22.425 5.625 -1.125
25.275 15.675 0.375
25.275 15.675 0.225
25.275 15.675 -1.275
25.275 7.875 0.225
25.275 7.875 -0.075
25.275 7.875 0.825
25.275 7.875 1.425
25.275 7.875 0.375
25.575 15.225 -0.825
25.575 15.225 -0.225
25.575 15.225 0.225
25.575 8.325 -0.225
25.575 8.325 0.825
25.575 8.325 1.575
25.575 8.325 1.275
24.525 6.975 0.525
24.675 16.425 3.225
24.375 6.825 0.975
24.825 7.275 0.825
26.175 9.525 0.975
26.175 9.525 -0.225
26.175 14.025 0.075
26.325 13.575 1.275
26.325 9.975 2.025
26.325 9.975 0.975
23.625 6.225 0.075
25.425 8.025 0.825
25.425 8.025 1.425
25.425 8.025 -0.075
24.975 16.125 3.075
24.975 7.425 1.575
24.975 7.425 1.275
24.975 7.425 2.175
24.975 7.425 0.075
24.225 6.675 0.075
24.225 6.675 1.425
24.225 6.675 -0.075
22.875 17.775 0.075
25.875 14.775 0.375
25.875 14.775 0.975
25.875 14.775 0.075
25.875 14.775 -1.125
25.875 14.775 -0.075
25.875 8.775 -0.975
25.875 8.775 0.225
26.025 14.475 -0.525
26.025 14.475 1.125
26.025 9.075 0.825
25.725 15.075 0.225
25.725 15.075 -0.525
25.725 8.475 0.825
25.725 8.475 1.875
25.125 7.575 0.075
25.125 7.575 0.825
25.125 7.575 0.225
25.125 7.575 -0.375
25.125 7.575 -0.225
26.475 10.425 0.975
26.475 10.425 0.825
26.325 13.725 2.175
26.325 9.825 0.825
25.575 8.175 0.675
25.575 8.175 0.825
23.475 6.075 -0.075
26.175 14.175 0.825
25.275 7.725 0.525
25.275 7.725 0.975
25.275 7.725 0.825
25.275 7.725 -0.525
26.625 11.475 -0.375
21.375 5.175 4.875
26.475 10.275 -0.225
26.475 10.275 0.075
26.475 10.275 0.825
23.025 5.775 -0.825
26.625 11.175 5.925
25.875 14.925 0.975
25.875 14.925 0.375
25.875 14.925 1.425
25.875 14.925 -0.075
25.875 14.925 -0.375
25.875 14.925 0.225
25.875 8.625 0.525
26.025 14.625 -0.225
26.025 14.625 0.225
26.025 8.925 0.825
22.725 5.625 -0.675
22.725 5.625 -1.125
22.725 5.625 -0.825
26.325 9.675 -0.375
26.325 9.675 1.875
26.325 9.675 -0.225
26.325 9.675 0.825
26.325 13.875 0.525
26.325 13.875 0.225
23.775 6.225 0.225
25.425 7.875 -0.675
25.425 15.675 -0.225
24.675 6.975 0.825
24.525 6.825 0.075
23.325 5.925 -0.525
26.625 11.025 -0.525
24.825 7.125 0.225
24.825 7.125 0.825
24.825 7.125 1.275
24.825 7.125 1.425
26.625 11.025 0.825
25.725 15.225 -0.075
25.725 8.325 0.225
26.175 14.325 0.525
26.175 14.325 0.075
26.175 9.225 0.825
26.175 9.225 -0.075
26.175 9.225 -0.675
22.425 5.475 0.225
24.975 7.275 0.975
24.975 7.275 0.375
26.475 10.125 0.825
26.475 10.125 -0.225
26.625 10.875 0.825
25.125 7.425 0.075
25.125 7.425 0.825
25.125 7.425 1.725
24.225 6.525 1.875
24.225 6.525 1.725
25.575 8.025 0.825
25.575 8.025 1.875
25.575 15.525 0.375
25.575 15.525 0.075
23.625 6.075 -0.075
26.325 9.525 0.825
26.325 9.525 -0.075
26.325 14.025 0.075
26.325 14.025 0.825
26.325 14.025 0.225
26.625 10.725 1.275
25.275 7.575 -0.375
25.275 7.575 0.825
25.275 7.575 1.725
25.275 7.575 -0.675
18.075 18.375 0.675
24.075 6.375 -0.375
24.075 6.375 -0.225
26.475 9.975 -0.225
26.475 9.975 1.575
26.475 9.975 1.875
26.475 9.975 0.825
26.025 8.775 -0.075
26.025 14.775 1.125
26.025 14.775 0.075
22.875 17.925 -0.075
25.875 15.075 -0.375
25.875 15.075 -0.075
25.875 15.075 0.375
25.875 15.075 0.675
25.875 8.475 0.075
25.875 8.475 0.525
26.175 14.475 0.075
26.175 14.475 -0.075
26.175 9.075 1.875
26.175 9.075 0.825
26.625 10.575 -0.375
26.625 10.575 1.425
26.625 10.575 -0.225
23.475 5.925 -0.525
25.725 8.175 0.825
25.725 8.175 1.875
25.725 15.375 0.525
25.425 15.825 0.675
25.425 7.725 0.675
25.425 7.725 -0.225
25.425 7.725 -0.375
21.825 18.375 0.375
22.275 5.325 -0.375
21.825 18.375 0.675
26.325 9.375 -0.375
26.325 14.175 0.675
26.325 14.175 -0.825
26.325 14.175 0.225
26.325 14.175 0.075
26.475 9.825 -0.375
26.475 9.825 2.175
21.225 18.525 1.425
26.625 10.425 -0.375
26.625 10.425 -0.225
24.675 6.825 2.325
24.675 6.825 1.275
24.825 6.975 1.425
24.825 6.975 0.075
24.825 6.975 0.375
24.675 6.825 0.825
24.825 6.975 0.975
24.825 6.975 0.825
26.775 11.775 0.825
24.525 6.675 0.375
24.975 7.125 0.675
24.975 7.125 0.225
24.975 7.125 0.525
24.975 7.125 1.575
25.575 7.875 0.825
25.575 7.875 -0.225
25.575 7.875 0.675
25.575 7.875 0.375
25.575 15.675 0.525
26.025 14.925 0.825
26.025 14.925 -0.675
26.025 8.625 -0.225
23.025 5.625 0.225
26.775 11.325 -0.075
25.125 16.275 0.525
26.625 10.275 1.875
25.125 7.275 0.825
26.625 10.275 -0.075
24.375 6.525 0.825
24.375 6.525 1.125
26.175 8.925 -0.225
26.175 8.925 1.875
26.175 8.925 0.675
26.175 14.625 -0.225
26.175 14.625 0.225
22.725 5.475 -0.375
25.875 15.225 0.675
25.875 15.225 0.525
25.875 15.225 -0.075
25.875 8.325 1.875
25.875 8.325 0.075
26.775 11.175 0.825
26.475 9.675 -0.525
26.475 9.675 2.625
26.475 9.675 0.825
21.975 5.175 -0.075
24.225 6.375 -0.075
26.325 14.325 2.475
26.325 14.325 -0.675
26.325 9.225 -0.375
26.325 9.225 0.825
22.425 5.325 0.375
26.775 11.025 1.275
26.775 11.025 0.825
26.775 11.025 -0.225
26.775 11.025 1.125
26.625 10.125 -0.225
25.725 8.025 0.675
25.725 8.025 -0.075
25.725 8.025 0.825
25.725 15.525 0.075
25.725 15.525 1.275
24.075 6.225 -0.075
24.075 6.225 -0.375
25.425 15.975 0.525
25.425 7.575 -0.075
25.425 7.575 1.275
26.475 9.525 -0.375
26.475 14.025 0.075
26.475 14.025 0.825
22.875 18.075 0.075
26.175 8.775 0.825
26.175 14.775 0.075
26.175 14.775 0.975
26.175 14.775 1.125
26.175 14.775 1.425
26.175 14.775 0.825
26.175 8.775 0.675
26.775 10.725 2.175
26.775 10.725 1.275
26.775 10.725 0.825
26.025 15.075 0.375
26.025 15.075 0.075
26.025 15.075 0.525
26.025 8.475 -0.825
26.025 8.475 0.375
26.025 8.475 -0.225
23.175 5.625 -0.225
26.625 9.975 -0.525
26.625 9.975 -0.375
26.625 9.975 -0.675
26.625 9.975 0.825
26.325 14.475 0.075
26.325 14.475 0.975
26.325 14.475 0.375
26.325 9.075 -0.375
25.575 7.725 0.675
25.575 7.725 2.175
25.575 7.725 0.825
25.575 7.725 0.225
23.925 6.075 -0.225
25.875 15.375 -0.075
24.825 6.825 0.375
24.825 6.825 0.075
24.825 6.825 0.225
26.775 10.575 0.825
26.775 10.575 1.875
26.775 10.575 1.725
24.675 6.675 0.375
24.675 6.675 0.825
24.675 6.675 1.425
24.975 6.975 -0.075
24.975 6.975 1.575
24.975 6.975 0.825
24.975 6.975 1.725
24.525 6.525 -0.375
24.525 6.525 -0.075
24.525 6.525 0.975
24.525 6.525 1.425
25.125 7.125 1.875
25.125 7.125 -0.525
26.475 14.175 3.075
26.475 14.175 0.975
26.475 14.175 0.075
26.475 14.175 -0.075
26.475 14.175 0.375
26.625 13.725 0.525
26.625 9.825 -0.375
26.625 9.825 0.675
25.275 7.275 0.375
25.275 7.275 -0.225
24.375 6.375 -0.075
24.375 6.375 0.075
24.375 6.375 0.675
24.375 6.375 0.825
24.375 6.375 1.275
24.375 6.375 1.425
26.775 10.425 1.875
26.775 10.425 3.675
26.775 13.125 0.825
23.775 5.925 -0.075
25.725 7.875 0.825
25.725 15.675 0.825
26.175 8.625 0.825
26.175 8.625 -0.675
26.175 14.925 -0.225
26.175 8.625 0.675
26.925 11.775 -0.975
26.325 14.625 1.125
26.325 14.625 0.225
26.325 14.625 -0.525
26.325 14.625 -0.225
25.425 7.425 -0.525
24.225 6.225 0.225
24.225 6.225 1.425
24.225 6.225 -0.075
26.775 10.275 -0.525
26.625 9.675 -0.075
25.875 15.525 0.225
26.925 11.175 -0.825
26.925 11.175 0.825
26.475 14.325 -0.225
26.475 14.325 -0.375
26.475 14.325 -0.525
26.475 14.325 1.125
26.475 14.325 0.075
26.475 9.225 0.825
24.075 6.075 0.825
24.075 6.075 -0.075
24.075 6.075 0.225
25.575 7.575 0.525
25.575 7.575 1.725
25.575 7.575 0.375
25.575 7.575 0.825
26.925 11.025 0.675
24.825 6.675 -0.075
24.825 6.675 0.225
24.825 6.675 0.075
26.925 10.875 0.675
26.925 10.875 -0.225
24.975 6.825 0.225
24.975 6.825 0.375
24.975 6.825 0.825
26.175 15.075 -0.225
26.175 15.075 -0.375
26.175 15.075 0.675
26.175 15.075 1.575
26.175 8.475 0.225
26.175 8.475 0.675
26.325 14.775 -0.525
26.325 8.775 -0.375
26.325 14.775 0.225
26.325 14.775 -0.075
26.325 14.775 0.675
24.675 17.025 4.275
24.675 6.525 0.825
24.675 6.525 -0.075
25.125 6.975 1.875
25.125 6.975 0.075
25.125 6.975 0.675
26.625 14.025 0.075
26.625 14.025 -0.225
23.925 5.925 0.825
25.725 7.725 0.825
25.725 7.725 -0.525
25.725 7.725 0.675
25.725 7.725 0.075
26.025 8.175 0.225
26.025 8.175 0.075
25.275 7.125 0.375
25.275 7.125 0.675
26.025 15.375 0.825
24.525 6.375 0.525
24.525 6.375 0.225
26.925 10.725 -0.375
26.475 14.475 0.075
26.475 14.475 0.225
26.475 9.075 0.675
26.475 9.075 -0.525
25.425 7.275 0.825
25.425 7.275 0.225
25.425 7.275 0.675
24.375 6.225 0.225
24.375 6.225 0.825
26.925 10.575 1.575
26.925 10.575 0.825
23.775 5.775 0.525
23.775 5.775 0.075
23.775 5.775 0.825
23.775 5.775 -0.075
22.275 5.025 -0.075
22.275 5.025 -0.375
26.625 14.175 0.375
26.625 14.175 -0.225
26.625 14.175 0.675
26.625 9.375 -0.375
26.625 9.375 0.825
25.575 16.125 0.825
24.225 6.075 0.975
24.225 6.075 0.075
26.325 14.925 1.125
26.325 14.925 0.375
26.925 10.425 -0.525
26.925 10.425 0.825
26.175 15.225 0.525
26.175 15.225 0.825
26.175 15.225 -0.525
26.175 15.225 -0.375
26.175 15.225 1.125
23.325 5.475 0.225
23.325 5.475 0.975
26.175 8.325 0.225
26.175 8.325 0.675
26.475 14.625 -0.075
26.475 14.625 0.675
26.475 14.625 0.825
26.475 8.925 0.825
27.075 11.775 0.825
27.075 11.775 1.125
27.075 11.625 1.275
27.075 11.925 0.825
27.075 11.625 1.425
27.075 11.925 0.375
24.075 5.925 0.225
24.075 5.925 1.275
24.075 5.925 0.825
25.725 15.975 -0.225
25.725 7.575 -0.225
25.725 7.575 0.825
26.025 8.025 -0.225
26.025 15.525 -0.375
20.175 18.975 2.775
26.925 10.275 0.825
26.775 9.675 -0.675
26.775 13.875 2.625
26.775 13.875 -0.075
24.975 6.675 0.525
24.975 6.675 0.825
24.975 6.675 1.725
24.825 17.025 0.225
26.625 14.325 -0.075
26.625 14.325 0.525
26.625 14.325 0.225
25.125 6.825 0.675
25.125 6.825 -0.375
24.825 6.525 0.675
26.625 14.325 -0.225
25.125 6.825 0.225
25.125 16.725 0.525
25.275 6.975 0.075
25.275 6.975 0.525
25.275 6.975 0.375
24.675 6.375 0.075
24.675 6.375 0.825
24.675 6.375 -0.225
24.675 6.375 1.725
23.925 5.775 0.975
23.925 5.775 -0.375
24.525 6.225 0.225
24.525 6.225 0.525
25.425 7.125 0.675
26.925 10.125 0.675
26.925 10.125 0.825
26.925 10.125 1.275
26.325 15.075 0.675
26.325 8.475 0.825
22.875 18.375 -0.225
22.875 5.175 1.125
16.875 5.175 0.525
26.475 14.775 -0.375
26.475 14.775 0.375
23.475 18.075 -0.675
27.075 10.875 0.675
26.175 8.175 0.675
26.175 15.375 0.375
26.175 15.375 -0.075
26.775 9.525 0.825
25.575 7.275 0.225
24.375 6.075 0.225
24.375 6.075 0.825
24.375 17.475 0.975
26.625 14.475 0.675
26.625 14.475 0.525
26.625 14.475 0.075
26.625 14.475 0.375
26.625 14.475 0.825
27.075 10.725 0.825
27.075 10.725 -0.375
26.025 15.675 1.875
23.775 5.625 0.075
23.775 5.625 0.225
23.775 5.625 0.825
25.725 16.125 -0.225
24.225 17.625 1.275
24.225 5.925 0.525
24.225 5.925 1.575
25.725 7.425 0.675
25.725 7.425 0.975
26.775 14.175 -0.375
23.025 18.375 -0.225
26.475 14.925 2.625
26.475 14.925 0.225
26.325 15.225 1.425
26.325 15.225 0.825
26.925 9.825 1.125
24.975 17.025 -0.075
25.125 6.675 -0.075
25.125 6.675 0.375
25.125 6.675 -0.525
25.125 6.675 0.825
24.975 6.525 -0.075
24.975 6.525 -0.525
24.075 5.775 -0.525
24.075 5.775 1.425
24.075 5.775 0.375
24.075 5.775 0.825
24.075 5.775 -0.075
25.875 7.575 -0.225
25.275 6.825 0.225
25.275 6.825 0.675
25.275 6.825 0.825
24.825 6.375 -0.075
24.825 6.375 1.875
24.825 6.375 0.375
25.275 16.725 0.675
26.625 14.625 0.375
26.625 14.625 -0.375
26.625 14.625 -1.125
26.625 14.625 0.975
26.625 8.925 0.375
22.725 5.025 1.125
26.175 8.025 0.975
23.625 5.475 0.825
24.675 6.225 0.825
24.675 6.225 0.375
25.425 6.975 0.225
27.225 11.775 0.825
27.225 11.925 0.825
27.225 11.925 -0.375
26.775 14.325 0.825
25.575 7.125 0.375
26.925 9.675 -0.075
21.975 4.725 -0.075
27.225 11.475 1.575
27.225 11.475 1.875
26.025 7.725 0.675
23.925 5.625 0.825
23.925 5.625 1.425
23.925 5.625 1.275
23.925 5.625 0.675
27.225 12.225 0.825
27.225 12.225 1.425
27.225 12.225 1.275
27.225 12.375 0.525
27.225 12.375 0.825
27.225 11.175 -0.225
27.225 11.175 -0.075
26.475 15.075 0.225
26.475 15.075 0.375
26.475 15.075 0.075
26.475 15.075 -0.075
23.175 5.175 1.875
23.175 5.175 1.575
24.375 17.625 -0.075
24.375 17.625 1.275
25.725 16.275 0.375
24.375 5.925 -0.075
24.375 5.925 -0.375
24.375 5.925 -0.225
24.375 5.925 0.825
25.725 7.275 1.425
22.875 18.525 -0.075
26.325 15.375 -0.525
26.325 8.175 0.675
26.325 8.175 0.375
26.325 8.175 0.825
27.075 10.125 0.825
26.625 14.775 0.525
26.625 14.775 -0.375
26.625 14.775 2.325
26.625 14.775 0.075
22.875 5.025 0.975
23.475 5.325 -0.225
26.925 9.525 -0.525
26.775 14.475 -0.225
23.775 5.475 0.975
22.575 4.875 0.375
25.875 7.425 0.675
25.875 16.125 0.375
25.875 16.125 -0.375
24.225 5.775 1.725
24.225 5.775 1.575
24.225 5.775 0.675
27.075 13.575 -0.375
27.075 9.975 0.675
25.125 17.025 -0.225
25.125 17.025 0.075
25.125 17.025 -0.375
25.125 17.025 -0.075
25.125 17.025 0.375
25.125 6.525 0.525
24.975 6.375 0.375
24.975 6.375 0.675
24.975 17.175 0.225
24.825 6.225 0.675
25.425 16.725 0.075
26.025 15.975 0.525
26.025 15.975 0.825
26.025 7.575 0.975
26.025 7.575 0.375
24.075 5.625 -0.075
24.075 5.625 1.875
24.075 5.625 0.825
24.075 5.625 -0.225
21.075 4.425 0.975
26.475 15.225 -0.075
26.475 15.225 -1.725
26.475 15.225 0.225
26.475 15.225 0.675
26.475 8.325 -1.275
26.475 8.325 0.675
27.225 12.975 0.975
27.225 10.575 0.525
27.225 10.575 0.675
23.025 5.025 -0.225
23.025 5.025 1.125
26.625 14.925 -0.225
25.575 16.575 -0.225
25.575 6.975 0.075
24.675 6.075 0.675
24.675 6.075 -0.375
24.675 6.075 0.375
24.675 17.475 0.525
27.075 13.725 0.225
26.325 15.525 0.375
26.325 15.525 -0.075
23.625 5.325 0.825
23.625 5.325 -0.225
23.625 5.325 1.275
23.625 18.225 -0.975
26.775 14.625 0.675
22.725 18.675 -0.225
22.725 4.875 -0.225
24.525 17.625 -0.225
24.525 17.625 0.075
24.525 17.625 0.675
24.525 5.925 -0.075
24.525 5.925 0.825
24.525 5.925 0.225
27.225 10.425 0.675
27.225 10.425 5.475
25.725 16.425 0.375
25.725 16.425 0.075
26.175 15.825 -0.225
23.925 5.475 1.575
23.925 5.475 -0.075
23.925 5.475 0.825
22.425 18.825 1.425
26.925 14.325 -0.225
26.925 14.325 0.225
19.875 19.275 1.725
24.375 5.775 -0.225
24.375 5.775 0.825
24.375 5.775 0.675
27.375 11.925 1.425
27.375 11.925 1.575
27.375 11.625 0.825
27.225 10.275 0.225
27.225 10.275 1.275
27.225 13.275 0.525
23.175 18.525 0.075
26.625 15.075 -0.075
26.625 15.075 0.375
26.625 15.075 0.075
26.625 15.075 0.675
26.625 15.075 0.225
27.375 12.225 0.825
27.375 11.325 -0.375
26.475 15.375 -0.075
26.475 15.375 0.075
26.475 15.375 0.825
26.475 15.375 0.975
23.475 5.175 1.425
26.775 14.775 -0.375
26.775 14.775 0.675
26.775 14.775 -0.675
27.375 12.375 0.975
27.375 11.175 0.975
25.275 17.025 -0.525
25.275 17.025 -0.225
25.275 17.025 -0.075
25.275 6.525 0.675
25.125 17.175 -0.075
25.125 17.175 -0.525
24.225 5.625 0.225
27.225 10.125 0.675
27.225 10.125 0.375
23.775 5.325 1.425
23.775 5.325 -0.225
26.325 15.675 0.075
26.325 7.875 0.075
27.375 11.025 -0.075
27.375 11.025 -0.225
24.975 17.325 0.075
25.425 6.675 0.525
25.425 6.675 -0.375
24.975 6.225 0.825
27.075 9.525 0.075
25.575 6.825 -0.225
25.575 6.825 1.275
25.575 6.825 0.525
24.825 6.075 -0.525
24.825 17.475 0.075
25.575 16.725 0.075
25.575 16.725 0.375
25.575 16.725 -0.525
26.925 9.075 0.075
27.375 12.675 1.575
25.725 16.575 0.675
25.725 16.575 0.075
25.725 16.575 -0.225
25.725 16.575 0.225
24.675 5.925 -0.225
24.675 5.925 -0.375
27.225 9.975 0.825
25.725 6.975 -0.975
26.175 15.975 2.625
26.175 15.975 0.525
26.175 15.975 0.225
26.175 15.975 0.075
26.175 15.975 -0.675
24.075 5.475 -0.375
27.375 12.825 1.575
27.375 12.825 1.425
27.375 12.825 1.875
23.325 18.525 -0.375
26.625 15.225 0.075
26.625 15.225 -0.075
26.625 15.225 -0.375
26.625 15.225 0.825
26.775 14.925 0.525
26.775 14.925 -0.225
22.275 4.575 -1.125
22.275 4.575 2.625
27.075 14.175 2.325
27.075 14.175 0.075
27.075 9.375 -0.675
27.075 9.375 -0.075
24.525 17.775 0.075
24.525 5.775 -0.075
24.525 5.775 -0.225
25.875 16.425 0.075
25.875 16.425 -0.675
25.875 7.125 1.125
23.625 5.175 0.825
23.625 5.175 -0.075
26.475 15.525 0.825
26.475 15.525 -0.075
27.375 12.975 2.025
27.375 12.975 0.675
27.375 12.975 0.975
26.925 14.625 0.375
26.925 14.625 0.075
26.925 8.925 0.075
22.725 4.725 2.025
22.725 4.725 -0.075
27.225 13.725 0.525
23.925 5.325 0.075
23.925 5.325 0.825
26.025 16.275 -0.375
26.025 16.275 -0.225
27.375 10.425 0.675
27.375 13.125 0.975
24.375 17.925 2.175
25.275 17.175 -0.675
25.275 17.175 0.075
25.275 17.175 -0.225
25.275 6.375 -0.525
25.125 17.325 -0.375
25.125 17.325 -0.225
25.125 6.225 -0.225
21.975 4.425 -0.525
26.775 15.075 0.225
26.775 15.075 0.375
25.575 16.875 -0.375
25.575 16.875 -0.075
27.375 10.275 0.675
27.375 10.275 -0.075
23.175 18.675 -0.225
23.175 4.875 -0.075
23.175 4.875 0.075
24.975 6.075 -0.225
24.975 17.475 2.175
26.625 15.375 0.825
26.625 15.375 0.225
23.475 5.025 1.425
27.525 11.625 -0.525
27.525 11.625 -0.225
27.525 12.075 0.825
27.525 11.475 0.825
24.225 18.075 -0.525
26.175 16.125 0.675
26.175 16.125 -1.275
26.175 7.425 -0.375
24.225 5.475 0.225
24.225 5.475 0.825
24.225 5.475 -0.075
24.225 5.475 1.425
22.875 18.825 -0.375
22.875 4.725 0.825
22.875 4.725 0.525
27.525 11.325 0.825
27.525 11.325 -0.375
24.825 5.925 0.825
25.725 6.825 -0.525
25.725 16.725 -0.225
25.725 16.725 0.075
25.725 16.725 0.375
23.775 5.175 0.675
23.775 5.175 0.075
26.475 15.675 0.075
26.475 7.875 -0.225
21.525 19.275 0.675
27.375 10.125 5.325
24.675 17.775 0.075
24.675 17.775 1.875
24.675 17.775 0.225
25.875 16.575 0.525
25.875 16.575 0.375
24.675 5.775 -0.075
24.675 5.775 0.375
17.625 19.125 0.225
22.125 4.425 -0.225
20.625 4.125 5.025
27.225 14.025 7.125
27.075 14.475 0.675
22.575 4.575 -0.225
26.325 15.975 0.075
26.325 15.975 -0.075
24.075 5.325 2.025
24.075 18.225 -0.075
27.525 10.875 -0.075
27.525 10.875 -0.225
26.025 16.425 -0.225
26.025 16.425 1.575
24.525 5.625 0.675
27.375 13.575 1.275
27.375 13.575 1.725
21.675 4.275 -0.525
26.775 15.225 0.225
23.325 4.875 -0.525
23.325 4.875 0.075
27.525 12.825 0.225
23.025 18.825 0.225
26.625 15.525 -0.075
23.025 4.725 0.225
23.025 4.725 -0.075
23.625 5.025 1.875
23.625 5.025 0.225
23.625 5.025 0.825
26.925 14.925 0.525
26.925 14.925 -0.525
27.225 14.175 1.575
26.175 16.275 -0.375
24.375 5.475 0.825
27.525 12.975 0.975
27.525 10.575 -0.225
12.675 14.625 0.675
25.275 6.225 -0.975
27.075 14.625 0.675
25.425 17.175 -0.375
25.425 6.375 0.075
22.725 4.575 1.725
25.425 6.375 0.375
22.725 4.575 0.825
22.725 4.575 -0.225
22.725 4.575 -0.075
23.925 5.175 0.825
23.925 5.175 -0.075
22.725 18.975 0.075
25.575 17.025 0.225
25.575 17.025 -0.075
27.375 13.725 1.275
27.375 13.725 2.325
25.125 6.075 -0.225
25.125 17.475 -0.075
25.125 17.475 0.075
25.125 17.475 -0.225
24.975 17.625 0.225
24.975 17.625 -0.375
24.975 17.625 0.075
24.975 17.625 -0.075
25.725 16.875 -0.225
24.975 5.925 -0.375
27.525 13.125 1.875
24.825 17.775 -0.075
24.825 17.775 0.225
24.825 5.775 -0.375
25.875 16.725 -0.075
25.875 16.725 0.225
26.325 16.125 0.075
26.325 16.125 0.375
24.225 5.325 0.675
22.425 4.425 -0.225
27.225 14.325 0.825
26.775 15.375 -0.225
23.475 4.875 1.575
23.475 4.875 0.075
26.925 15.075 1.425
23.175 4.725 0.975
23.775 18.525 -0.225
27.525 10.275 -0.375
23.775 5.025 -0.225
26.625 15.675 0.075
27.075 14.775 0.675
27.075 14.775 2.625
22.875 4.575 -0.675
22.875 4.575 -0.225
22.875 18.975 1.275
26.025 16.575 -1.275
26.025 16.575 0.075
26.025 16.575 -0.075
26.025 16.575 0.225
26.025 6.975 -0.825
24.675 17.925 1.125
24.675 5.625 -0.075
27.675 11.625 2.175
27.675 12.075 0.975
27.675 12.075 0.825
27.675 12.075 -0.225
27.675 11.325 0.825
24.075 5.175 0.675
26.475 15.975 -1.125
27.525 13.425 2.175
27.525 13.425 1.875
22.125 19.275 0.975
24.525 18.075 -0.225
24.525 18.075 -0.375
24.525 5.475 0.225
24.525 5.475 -0.225
24.525 5.475 0.975
22.125 4.275 2.175
27.225 14.475 0.375
27.225 14.475 0.525
27.225 14.475 0.075
19.125 19.575 -2.775
19.125 19.575 -2.325
27.675 12.525 0.975
25.425 17.325 0.075
25.425 17.325 -0.375
26.925 15.225 0.525
23.325 4.725 0.075
23.325 4.725 3.375
23.325 4.725 -0.075
25.425 6.225 0.375
25.275 17.475 -0.225
25.275 17.475 0.075
25.275 17.475 -0.075
25.575 6.375 0.225
25.575 6.375 0.975
25.575 17.175 0.075
25.575 17.175 0.375
20.775 3.975 -0.825
26.775 15.525 0.375
23.625 4.875 0.225
23.625 4.875 0.075
23.625 4.875 0.825
23.625 18.675 -0.225
27.525 13.575 1.275
27.525 13.575 0.975
27.525 13.575 2.475
27.075 14.925 -0.375
27.075 14.925 1.275
23.025 4.575 0.825
23.025 4.575 1.275
23.025 4.575 -0.225
21.675 4.125 0.225
25.725 17.025 -0.825
25.725 17.025 0.225
25.125 17.625 0.225
25.125 17.625 -0.075
25.125 17.625 0.075
25.125 5.925 -0.525
25.725 6.525 -0.225
25.725 6.525 -0.075
25.725 6.525 -1.125
26.325 16.275 -0.825
24.375 5.325 -0.075
24.375 18.225 -0.525
24.375 18.225 0.075
27.675 12.825 0.975
26.625 15.825 0.225
26.625 15.825 0.075
23.925 18.525 -0.075
23.925 18.525 0.975
23.925 5.025 -0.075
26.625 7.725 -0.225
24.975 17.775 0.225
24.975 17.775 0.075
25.875 16.875 0.075
25.875 16.875 0.375
25.875 16.875 -0.075
24.975 5.775 -0.375
24.975 5.775 0.375
22.725 4.425 0.825
22.725 4.425 -0.075
22.725 4.425 0.525
27.225 14.625 0.075
27.225 14.625 1.725
27.225 14.625 1.275
27.675 12.975 0.225
26.025 16.725 0.075
26.025 16.725 -0.225
24.825 17.925 0.075
21.825 4.125 -0.375
24.825 17.925 -0.075
24.225 18.375 0.225
26.475 16.125 -0.675
26.475 16.125 0.375
24.225 5.175 0.825
24.225 5.175 0.525
23.475 18.825 3.825
23.475 18.825 -0.525
26.925 15.375 0.975
26.925 15.375 0.375
27.675 10.425 -0.075
23.475 4.725 1.725
23.475 4.725 1.275
27.075 15.075 1.125
24.675 18.075 0.075
26.175 16.575 -0.825
23.175 4.575 -0.075
23.175 4.575 -0.525
23.175 4.575 1.875
24.675 5.475 -0.375
24.675 5.475 -0.225
24.675 5.475 0.225
24.675 5.475 0.525
24.675 5.475 0.075
23.175 18.975 0.375
27.375 14.325 1.725
27.375 14.325 1.875
27.375 14.325 1.275
26.775 15.675 0.375
23.775 4.875 -0.675
23.775 4.875 -0.075
23.775 18.675 -0.075
27.525 13.875 1.125
27.525 13.875 0.975
27.525 9.675 0.225
27.525 9.675 0.075
22.875 4.425 -0.225
22.875 4.425 0.975
22.875 4.425 0.225
24.075 18.525 -0.375
24.075 18.525 -0.225
27.825 11.775 1.725
27.825 11.775 0.825
26.625 15.975 -0.825
26.625 15.975 -0.375
24.075 5.025 0.825
24.075 5.025 -0.525
24.075 5.025 0.525
24.525 5.325 -0.225
26.325 16.425 -0.375
26.325 16.425 -0.675
24.525 18.225 0.075
24.525 18.225 -0.225
25.575 17.325 0.225
27.825 12.075 -0.225
27.825 11.475 -0.375
25.575 6.225 -0.075
25.425 6.075 -0.375
25.425 17.475 -0.825
25.425 17.475 -0.075
25.275 17.625 -0.525
25.725 17.175 0.075
25.725 17.175 -0.075
27.825 11.325 0.825
27.375 14.475 0.975
27.375 14.475 1.275
27.375 14.475 2.325
27.375 14.475 1.425
27.375 14.475 1.875
27.375 14.475 1.725
22.575 4.275 -0.375
25.125 17.775 -0.225
25.125 17.775 0.075
27.825 11.175 0.825
25.875 17.025 0.075
25.875 17.025 -0.375
25.125 5.775 -0.375
25.125 5.775 0.075
25.875 6.525 -0.525
22.125 4.125 0.075
22.125 4.125 -0.075
27.075 15.225 1.575
23.325 4.575 -0.225
23.325 4.575 0.075
23.325 4.575 -0.525
27.825 11.025 6.375
23.625 18.825 0.375
26.925 15.525 0.975
26.925 15.525 0.675
23.625 4.725 0.075
24.375 18.375 0.375
24.375 18.375 0.225
24.375 18.375 -0.075
24.375 18.375 0.525
26.475 16.275 1.125
26.475 16.275 0.225
24.375 5.175 0.075
26.025 16.875 -0.075
26.025 16.875 0.075
24.975 17.925 -0.075
24.975 5.625 0.375
23.025 19.125 0.375
23.025 4.425 0.825
23.025 4.425 1.425
27.225 14.925 1.575
26.775 15.825 0.975
26.775 15.825 0.675
26.775 15.825 -0.075
26.775 15.825 0.075
23.925 18.675 -0.075
23.925 18.675 1.575
23.925 4.875 -0.225
23.925 18.675 1.425
27.675 13.575 1.275
24.825 18.075 -0.225
24.825 18.075 -0.075
24.825 18.075 0.075
26.175 16.725 0.525
27.525 14.175 2.175
27.525 14.175 0.975
27.525 14.175 2.025
27.825 12.825 1.125
27.375 14.625 1.275
27.375 14.625 1.875
27.375 14.625 1.425
27.375 14.625 2.325
22.725 4.275 1.275
22.725 4.275 -0.225
22.725 4.275 1.425
27.375 14.625 0.975
26.625 16.125 -0.375
26.625 16.125 -0.075
26.625 7.425 0.225
24.225 5.025 0.825
26.325 16.575 0.975
26.325 16.575 0.375
27.825 10.575 3.525
27.825 12.975 -0.075
27.825 12.975 0.375
26.325 16.575 0.225
21.075 3.825 -0.375
27.675 13.725 1.575
24.675 18.225 -0.075
21.825 3.975 1.725
27.075 15.375 1.575
27.075 15.375 0.675
27.075 15.375 0.975
27.075 15.375 1.425
23.475 4.575 -0.375
23.775 18.825 -0.075
23.775 18.825 1.575
23.775 18.825 0.375
23.175 19.125 0.525
23.775 4.725 0.675
26.925 15.675 1.425
23.175 4.425 1.875
26.925 15.675 2.925
27.225 15.075 1.575
27.225 15.075 1.125
27.225 15.075 0.825
25.575 6.075 -0.975
25.575 17.475 0.375
27.525 14.325 2.025
27.525 14.325 2.175
27.525 14.325 1.425
25.725 17.325 0.375
25.425 5.925 -0.075
22.425 4.125 -1.125
25.425 17.625 -0.075
21.225 19.725 0.825
25.725 6.225 -0.525
25.275 17.775 -0.525
25.275 17.775 0.375
26.475 16.425 0.675
26.475 16.425 1.425
26.475 16.425 0.975
26.475 16.425 3.975
26.775 15.975 0.375
26.775 15.975 -0.525
26.775 15.975 0.825
22.875 19.275 0.075
21.975 19.575 0.075
24.075 18.675 0.075
24.075 18.675 0.225
24.075 18.675 -0.075
22.875 4.275 0.375
22.875 4.275 -0.225
22.875 4.275 0.825
24.075 4.875 0.825
27.375 14.775 1.275
27.375 14.775 -0.225
27.675 13.875 0.375
21.975 3.975 1.575
26.025 17.025 -0.075
25.125 17.925 2.625
25.125 17.925 0.675
25.125 17.925 0.075
25.125 17.925 -0.075
27.825 13.275 0.225
27.975 11.925 0.975
24.975 18.075 0.975
24.975 18.075 0.225
26.175 16.875 0.675
26.175 16.875 -0.225
26.175 16.875 0.375
24.375 18.525 -0.225
24.375 18.525 0.075
24.375 18.525 0.225
27.525 14.475 1.425
27.525 14.475 2.475
24.375 18.525 0.525
26.625 16.275 -0.375
26.625 16.275 0.075
26.625 16.275 0.975
26.625 16.275 1.575
26.625 16.275 1.425
24.375 5.025 0.975
22.575 19.425 0.825
27.975 12.225 0.075
27.975 11.325 -0.375
27.075 15.525 1.125
27.075 15.525 0.075
27.075 15.525 0.675
27.075 15.525 1.575
23.625 18.975 -0.225
23.325 19.125 1.275
23.325 19.125 0.525
27.825 13.425 1.425
27.825 13.425 -0.225
21.525 3.825 0.525
23.325 4.425 -0.075
23.325 4.425 1.275
27.225 15.225 1.575
27.225 15.225 1.125
20.475 3.675 4.575
23.925 18.825 3.075
26.325 16.725 1.425
26.325 16.725 3.375
24.825 18.225 -0.225
26.925 15.825 0.975
23.025 19.275 0.525
23.025 4.275 0.525
23.025 4.275 0.825
27.375 14.925 -0.075
26.775 16.125 0.075
26.775 16.125 1.725
26.775 16.125 -0.225
26.775 16.125 1.575
26.775 16.125 2.925
26.775 7.425 -0.075
24.225 4.875 0.825
24.225 4.875 -0.525
24.225 18.675 -0.225
24.675 18.375 -0.375
26.475 16.575 0.675
26.475 16.575 1.575
22.275 3.975 0.675
26.475 16.575 0.975
26.475 16.575 0.075
26.475 16.575 -0.375
26.475 16.575 0.375
26.475 16.575 1.425
26.475 16.575 0.225
27.525 14.625 2.175
27.525 14.625 1.275
22.725 4.125 -0.075
22.725 4.125 1.425
25.575 17.625 0.075
25.575 17.625 0.825
25.575 17.625 0.225
25.575 5.925 0.375
27.975 12.825 0.975
25.875 17.325 0.075
25.425 17.775 0.525
25.425 17.775 -0.675
25.425 17.775 0.225
25.425 17.775 0.075
25.425 17.775 0.375
26.025 17.175 0.075
25.275 17.925 1.125
23.475 19.125 -0.675
23.475 19.125 -0.075
27.225 15.375 2.025
27.225 15.375 1.725
27.825 13.725 0.225
23.775 4.575 0.675
27.075 15.675 2.025
27.075 15.675 1.275
27.075 15.675 0.975
23.775 18.975 1.425
23.775 18.975 -0.225
23.775 18.975 0.225
27.975 12.975 0.375
27.375 15.075 0.825
27.375 15.075 1.125
24.525 18.525 0.075
26.625 16.425 0.975
26.625 16.425 0.375
25.125 18.075 -0.375
26.175 17.025 0.675
26.175 17.025 0.375
26.175 17.025 -0.075
26.175 17.025 0.975
26.175 17.025 -1.275
26.175 17.025 -0.375
26.175 17.025 -0.675
22.425 19.575 0.675
26.925 15.975 1.125
26.925 15.975 1.575
27.675 14.325 1.425
24.075 4.725 0.825
26.925 15.975 0.675
27.975 13.125 0.825
27.525 14.775 2.475
22.875 4.125 0.075
22.875 4.125 0.825
22.875 4.125 -0.225
22.875 4.125 1.575
26.325 16.875 0.375
26.325 16.875 1.125
26.325 16.875 0.225
26.325 16.875 1.425
27.825 13.875 0.375
26.325 16.875 0.975
24.975 18.225 0.225
26.775 16.275 2.025
26.775 16.275 0.975
26.775 16.275 0.375
26.775 16.275 -0.075
26.775 7.275 2.625
24.375 4.875 0.675
27.975 13.275 1.275
24.825 18.375 -0.075
26.475 6.825 1.425
26.475 16.725 0.975
26.475 16.725 0.225
26.475 16.725 0.525
26.475 16.725 1.575
23.625 19.125 -0.225
28.125 11.625 -0.225
23.625 19.125 -0.075
23.625 4.425 -0.375
27.225 15.525 0.975
27.225 15.525 -0.075
27.225 15.525 1.725
22.575 19.575 0.825
27.675 14.475 1.425
23.325 19.275 0.525
19.575 20.025 -3.375
27.375 15.225 0.375
27.375 15.225 -0.075
27.075 15.825 0.975
23.925 18.975 -0.075
22.125 3.825 0.825
28.125 11.325 2.325
27.975 13.425 1.425
27.525 14.925 -0.075
27.525 14.925 1.125
23.025 4.125 1.875
23.025 4.125 0.525
23.025 4.125 1.575
23.025 19.425 -0.225
25.575 17.775 0.075
25.875 17.475 0.675
25.875 17.475 0.975
25.875 17.475 0.375
25.875 17.475 0.075
24.675 18.525 -0.075
26.625 16.575 1.725
26.625 16.575 0.975
