# .PCD v0.7 - Point Cloud Data file format
VERSION 0.7
FIELDS x y z
SIZE 4 4 4
TYPE F F F
COUNT 1 1 1
WIDTH 2048
HEIGHT 1
VIEWPOINT 0 0 0 1 0 0 0
POINTS 2048
DATA ascii
28.575 9.075 1.125
27.975 8.925 0.525
28.125 8.775 -0.075
28.125 8.625 -0.225
29.025 9.525 1.125
29.325 9.525 -0.075
29.025 8.475 1.875
29.025 8.325 0.525
29.625 8.925 1.725
29.625 9.825 1.275
29.475 10.275 1.425
29.775 8.925 -0.375
29.625 8.475 2.025
28.275 7.725 1.425
29.925 9.525 1.125
30.075 9.375 1.725
30.075 9.225 -0.375
29.475 10.725 0.975
29.925 10.125 0.525
29.925 10.125 0.375
29.775 8.325 -1.425
29.775 8.325 -0.225
30.075 9.825 0.825
30.075 10.125 0.375
30.075 10.125 0.225
30.075 10.125 1.575
28.425 7.425 2.625
30.225 9.675 -0.825
30.225 10.125 0.375
30.225 10.125 0.525
28.125 7.275 -0.225
28.725 7.275 2.325
29.475 7.575 0.225
29.325 7.425 0.375
30.225 8.325 3.375
30.225 10.425 0.675
28.575 7.125 0.825
27.375 7.275 1.425
29.475 7.425 0.975
30.525 8.925 0.225
28.725 7.125 1.275
29.775 11.175 -0.225
29.325 7.275 1.425
29.025 7.125 2.475
30.225 8.025 4.125
28.125 6.975 0.075
28.125 6.975 -0.525
28.725 6.975 0.975
28.725 6.975 0.375
29.775 11.325 1.725
27.675 6.975 -1.575
28.875 6.975 0.825
26.925 7.275 0.675
29.625 7.275 0.225
29.025 6.975 0.525
27.525 6.975 -0.075
28.125 6.825 0.525
28.425 6.825 0.375
30.825 9.525 3.075
29.925 11.325 0.225
29.925 11.325 1.425
29.175 6.975 2.325
28.575 6.825 0.375
28.725 6.825 0.375
30.825 8.925 2.775
28.875 6.825 -0.525
28.875 6.825 0.075
28.875 6.825 1.275
26.475 7.425 0.375
29.475 6.975 1.725
30.675 8.175 4.125
28.575 6.675 0.825
28.725 6.675 0.375
28.725 6.675 0.675
27.225 6.825 -0.075
29.325 6.825 1.275
30.225 11.325 -0.525
30.225 11.325 -0.075
28.875 6.675 -0.225
30.975 8.775 3.975
29.025 6.675 1.575
31.125 9.225 3.525
31.125 9.225 1.875
30.375 11.325 0.525
30.525 11.175 1.575
28.725 6.525 1.725
29.325 6.675 1.275
28.875 6.525 2.025
28.875 6.525 1.275
28.875 6.525 0.075
30.675 7.725 0.675
30.525 11.325 0.675
29.175 6.525 0.375
29.175 6.525 1.275
29.175 6.525 0.825
31.125 8.475 3.525
28.275 6.375 -0.675
30.675 11.175 2.325
31.275 9.225 3.225
31.275 9.225 1.875
27.975 6.375 -0.675
31.275 9.675 2.175
31.275 9.075 1.725
31.275 9.075 3.525
31.275 8.925 2.325
31.275 8.925 3.675
28.725 6.375 1.275
29.325 6.525 1.875
29.325 6.525 0.525
31.275 8.775 2.775
28.875 6.375 0.075
28.875 6.375 1.425
30.375 11.625 0.825
29.025 6.375 0.375
29.475 6.525 0.675
31.125 8.175 2.025
29.175 6.375 0.375
28.425 6.225 -0.075
31.425 9.225 2.925
31.425 9.225 1.575
31.425 9.075 1.875
31.425 9.075 1.725
31.425 9.075 1.575
29.325 6.375 0.375
29.325 6.375 1.725
31.425 8.925 2.175
31.425 8.925 1.875
31.425 8.925 1.725
26.175 6.975 0.975
30.375 11.775 1.275
31.425 8.775 0.225
31.425 8.775 2.025
30.825 7.425 -0.675
29.025 6.225 0.075
31.425 8.625 2.025
26.475 6.675 1.125
29.175 6.225 1.125
31.425 8.475 3.075
31.575 9.375 3.375
31.575 9.075 2.175
31.575 9.075 0.675
31.575 9.075 1.275
31.425 8.325 1.125
31.425 8.325 3.975
31.575 8.925 0.675
31.275 7.875 2.625
28.875 6.075 -0.075
31.575 8.775 3.075
29.025 6.075 1.875
31.575 8.625 1.575
31.575 8.625 1.875
31.575 8.625 3.675
30.675 11.775 0.825
30.825 11.625 1.275
31.575 8.475 2.625
31.575 8.475 3.975
30.375 6.675 -0.375
30.975 7.275 0.525
29.625 6.225 2.475
31.725 9.375 2.025
31.725 9.225 2.625
29.325 6.075 0.375
31.575 8.325 2.475
31.575 8.325 2.775
31.575 8.325 0.975
31.575 8.325 2.025
31.725 9.675 2.625
31.725 9.075 1.725
31.725 9.075 2.775
31.725 8.925 1.125
31.725 8.925 1.725
31.725 8.925 1.875
31.425 7.875 2.775
31.425 7.875 0.825
30.825 6.975 1.425
30.675 6.825 1.125
31.725 8.775 2.925
31.725 8.775 2.175
31.725 8.775 2.025
31.575 8.175 2.625
31.575 8.175 4.725
31.575 8.175 2.475
29.475 6.075 1.425
29.475 6.075 1.275
29.475 6.075 0.225
30.525 12.075 1.125
29.025 5.925 1.275
29.025 5.925 1.575
31.725 8.625 1.125
31.725 8.625 2.325
30.375 12.225 1.275
29.925 6.225 0.675
31.425 7.725 3.525
29.625 6.075 1.725
31.575 8.025 1.275
31.725 8.475 1.725
31.725 8.475 2.325
31.875 9.525 1.425
31.875 9.525 0.825
29.325 5.925 0.825
31.875 9.075 1.425
31.875 9.075 1.575
31.575 7.875 1.125
31.575 7.875 3.375
31.875 8.925 0.825
31.875 8.925 1.875
28.875 5.775 1.125
31.875 8.775 1.425
29.475 5.925 0.375
29.475 5.925 0.825
31.725 8.175 1.425
31.875 8.625 2.025
31.875 8.625 2.175
31.875 8.625 1.875
31.875 8.625 1.125
31.875 8.625 0.675
29.625 5.925 0.525
30.225 6.225 1.125
31.725 8.025 0.675
29.175 5.775 0.075
31.875 8.475 1.575
31.875 8.475 2.925
30.975 6.825 -0.375
31.125 6.975 0.675
29.325 5.775 -0.375
30.525 6.375 4.425
31.875 8.325 3.675
31.875 8.325 2.475
31.875 8.325 2.175
31.875 8.325 2.625
30.075 6.075 1.425
32.025 9.075 2.475
32.025 9.075 2.175
32.025 9.075 2.775
31.725 7.875 2.025
31.725 7.875 3.225
32.025 8.925 1.725
32.025 8.925 1.425
32.025 8.925 1.875
32.025 8.925 2.775
32.025 8.925 2.025
31.425 7.275 3.525
31.875 8.175 0.825
27.675 5.625 -1.125
32.025 8.775 0.825
32.025 8.775 1.575
32.025 8.775 2.175
32.025 8.775 2.025
28.875 5.625 1.425
32.025 8.625 3.075
32.025 8.625 2.925
32.025 8.625 0.825
32.025 8.625 2.325
31.125 6.825 3.675
31.725 7.725 3.075
31.575 7.425 3.075
30.225 6.075 1.275
32.025 8.475 1.275
32.025 8.475 -0.525
32.025 8.475 2.025
32.025 8.475 1.575
32.025 8.475 2.925
32.025 8.475 1.875
32.025 8.475 1.725
32.025 8.475 2.325
29.175 5.625 1.575
29.175 5.625 0.375
32.025 8.325 2.175
32.025 8.325 1.725
32.025 8.325 2.325
32.175 9.375 2.775
32.175 9.375 0.375
31.875 7.875 2.925
32.175 9.225 2.325
32.175 9.075 1.875
32.175 9.075 1.575
30.375 6.075 1.875
32.175 8.925 2.325
32.175 8.925 1.725
32.175 8.925 3.375
32.025 8.175 1.275
32.025 8.175 2.025
32.025 8.175 2.325
32.025 10.575 1.575
32.175 8.775 2.625
32.175 8.775 1.125
29.925 5.775 2.475
31.875 7.725 2.475
31.875 7.725 3.075
30.675 12.525 0.225
30.225 5.925 1.575
32.175 10.125 0.225
32.025 8.025 2.625
32.025 8.025 2.175
32.175 8.475 0.675
32.175 8.475 2.175
32.175 8.475 1.575
30.975 6.375 -0.525
32.175 8.325 0.675
32.175 8.325 1.575
32.175 8.325 1.125
32.175 8.325 1.425
32.025 7.875 2.625
32.025 7.875 2.175
32.025 7.875 2.775
32.325 9.375 2.775
28.425 5.325 2.625
32.325 9.225 -0.075
32.325 8.925 2.175
32.325 8.925 2.475
32.175 8.175 2.625
32.175 8.175 1.575
32.325 8.775 1.725
32.325 8.775 2.175
32.325 8.775 1.275
32.325 8.775 0.825
32.325 8.775 1.125
32.025 7.725 2.475
32.025 7.725 2.625
31.725 7.125 -0.525
32.325 8.625 2.025
32.325 8.625 1.425
32.325 8.625 1.725
32.325 8.625 2.475
32.175 8.025 2.325
30.975 12.525 1.125
32.325 8.475 1.125
32.325 8.475 1.425
32.325 8.475 0.375
32.325 8.475 1.725
32.325 8.475 1.575
32.325 8.475 1.875
32.325 8.475 2.775
30.825 12.675 0.375
32.325 8.325 1.875
32.325 8.325 1.425
32.325 8.325 2.325
32.475 9.225 1.575
32.475 9.225 1.725
32.475 9.675 -0.075
32.475 9.075 1.575
32.025 7.425 2.625
32.175 7.725 2.775
29.925 5.475 0.525
28.875 5.175 1.575
32.475 8.775 0.825
31.125 6.225 -0.525
29.025 5.175 0.675
29.025 5.175 0.825
32.475 8.625 1.275
32.475 8.625 0.825
32.325 8.025 1.425
32.325 8.025 2.175
29.175 5.175 1.125
32.475 8.475 1.125
32.475 8.475 1.875
32.475 8.475 2.325
32.325 7.875 2.175
30.675 12.975 0.375
30.675 12.975 0.675
31.875 6.975 3.525
31.875 6.975 3.075
32.475 8.325 1.275
32.475 8.325 1.725
32.475 8.325 1.125
32.475 8.325 0.825
29.475 5.175 0.975
32.475 8.175 1.575
32.475 8.175 0.975
27.825 5.025 -3.225
32.025 7.125 2.775
32.025 7.125 2.925
30.975 12.825 1.125
30.975 12.825 0.375
30.975 5.925 -0.825
32.625 9.975 0.375
32.625 8.775 0.975
30.825 12.975 0.675
31.875 6.825 3.375
31.875 6.825 3.075
32.475 8.025 0.975
32.625 8.625 2.025
32.625 8.625 1.125
32.175 7.275 3.225
32.325 7.575 -0.075
29.175 5.025 0.825
32.625 8.475 0.975
32.625 8.475 0.675
32.025 6.975 3.075
31.425 12.525 -0.675
32.475 7.875 3.225
32.625 8.325 1.275
32.625 8.325 0.825
32.625 8.325 0.975
32.625 8.325 1.575
32.625 8.325 1.425
30.225 5.325 -0.075
32.325 7.425 -1.575
32.325 7.425 2.325
32.175 7.125 2.775
32.175 7.125 1.125
32.175 7.125 3.075
32.175 11.625 1.575
30.525 13.275 0.825
32.775 9.075 2.325
27.075 13.725 0.075
32.625 8.175 0.525
32.625 8.175 0.825
32.625 8.175 1.275
32.625 8.175 0.975
32.475 7.725 2.325
32.775 8.925 0.525
32.025 6.825 3.675
27.675 13.875 0.075
27.675 4.875 -2.925
29.625 13.725 0.675
32.625 8.025 0.075
32.625 8.025 1.875
32.625 8.025 0.525
32.625 8.025 1.425
32.775 8.625 1.725
30.375 13.425 1.125
30.375 13.425 0.525
32.325 7.275 3.375
32.325 7.275 2.625
30.075 13.575 0.675
32.475 7.575 1.125
31.275 12.825 1.275
31.725 6.375 1.125
32.175 6.975 3.075
29.175 4.875 0.825
31.125 5.775 -0.225
31.875 6.525 0.525
31.875 6.525 3.825
31.875 6.525 3.525
32.625 7.875 1.425
27.225 13.875 0.225
32.025 6.675 0.525
32.775 10.425 0.225
32.775 8.325 0.975
32.775 8.325 0.675
32.475 7.425 0.975
32.475 7.425 2.025
30.525 13.425 0.225
32.325 7.125 2.625
32.625 7.725 1.725
32.625 7.725 1.875
32.625 7.725 2.025
32.625 7.725 0.825
27.075 4.875 -4.125
32.775 8.175 0.825
28.575 14.025 1.875
24.825 6.225 -0.075
31.875 6.375 3.525
30.375 13.575 1.125
32.475 7.275 2.325
32.775 8.025 1.425
32.775 8.025 1.275
32.625 7.575 1.875
32.625 7.575 2.325
32.325 6.975 2.475
32.325 6.975 0.675
29.025 4.725 0.975
32.925 8.475 1.125
32.925 8.475 0.975
27.375 14.025 0.225
29.175 4.725 -0.375
29.175 4.725 0.525
32.175 12.075 0.975
32.775 7.875 1.125
32.775 7.875 1.425
32.775 7.875 1.725
32.775 7.875 1.575
32.775 7.875 -1.725
32.775 7.875 1.275
30.975 13.275 0.675
32.475 7.125 2.175
32.475 7.125 2.475
32.925 8.325 0.675
32.925 8.325 1.425
32.925 8.325 1.275
27.225 14.025 0.375
27.225 14.025 -0.825
27.225 14.025 -0.225
29.325 4.725 0.225
32.625 7.425 1.875
32.625 7.425 2.325
32.625 7.425 2.175
30.825 5.325 0.825
32.775 7.725 1.125
32.775 7.725 1.425
32.925 8.175 0.525
32.925 8.175 0.675
32.925 8.175 0.825
32.925 8.175 0.225
32.025 6.375 0.525
33.075 9.525 0.825
30.375 13.725 1.425
32.625 7.275 2.325
27.675 14.175 0.225
30.675 5.175 0.225
32.475 6.975 0.975
32.475 6.975 2.175
32.925 8.025 1.125
32.925 8.025 0.975
32.775 7.575 1.875
32.775 7.575 1.725
27.525 4.575 0.225
29.175 4.575 0.225
27.375 14.175 0.375
31.875 6.075 0.075
31.875 12.675 0.675
33.075 8.475 0.675
32.925 7.875 1.275
32.925 7.875 1.575
32.925 7.875 1.425
30.525 13.725 1.125
30.525 13.725 0.675
32.775 7.425 1.725
24.075 6.825 1.425
30.825 13.575 0.825
27.225 14.175 0.225
30.825 5.175 0.825
33.075 8.325 0.975
33.075 8.325 1.125
32.175 12.375 -0.375
32.925 7.725 1.275
32.925 7.725 1.725
32.925 7.725 1.875
32.925 7.725 0.975
32.925 7.725 1.425
27.075 14.175 -0.075
33.075 8.175 0.525
33.075 8.175 0.825
33.075 8.175 0.975
33.075 8.175 1.125
28.275 4.425 -1.575
32.325 6.525 1.125
32.325 6.525 0.975
26.175 13.875 0.975
32.775 7.275 1.575
32.775 7.275 1.875
32.775 7.275 2.025
32.775 7.275 1.725
30.375 13.875 0.825
30.375 13.875 0.675
30.375 13.875 1.125
30.675 13.725 1.275
32.625 6.975 1.425
32.625 6.975 2.175
28.725 4.425 3.975
32.925 7.575 1.275
32.925 7.575 -0.225
32.925 7.575 1.875
32.925 7.575 1.425
32.925 7.575 1.125
33.075 8.025 0.975
33.075 8.025 1.275
32.475 12.075 5.175
32.475 6.675 -0.675
32.025 6.075 0.975
29.025 14.325 0.675
27.525 14.325 -0.375
33.225 10.125 -2.325
29.775 4.575 5.175
33.075 7.875 1.125
33.075 7.875 1.275
33.075 7.875 0.975
33.075 7.875 1.575
33.075 7.875 1.425
27.375 14.325 -0.225
27.375 14.325 0.675
32.775 7.125 -0.975
32.775 7.125 2.025
32.775 7.125 2.175
27.375 4.425 -0.075
29.175 4.425 0.225
33.225 8.475 0.375
32.325 6.375 0.225
32.325 6.375 0.825
32.325 6.375 0.675
23.925 6.825 -1.425
32.925 7.425 2.025
32.925 7.425 -0.375
29.325 4.425 0.525
33.225 8.325 0.225
33.225 8.325 1.125
31.125 13.575 0.675
29.925 14.175 1.875
33.075 7.725 1.425
27.075 14.325 0.675
33.225 8.175 0.825
33.225 8.175 1.275
33.225 10.575 0.525
32.025 5.925 0.225
32.025 5.925 0.075
32.775 6.975 -0.525
33.375 9.375 0.075
32.925 7.275 -0.225
32.925 7.275 0.675
32.925 7.275 1.725
32.925 7.275 0.825
26.175 14.025 0.975
26.175 14.025 -0.675
26.175 14.025 0.075
30.375 14.025 0.375
30.375 14.025 0.675
32.175 6.075 0.075
32.175 6.075 0.225
32.175 6.075 0.825
31.575 5.475 0.525
31.575 5.475 -0.075
33.375 9.825 -0.375
26.475 14.175 -0.075
33.075 7.575 1.575
33.075 7.575 1.275
33.075 7.575 1.125
33.225 8.025 1.275
33.225 8.025 1.575
33.225 8.025 1.125
33.225 8.025 0.975
33.225 8.025 1.875
32.325 6.225 -0.675
28.875 14.475 1.425
29.025 4.275 -1.275
33.375 8.625 -0.075
31.275 13.575 0.375
32.475 6.375 0.225
30.825 13.875 0.225
30.825 4.875 0.075
30.825 4.875 -1.275
33.225 7.875 0.975
33.225 7.875 1.425
27.375 14.475 -0.075
29.175 4.275 -0.525
26.325 14.175 -0.075
30.225 14.175 0.825
33.075 7.425 1.425
33.075 7.425 0.375
32.025 5.775 -0.375
32.025 5.775 0.075
31.875 5.625 0.525
32.175 12.825 0.075
32.175 5.925 -0.075
27.225 14.475 0.375
27.225 14.475 0.975
29.325 14.475 0.075
31.725 5.475 0.375
26.625 4.425 5.925
33.225 7.725 1.575
31.575 5.325 -0.075
32.325 6.075 -0.675
32.325 6.075 0.375
32.925 6.975 1.125
25.875 4.725 3.975
30.675 14.025 -0.525
30.675 14.025 0.825
27.075 14.475 -0.075
26.175 14.175 -0.675
29.475 4.275 -0.225
33.375 10.575 0.375
33.375 8.175 0.975
33.375 8.175 1.125
30.375 14.175 1.275
32.775 6.675 0.825
23.775 6.675 1.125
31.425 5.175 0.075
32.475 6.225 -0.075
32.475 6.225 -3.975
33.525 9.225 -0.225
33.525 9.675 -0.225
33.525 9.075 1.275
26.925 14.475 0.075
31.275 5.025 -0.525
28.875 4.125 -0.975
32.625 6.375 0.525
32.625 6.375 0.675
32.625 6.375 -0.075
32.625 6.375 0.075
32.625 6.375 0.225
32.625 6.375 -0.375
32.625 6.375 0.975
30.525 14.175 0.525
30.525 14.175 0.825
33.075 7.125 0.675
32.025 5.625 0.225
33.525 10.125 -0.075
31.875 5.475 -0.225
31.875 5.475 0.375
31.725 5.325 0.375
32.325 12.825 -0.975
33.225 7.425 0.225
32.325 5.925 0.675
27.375 4.125 -0.375
32.775 6.525 0.225
33.525 8.475 0.825
31.575 5.175 -0.075
31.575 5.175 -0.375
32.475 6.075 0.225
27.225 4.125 -0.075
30.675 4.575 -0.075
30.675 14.175 0.975
31.425 5.025 0.375
32.625 6.225 0.375
32.625 6.225 -0.375
30.375 14.325 1.125
30.975 4.725 0.375
33.525 8.175 0.525
29.475 14.625 0.375
29.475 4.125 -0.375
32.775 6.375 0.675
32.775 6.375 0.075
32.775 6.375 0.825
32.775 6.375 0.225
32.775 6.375 -0.375
31.275 4.875 -0.075
33.375 7.575 0.825
32.175 5.625 0.075
32.175 5.625 0.225
32.175 5.625 0.825
31.875 5.325 -0.225
31.875 5.325 -0.075
32.325 5.775 0.375
32.325 5.775 -0.225
26.925 14.625 0.375
28.875 14.775 -0.525
28.875 14.775 0.975
30.825 14.175 -0.225
30.825 14.175 0.225
31.725 5.175 -0.225
31.725 5.175 -0.375
31.725 5.175 0.825
32.475 5.925 0.375
32.475 5.925 -0.225
32.475 5.925 -0.525
26.025 14.325 -0.075
26.025 14.325 -0.825
33.225 7.125 -0.225
29.025 14.775 0.525
32.925 6.525 0.975
32.925 6.525 0.825
32.925 6.525 -0.525
23.625 6.525 0.375
31.125 14.025 -0.075
31.125 4.725 0.075
26.325 14.475 0.075
31.575 5.025 0.075
33.525 7.875 1.425
31.575 5.025 -0.225
32.625 6.075 0.675
32.625 6.075 -0.225
32.625 6.075 -0.075
32.625 6.075 1.275
32.625 6.075 0.525
33.375 7.425 2.325
33.675 8.475 0.225
29.175 3.975 0.225
32.775 6.225 0.075
32.775 6.225 0.375
32.775 6.225 -0.375
32.775 6.225 0.675
32.775 6.225 0.825
31.425 4.875 0.675
31.425 4.875 -0.525
31.425 4.875 0.225
30.675 14.325 0.525
29.325 14.775 0.375
29.325 3.975 -0.525
30.675 4.425 2.025
33.225 6.975 1.275
33.225 6.975 -0.525
26.625 14.625 -0.075
25.575 14.175 0.675
30.975 4.575 -0.975
30.975 14.175 -0.225
33.075 6.675 -1.425
26.175 14.475 0.075
33.375 7.275 -0.525
32.025 5.325 0.075
32.325 5.625 0.075
32.325 5.625 0.225
32.325 5.625 -0.075
32.325 5.625 -0.225
32.325 13.125 0.225
27.075 14.775 0.675
31.875 5.175 -0.075
32.475 5.775 0.675
32.475 5.775 -0.075
32.475 5.775 -0.375
32.475 5.775 -0.225
32.475 5.775 0.225
31.275 4.725 0.525
31.275 4.725 -0.675
31.275 4.725 0.825
26.475 14.625 -0.975
26.475 14.625 0.375
33.525 7.575 0.075
28.425 14.925 0.525
31.725 5.025 -0.225
32.625 5.925 0.225
32.625 5.925 0.525
28.575 14.925 -0.375
33.825 9.075 2.025
33.675 8.025 0.225
26.925 14.775 -0.225
30.825 14.325 0.975
30.825 14.325 0.825
33.225 6.825 -0.525
33.225 6.825 -0.675
33.225 6.825 0.825
33.225 6.825 0.975
26.025 14.475 -0.075
33.375 7.125 -0.075
32.775 6.075 0.975
32.775 6.075 0.375
32.775 6.075 0.525
31.575 4.875 0.675
28.875 14.925 0.375
27.525 3.825 -0.225
33.525 7.425 0.975
29.025 14.925 -0.075
33.825 10.125 -0.375
33.675 7.875 0.675
29.775 14.775 0.675
29.775 3.975 -1.125
31.425 4.725 1.125
31.425 4.725 -0.975
31.425 4.725 0.075
31.425 4.725 0.225
31.425 4.725 0.375
31.425 4.725 0.525
31.425 4.725 -0.375
32.325 5.475 0.675
32.325 5.475 0.225
33.825 10.275 0.675
33.825 10.275 -0.675
33.825 8.475 -0.075
33.825 8.475 0.675
33.825 8.475 0.225
32.475 5.625 -0.225
32.475 5.625 0.825
32.475 5.625 2.025
32.475 5.625 -0.375
25.875 14.475 -0.075
30.675 14.475 1.275
30.675 14.475 1.875
33.375 6.975 1.725
30.975 4.425 -3.525
33.225 6.675 0.675
33.675 7.725 -0.375
26.625 14.775 -0.075
26.625 14.775 -0.225
32.625 5.775 0.525
29.925 14.775 0.825
32.625 5.775 0.975
32.625 5.775 0.075
33.825 8.325 0.825
33.825 10.425 0.675
26.175 14.625 0.525
26.175 14.625 0.075
26.175 14.625 -0.525
30.375 4.125 1.725
33.075 6.375 -0.075
33.075 6.375 1.125
33.075 6.375 0.675
32.775 5.925 -0.525
32.775 5.925 0.675
32.775 5.925 1.275
32.775 5.925 0.075
32.775 5.925 0.525
32.775 5.925 0.225
32.775 5.925 -0.225
31.725 4.875 -0.525
31.725 4.875 0.075
29.475 3.825 0.825
29.475 3.825 0.675
29.475 14.925 0.375
33.675 7.575 -0.225
33.675 7.575 0.825
33.675 7.575 -0.075
28.275 15.075 -0.375
33.975 9.375 -0.375
25.725 14.475 0.225
32.925 6.075 0.675
31.575 4.725 -0.375
30.825 4.275 1.575
33.375 6.825 0.975
33.375 6.825 0.825
26.925 14.925 -0.225
31.125 14.325 0.825
30.525 14.625 0.975
30.525 14.625 0.825
33.225 6.525 0.375
33.225 6.525 0.675
33.825 8.025 -0.825
32.325 5.325 3.075
32.325 5.325 2.025
32.175 13.575 1.125
32.175 5.175 -0.675
32.475 5.475 0.375
32.475 5.475 -0.075
32.475 5.475 -0.675
32.475 5.475 0.525
32.475 5.475 0.675
33.975 9.975 -0.675
32.475 5.475 2.025
33.675 7.425 0.675
26.325 14.775 0.825
26.325 14.775 -0.075
26.325 14.775 -0.375
30.225 14.775 0.975
31.425 4.575 0.375
31.425 4.575 -0.525
31.425 4.575 0.225
33.075 6.225 0.075
33.075 6.225 0.675
32.025 5.025 -0.525
32.025 5.025 -0.225
32.025 5.025 -0.075
32.025 5.025 -0.375
32.625 5.625 2.775
32.625 5.625 0.525
32.625 5.625 -0.675
32.625 5.625 -0.225
29.025 15.075 -0.225
33.975 10.125 1.275
33.975 10.125 0.975
33.975 10.125 2.175
33.975 10.125 -0.675
32.775 5.775 -0.075
32.775 5.775 0.525
32.775 5.775 -0.525
32.775 5.775 0.675
32.775 5.775 0.075
31.875 4.875 1.875
29.175 15.075 0.525
30.975 14.475 0.675
33.375 6.675 0.225
33.975 10.275 0.675
33.975 8.475 0.225
25.875 14.625 0.225
33.525 11.775 -0.075
33.525 6.975 0.675
33.525 6.975 0.975
30.675 14.625 1.125
30.675 14.625 0.975
30.675 14.625 0.225
33.225 6.375 0.375
33.225 6.375 -0.075
33.225 6.375 0.675
33.225 6.375 0.075
32.925 12.825 0.375
31.725 4.725 -0.525
31.725 4.725 -0.075
33.675 7.275 0.675
33.675 7.275 -0.525
30.375 14.775 0.975
33.975 8.325 0.225
33.975 10.425 0.825
29.475 15.075 0.225
31.575 4.575 0.375
31.575 4.575 -0.075
31.575 4.575 0.225
29.475 3.675 0.075
33.075 6.075 0.375
33.075 6.075 -0.075
33.075 6.075 0.225
26.475 14.925 -0.525
30.075 3.825 0.975
30.075 14.925 0.825
32.475 5.325 0.525
32.475 5.325 -0.825
32.475 5.325 0.675
32.325 5.175 0.525
33.825 7.575 0.525
33.825 7.575 0.825
33.525 6.825 -0.525
33.525 6.825 1.575
30.825 4.125 -0.825
30.825 14.625 0.825
32.175 5.025 2.325
32.175 5.025 -0.975
32.175 5.025 -0.525
32.175 5.025 -0.075
31.125 14.475 0.825
32.625 5.475 0.375
33.375 6.525 -0.225
33.675 7.125 0.675
28.275 15.225 0.525
30.525 14.775 0.975
28.425 15.225 -0.375
32.025 4.875 1.875
32.775 5.625 -0.525
32.775 5.625 0.225
32.775 5.625 0.525
32.775 5.625 2.625
32.025 4.875 0.675
32.025 4.875 -0.825
28.575 15.225 1.425
34.125 9.075 3.225
31.425 14.325 1.875
31.425 4.425 -0.375
33.225 6.225 0.675
33.225 6.225 0.825
32.925 5.775 0.675
32.925 5.775 0.375
32.925 5.775 -0.825
34.125 9.975 1.425
34.125 8.775 -1.275
26.325 14.925 -0.225
30.225 14.925 -0.525
33.825 7.425 0.675
26.775 15.075 0.075
29.025 3.525 -0.825
29.025 15.225 0.375
34.125 10.125 0.825
34.125 8.625 0.375
23.025 6.675 1.425
33.525 6.675 -0.525
33.525 6.675 0.825
33.525 6.675 -0.675
30.975 14.625 0.825
30.975 14.625 0.675
33.675 6.975 -0.675
33.675 6.975 0.675
33.675 6.975 -0.375
31.725 4.575 0.675
31.725 4.575 0.525
31.725 4.575 0.825
31.725 4.575 -0.075
31.725 14.175 -0.375
33.075 5.925 0.525
33.075 5.925 1.575
33.075 5.925 0.675
31.275 4.275 -0.675
31.275 4.275 0.525
29.175 3.525 0.225
34.125 10.275 -0.375
34.125 10.275 1.275
34.125 8.475 -0.075
34.125 8.475 0.525
26.175 14.925 -0.225
30.375 14.925 0.225
30.375 14.925 1.275
33.975 7.725 0.525
33.975 7.725 0.825
32.475 5.175 2.475
29.325 15.225 -0.225
29.325 15.225 0.375
29.325 15.225 0.225
32.625 5.325 -0.525
32.625 5.325 0.525
34.125 8.325 0.075
34.125 8.325 -4.425
34.125 8.325 0.225
32.625 5.325 0.225
32.325 5.025 2.175
32.325 5.025 0.525
31.575 4.425 -0.525
31.575 4.425 0.525
31.575 4.425 -0.375
33.225 6.075 1.275
33.225 6.075 -0.225
33.225 6.075 -0.075
33.225 6.075 2.475
33.225 6.075 -0.375
32.175 4.875 0.675
32.175 4.875 -0.675
32.175 4.875 -0.525
32.175 4.875 -0.225
32.775 5.475 -0.225
32.775 5.475 -0.525
32.775 5.475 0.825
32.775 5.475 0.075
33.675 6.825 -0.375
33.675 6.825 -0.525
33.675 6.825 0.225
33.675 6.825 0.825
25.725 14.775 0.075
25.725 14.775 0.825
30.825 3.975 -0.525
30.825 3.975 -0.675
30.825 14.775 -0.225
34.125 8.175 0.225
34.125 8.175 0.525
25.425 14.625 0.675
32.925 5.625 0.525
32.925 5.625 -0.075
32.925 5.625 -0.675
32.925 5.625 -0.375
32.025 4.725 -0.525
33.525 6.525 2.025
33.525 6.525 0.825
33.525 6.525 -1.275
31.125 4.125 -0.825
31.125 4.125 0.525
26.475 15.075 0.225
33.975 7.575 0.375
33.975 7.575 0.825
33.975 11.175 0.975
30.525 3.825 2.025
30.525 3.825 -1.425
33.825 7.125 0.675
33.825 7.125 -0.525
31.425 4.275 -0.525
33.375 6.225 -0.075
33.375 6.225 0.675
33.375 6.225 0.375
33.375 6.225 0.225
28.275 15.375 0.225
28.275 15.375 0.975
34.275 9.375 0.375
34.275 9.375 -0.075
31.875 4.575 -0.525
33.075 5.775 1.875
33.075 5.775 1.725
33.075 5.775 -0.375
33.075 5.775 0.675
34.275 9.225 0.225
29.625 15.225 -0.375
34.125 10.725 0.225
27.975 3.375 0.075
34.275 9.075 0.375
34.275 8.925 0.675
34.275 9.825 2.325
26.325 3.675 0.075
33.975 7.425 0.825
33.975 7.425 -0.375
33.975 7.425 0.075
33.975 7.425 2.025
34.275 8.775 0.075
31.725 4.425 0.525
31.725 4.425 0.075
33.225 5.925 -0.375
33.225 5.925 0.075
33.225 5.925 -0.225
33.225 5.925 2.325
33.225 5.925 0.975
33.675 6.675 0.825
33.675 6.675 -0.825
25.575 14.775 0.075
30.975 14.775 1.425
34.125 7.875 0.825
34.125 10.875 0.225
27.525 3.375 0.975
25.275 4.125 -0.075
31.275 4.125 -0.525
31.275 14.625 0.225
31.275 4.125 0.525
31.275 4.125 1.725
31.275 4.125 -0.675
31.275 14.625 0.525
34.275 10.125 0.975
34.275 8.625 -0.375
34.275 8.625 0.225
34.275 8.625 0.675
33.525 6.375 0.825
32.625 5.175 0.825
30.675 14.925 0.675
32.475 5.025 -0.225
32.475 5.025 0.375
33.825 6.975 1.125
33.825 6.975 0.825
32.775 13.425 0.525
32.775 5.325 -1.275
32.775 5.325 0.525
32.775 5.325 -0.825
32.775 5.325 -0.525
32.325 4.875 2.175
32.325 4.875 0.525
32.325 4.875 0.075
32.325 4.875 0.225
32.325 4.875 -0.225
32.325 4.875 -0.525
34.275 10.275 1.275
34.275 10.275 0.975
34.275 10.275 0.375
34.275 8.475 -0.375
32.925 5.475 -0.525
32.925 5.475 0.525
32.925 5.475 1.575
32.925 5.475 -0.075
32.925 5.475 1.425
32.925 5.475 -0.975
32.175 4.725 0.525
32.175 4.725 -0.375
32.175 4.725 -0.525
32.175 4.725 -0.975
32.175 4.725 0.825
26.175 15.075 0.075
26.175 3.675 -0.375
26.175 3.675 0.075
31.575 4.275 0.675
31.575 4.275 -0.375
31.575 4.275 0.375
31.575 4.275 0.525
31.575 4.275 3.525
33.375 6.075 0.675
33.375 6.075 -0.225
33.975 7.275 -0.225
33.975 7.275 -0.375
33.975 7.275 0.825
32.025 4.575 -0.525
32.025 4.575 -0.375
34.275 8.325 -0.225
34.275 8.325 0.375
34.275 8.325 0.525
33.075 5.625 0.675
33.075 5.625 1.575
33.075 5.625 -0.225
33.075 5.625 -0.675
33.675 6.525 0.825
33.675 6.525 3.675
33.675 6.525 -0.975
25.425 14.775 0.525
25.425 14.775 0.225
31.125 3.975 0.525
30.825 3.825 -0.525
30.825 3.825 0.675
30.825 14.925 0.525
30.825 14.925 1.125
33.825 6.825 0.825
33.825 6.825 1.875
33.825 11.925 0.225
34.275 8.175 -0.075
34.275 10.575 -2.775
30.075 3.525 0.975
30.075 3.525 0.825
31.875 4.425 0.675
31.875 4.425 3.975
31.875 4.425 -0.525
34.125 11.175 -1.575
33.225 5.775 -0.225
33.525 6.225 -0.225
33.525 6.225 1.725
33.525 6.225 0.825
33.525 6.225 0.675
31.425 14.625 1.125
31.425 4.125 -0.525
31.425 4.125 0.525
31.425 14.625 0.975
26.025 15.075 1.725
30.525 3.675 -0.675
33.975 7.125 0.825
34.275 8.025 0.825
34.275 8.025 0.975
34.275 8.025 0.075
34.275 8.025 0.675
34.425 9.225 0.825
28.125 3.225 -0.075
32.625 5.025 -0.675
32.625 5.025 -0.525
32.625 5.025 0.525
32.625 5.025 1.575
32.625 5.025 -0.075
32.625 13.725 0.975
32.775 5.175 0.525
32.775 5.175 1.725
32.775 5.175 1.575
32.775 5.175 -1.275
32.775 5.175 -0.825
32.775 5.175 -0.075
32.475 4.875 -0.525
32.475 4.875 2.925
32.475 4.875 -0.675
32.475 4.875 -0.375
34.425 9.675 0.525
34.425 9.675 0.975
27.975 15.525 0.075
27.975 15.525 -1.125
28.575 15.525 0.375
31.725 14.475 0.525
31.725 14.475 0.225
31.725 4.275 -0.975
31.725 4.275 -0.525
31.725 4.275 -0.375
33.375 5.925 0.075
33.375 5.925 -0.375
33.375 5.925 0.675
33.375 5.925 -0.225
34.425 9.825 -0.825
34.425 9.825 1.425
32.925 5.325 0.825
32.925 5.325 -0.375
32.925 5.325 -0.525
32.925 5.325 -0.225
32.925 5.325 0.075
32.925 5.325 -0.075
32.925 5.325 0.525
32.925 5.325 0.225
27.825 15.525 0.375
28.725 3.225 -0.075
27.825 3.225 1.275
34.125 7.425 0.225
34.125 7.425 -0.075
34.125 7.425 0.825
32.325 4.725 -0.675
32.325 4.725 -0.525
25.575 14.925 -0.525
30.975 3.825 -0.375
30.975 3.825 0.375
30.975 3.825 0.525
30.975 14.925 1.275
33.825 6.675 1.875
33.825 6.675 1.575
33.825 6.675 0.825
33.675 6.375 0.075
33.675 6.375 0.825
33.675 6.375 2.925
33.675 6.375 1.875
33.675 6.375 1.575
31.275 3.975 0.525
31.275 14.775 0.825
34.425 8.775 -0.375
34.425 8.775 0.375
28.875 15.525 0.075
32.175 4.575 -0.075
32.175 4.575 -2.325
32.175 4.575 -0.225
25.875 15.075 -0.525
34.275 7.875 0.675
30.675 15.075 1.275
30.675 15.075 0.975
33.975 6.975 0.825
33.975 6.975 -0.375
33.975 6.975 -0.675
33.975 6.975 1.575
33.975 6.975 0.525
33.075 5.475 1.275
33.075 5.475 1.575
33.075 5.475 -0.075
33.075 13.275 0.225
34.425 10.125 1.425
34.425 10.125 -0.975
34.425 8.625 1.275
27.525 15.525 -0.825
29.025 3.225 -0.075
29.025 3.225 -0.225
27.525 3.225 1.875
33.525 12.675 -0.225
31.575 14.625 0.525
31.575 14.625 0.825
31.575 4.125 -0.225
31.575 4.125 0.525
31.575 4.125 -0.675
31.575 4.125 0.225
31.575 4.125 -0.375
33.525 6.075 0.825
32.025 14.325 1.725
32.025 4.425 -0.675
32.025 4.425 -0.075
33.225 5.625 0.825
33.225 5.625 -0.375
33.225 5.625 1.725
33.225 5.625 1.275
34.425 10.275 0.525
34.425 10.275 -0.075
34.425 8.475 0.975
34.425 10.275 0.975
34.425 10.275 0.675
34.425 10.275 0.825
34.425 8.475 -0.375
27.375 3.225 -0.225
27.375 3.225 -0.075
29.175 3.225 -0.225
34.125 7.275 -0.225
34.125 7.275 -0.525
34.125 7.275 0.375
34.125 11.475 1.275
34.125 11.475 0.975
26.625 3.375 0.525
26.625 15.375 0.675
34.275 7.725 -0.075
34.275 7.725 0.675
25.425 3.825 -0.075
34.425 10.425 0.975
34.425 10.425 0.525
34.425 8.325 0.675
31.125 3.825 0.375
31.125 3.825 -0.225
33.825 6.525 0.825
33.825 6.525 3.075
33.825 6.525 2.175
31.875 4.275 0.525
33.375 5.775 0.675
33.375 5.775 -0.075
33.375 5.775 -0.375
33.375 5.775 1.275
33.375 5.775 0.375
25.725 15.075 1.425
22.575 6.825 1.425
33.975 6.825 0.825
33.975 6.825 1.575
33.975 6.825 0.525
33.675 6.225 0.525
33.675 6.225 1.275
33.675 6.225 1.575
33.675 6.225 0.825
31.425 3.975 0.525
31.425 3.975 -0.075
31.425 14.775 1.275
32.775 13.725 0.975
32.775 5.025 0.525
32.775 5.025 1.875
32.625 4.875 -0.525
32.625 4.875 1.875
32.625 4.875 0.525
32.625 4.875 -0.675
26.475 3.375 -0.525
34.275 7.575 0.525
34.275 7.575 -0.525
34.275 7.575 -0.075
30.075 3.375 0.525
34.425 8.175 -0.075
34.425 8.175 0.825
34.425 8.175 2.025
32.925 5.175 -1.575
32.925 5.175 -1.125
32.925 5.175 -0.075
32.925 5.175 0.675
32.925 5.175 0.225
32.925 5.175 0.525
29.475 3.225 0.075
32.475 4.725 0.525
32.475 4.725 -0.525
30.525 15.225 1.575
30.525 3.525 -1.125
26.025 3.525 -0.225
34.125 7.125 0.675
33.075 5.325 -0.675
33.075 5.325 -0.375
33.075 5.325 -0.525
33.075 5.325 1.125
33.075 5.325 0.675
33.075 5.325 0.975
32.325 14.175 1.725
32.325 4.575 -0.675
32.325 4.575 -0.825
32.325 4.575 -0.375
32.325 4.575 0.525
32.325 4.575 -0.225
33.525 5.925 1.275
33.525 5.925 0.225
31.725 4.125 0.525
31.725 4.125 -0.375
31.725 4.125 -0.525
31.725 4.125 0.225
31.725 4.125 0.075
31.725 4.125 -0.675
31.725 4.125 -0.225
34.425 10.725 0.075
34.425 8.025 -0.525
26.925 3.225 -0.525
26.925 3.225 0.075
26.925 3.225 0.525
29.625 3.225 0.525
29.625 3.225 0.075
28.275 3.075 -0.075
28.275 3.075 0.375
28.275 3.075 -0.225
28.275 15.675 -0.225
32.175 14.325 1.725
32.175 4.425 -0.225
32.175 4.425 -0.375
32.175 4.425 0.075
32.175 4.425 0.675
28.425 3.075 0.375
28.425 3.075 -0.525
28.125 3.075 -0.675
28.125 15.675 -0.525
28.125 15.675 0.375
33.225 5.475 -0.675
33.225 5.475 0.975
33.225 5.475 1.125
33.225 5.475 -0.375
33.225 5.475 0.675
33.225 5.475 2.025
34.575 9.525 1.125
34.575 9.225 0.225
34.575 9.525 0.825
34.575 9.525 1.275
34.575 9.525 0.375
27.975 3.075 0.525
27.975 15.675 -0.525
27.975 15.675 -0.225
30.975 15.075 0.525
30.975 15.075 -0.075
30.975 3.675 0.375
30.975 3.675 0.525
33.975 6.675 1.275
33.975 6.675 0.825
33.975 6.675 2.175
33.975 6.675 1.575
34.575 9.675 0.975
34.575 9.675 1.275
34.575 9.075 0.675
31.275 3.825 -0.375
31.275 3.825 0.225
31.275 3.825 0.525
31.275 3.825 0.375
34.275 11.325 1.125
25.275 3.825 0.675
34.275 7.425 -0.225
34.275 7.425 0.825
30.225 3.375 0.825
30.225 3.375 -0.675
25.275 14.925 -0.225
33.825 6.375 0.525
33.825 6.375 1.275
33.825 6.375 2.925
33.825 6.375 0.825
27.825 3.075 -0.375
27.825 15.675 -0.225
27.825 15.675 -0.375
28.725 15.675 -0.225
34.575 9.825 1.575
34.575 9.825 1.125
34.575 8.925 -0.525
30.675 3.525 -0.675
30.675 3.525 -1.275
30.675 3.525 -0.525
34.125 6.975 1.875
34.125 6.975 0.825
34.125 6.975 2.325
34.125 6.975 -0.225
33.675 6.075 0.375
33.675 6.075 0.825
33.675 6.075 1.125
28.875 3.075 -0.375
27.675 3.075 -0.675
27.675 3.075 1.275
31.575 3.975 -0.675
34.575 9.975 0.975
34.575 9.975 0.375
34.575 9.975 1.425
34.575 9.975 0.825
34.575 8.775 1.275
34.575 8.775 0.825
34.425 7.875 3.225
34.425 7.875 0.675
32.025 4.275 -0.675
32.025 4.275 0.525
33.375 5.625 -0.075
33.375 5.625 0.375
33.375 5.625 0.525
33.375 5.625 0.675
33.375 5.625 1.125
29.025 3.075 -0.975
27.525 3.075 0.075
27.525 3.075 -0.225
29.025 15.675 -0.225
34.575 10.125 0.525
34.575 10.125 0.825
34.575 10.125 0.975
34.575 10.125 1.425
34.575 10.125 -0.675
34.575 8.625 -0.225
34.275 11.475 0.525
34.275 7.275 0.675
34.275 7.275 -0.075
22.275 7.275 1.275
30.375 3.375 -0.675
32.775 13.875 0.825
29.175 3.075 -0.525
29.175 3.075 0.675
29.175 3.075 0.375
32.775 4.875 1.425
32.775 4.875 0.675
29.175 15.675 -1.275
34.575 10.275 0.825
34.575 10.275 0.525
34.575 10.275 0.675
34.575 10.275 0.975
34.575 8.475 0.675
33.525 5.775 1.275
33.525 5.775 1.125
31.875 4.125 0.225
31.875 4.125 -0.375
31.875 4.125 -0.675
31.875 14.625 0.375
31.875 14.625 0.825
32.925 5.025 0.975
32.925 5.025 -0.375
32.925 5.025 0.675
32.925 5.025 1.125
32.925 5.025 0.375
32.925 5.025 1.725
34.425 7.725 -0.075
34.425 7.725 0.225
34.425 7.725 0.975
34.425 7.725 0.825
32.925 13.725 1.125
32.925 13.725 0.675
32.625 4.725 1.275
32.625 4.725 -0.525
32.625 4.725 0.525
32.625 4.725 -1.125
29.925 3.225 -0.075
31.125 3.675 0.375
31.125 3.675 0.525
31.125 3.675 -0.525
31.125 3.675 0.225
33.975 6.525 -1.875
33.975 6.525 1.275
33.975 6.525 -0.825
33.975 6.525 0.525
33.975 6.525 0.825
33.975 12.225 0.675
32.475 4.575 0.525
32.475 4.575 1.575
32.475 4.575 1.725
32.475 4.575 -0.675
32.475 4.575 -0.525
33.075 5.175 0.975
33.075 5.175 1.575
33.075 5.175 1.125
33.075 5.175 0.525
33.075 5.175 0.225
33.075 5.175 1.275
25.725 15.225 -0.225
25.725 3.525 0.225
30.825 15.225 2.325
30.825 3.525 0.525
30.825 3.525 -0.225
31.425 3.825 0.375
31.425 3.825 0.525
34.125 6.825 -0.075
34.125 6.825 1.425
34.125 6.825 2.325
34.125 6.825 -0.975
34.125 6.825 1.275
31.425 14.925 0.975
31.425 14.925 1.275
33.825 6.225 0.825
33.825 6.225 1.425
29.325 3.075 0.825
34.575 10.425 0.525
33.225 5.325 0.675
33.225 5.325 -0.525
33.225 5.325 0.825
33.225 5.325 0.225
33.225 5.325 -0.675
32.325 14.325 2.025
33.225 5.325 0.375
32.325 4.425 -0.375
32.325 4.425 1.575
32.325 4.425 0.525
32.325 4.425 -0.525
33.225 13.425 0.825
33.675 5.925 -0.525
33.675 5.925 0.825
34.425 7.575 0.075
34.425 7.575 -2.175
34.425 7.575 0.825
34.425 7.575 3.075
26.475 15.525 -0.525
34.275 7.125 0.675
34.275 11.625 0.675
34.275 7.125 0.825
22.275 7.125 -0.525
30.075 3.225 0.675
31.725 3.975 0.675
31.725 3.975 0.525
31.725 3.975 -0.525
31.725 14.775 0.225
31.725 14.775 0.675
27.075 3.075 0.825
27.075 3.075 0.225
29.475 3.075 -0.525
34.575 8.175 0.675
34.575 8.175 0.525
34.575 10.575 0.525
32.175 4.275 -0.525
32.175 4.275 2.625
32.175 4.275 -0.825
32.175 4.275 -0.675
32.175 14.475 2.025
33.375 5.475 1.125
33.375 5.475 -0.075
33.375 5.475 -0.375
31.275 3.675 -0.975
31.275 3.675 0.525
33.975 6.375 0.825
33.975 6.375 2.625
30.975 3.525 -0.075
30.975 3.525 0.525
34.125 6.675 1.125
34.125 6.675 0.825
34.125 6.675 0.525
34.125 6.675 1.275
34.125 6.675 1.725
34.575 8.025 0.825
34.575 8.025 0.675
34.575 10.725 0.525
34.575 8.025 0.075
28.275 2.925 0.525
28.275 2.925 -0.075
28.275 2.925 0.075
34.725 9.375 0.825
34.425 11.325 1.275
34.425 11.325 0.975
34.425 7.425 0.825
34.425 7.425 1.875
34.425 7.425 0.675
28.125 15.825 -0.525
33.525 5.625 -0.375
33.525 5.625 0.525
32.025 4.125 -0.825
32.025 4.125 0.375
32.025 4.125 1.575
32.025 4.125 0.525
32.025 4.125 -0.075
33.525 13.125 1.575
28.125 2.925 0.525
28.425 2.925 -0.375
28.425 2.925 -0.075
26.325 3.225 -0.075
30.225 15.525 -1.275
34.725 9.525 1.125
34.725 9.525 0.975
34.725 9.225 0.825
34.725 9.525 0.375
27.975 15.825 0.525
27.975 15.825 -0.075
27.975 15.825 -0.225
27.975 2.925 0.375
31.575 3.825 -0.225
31.575 3.825 0.525
31.575 3.825 -0.525
31.575 3.825 -0.375
28.575 2.925 0.525
28.575 2.925 -0.675
31.575 14.925 0.675
31.575 14.925 0.525
31.575 14.925 0.375
34.725 9.675 0.825
34.725 9.675 0.975
34.725 9.075 0.225
33.825 6.075 0.075
34.275 11.775 0.225
34.275 6.975 -0.975
34.275 6.975 1.125
34.275 6.975 1.575
34.275 6.975 1.275
34.275 6.975 0.675
22.275 6.975 0.975
30.675 3.375 0.525
30.675 3.375 -0.975
30.675 3.375 -0.675
27.825 15.825 0.075
28.725 2.925 0.525
28.725 2.925 -0.225
27.825 2.925 0.525
34.725 9.825 0.975
34.725 9.825 0.675
32.925 4.875 0.975
32.925 4.875 2.475
32.925 4.875 1.125
32.925 4.875 -0.225
32.925 4.875 0.525
32.925 4.875 0.375
32.925 4.875 -0.675
32.925 4.875 -0.525
32.775 4.725 -0.525
32.775 4.725 -0.375
32.775 4.725 1.125
26.775 3.075 0.225
29.775 3.075 -0.825
34.575 7.875 0.825
27.675 2.925 -0.675
27.675 2.925 0.675
27.675 2.925 -0.375
28.875 2.925 0.825
28.875 2.925 0.075
32.625 4.575 1.125
32.625 14.175 1.725
32.625 14.175 -0.975
33.075 5.025 0.225
33.075 5.025 0.375
33.075 5.025 0.525
33.075 5.025 -0.525
33.075 5.025 -0.375
34.725 9.975 0.825
34.725 9.975 -0.075
34.725 9.975 0.375
34.725 8.775 0.075
34.725 8.775 0.825
34.725 8.775 -0.525
33.075 13.725 0.675
33.675 12.975 0.825
33.675 5.775 0.975
33.675 5.775 -0.375
31.875 3.975 -0.375
31.875 3.975 0.525
31.875 3.975 0.675
32.475 14.325 1.875
33.225 5.175 -0.225
32.475 4.425 -0.525
32.475 4.425 0.525
27.525 2.925 -0.675
29.025 2.925 0.675
29.025 2.925 0.375
29.025 2.925 0.075
29.025 2.925 -0.375
34.725 8.625 -0.375
34.725 8.625 0.825
34.725 8.625 1.875
34.425 7.275 1.575
34.425 7.275 2.175
34.425 7.275 0.675
30.375 3.225 -0.225
30.375 3.225 -0.825
25.425 15.225 2.025
31.125 3.525 0.525
31.125 3.525 0.075
31.125 3.525 -0.375
34.125 6.525 -0.375
34.125 6.525 1.275
34.125 6.525 1.125
34.125 6.525 -0.525
25.125 15.075 -0.075
27.375 2.925 0.525
26.625 3.075 0.675
29.175 2.925 0.675
29.175 2.925 0.525
29.925 3.075 0.675
33.375 5.325 -0.825
33.375 5.325 -1.275
33.375 5.325 0.375
33.375 5.325 0.075
31.425 3.675 -0.375
31.425 3.675 0.525
33.375 13.425 -3.375
32.325 4.275 1.425
32.325 4.275 -0.525
32.325 4.275 0.525
34.725 10.275 0.675
34.725 8.475 0.675
32.325 14.475 0.375
32.325 14.475 2.025
34.575 11.025 0.225
34.575 7.725 -0.225
34.575 7.725 -0.675
34.575 7.725 1.725
34.575 7.725 1.875
34.575 7.725 0.825
34.275 6.825 -0.225
34.275 6.825 0.675
34.275 6.825 0.375
34.275 6.825 1.725
34.275 11.925 0.225
30.825 15.375 0.225
30.825 3.375 0.525
27.225 2.925 -1.275
27.225 2.925 -0.525
31.725 3.825 3.075
31.725 3.825 -0.825
31.725 3.825 0.525
31.725 3.825 1.425
31.725 3.825 -0.075
31.725 14.925 0.525
34.725 10.425 0.675
34.725 10.425 0.525
34.725 8.325 0.525
34.725 8.325 0.675
33.825 5.925 0.225
32.175 4.125 -0.825
32.175 4.125 1.575
32.175 4.125 -0.525
32.175 4.125 -0.375
32.175 4.125 1.425
32.175 14.625 1.875
33.525 5.475 -0.375
33.525 5.475 2.025
33.525 5.475 0.525
33.525 5.475 1.275
33.525 5.475 -0.225
33.525 5.475 -0.525
33.525 5.475 0.225
33.525 5.475 -0.675
34.425 11.625 0.225
34.425 11.625 1.425
22.125 7.125 1.725
34.425 7.125 -0.225
34.425 7.125 0.675
34.425 7.125 1.275
34.425 7.125 0.375
34.425 7.125 -0.375
22.125 7.125 1.575
30.525 3.225 0.675
30.525 3.225 0.525
26.025 3.225 -0.975
26.475 3.075 0.675
30.075 3.075 -0.525
30.075 3.075 0.675
34.575 7.575 -0.075
34.575 11.175 0.225
34.575 11.175 0.675
34.575 7.575 0.825
34.575 7.575 2.025
34.575 7.575 1.725
34.725 8.175 -0.225
34.725 8.175 0.825
34.725 8.175 -1.425
34.725 8.175 -0.375
34.725 10.575 0.825
33.675 13.125 0.375
33.675 5.625 0.225
31.275 3.525 -0.525
31.275 3.525 1.275
31.275 3.525 -0.375
31.275 3.525 -0.825
31.275 3.525 1.575
31.275 3.525 0.525
25.275 3.525 0.525
32.025 3.975 0.075
32.025 3.975 0.525
32.025 3.975 1.725
32.025 3.975 1.275
32.025 3.975 -0.675
34.125 6.375 1.125
34.125 6.375 2.025
34.125 6.375 0.375
32.925 4.725 -0.525
32.925 4.725 1.425
32.925 4.725 -0.975
32.925 4.725 0.375
34.275 6.675 1.275
32.775 4.575 0.975
32.775 4.575 0.525
32.775 4.575 -0.375
30.975 15.375 0.825
30.975 3.375 0.225
30.975 3.375 0.525
33.075 4.875 -0.675
31.575 15.075 0.525
31.575 15.075 1.425
31.575 3.675 0.525
31.575 3.675 1.575
31.575 3.675 1.875
31.575 3.675 -0.525
33.975 6.075 0.375
26.925 2.925 0.675
26.925 2.925 -0.825
29.625 2.925 0.525
32.625 4.425 0.975
32.625 14.325 1.275
32.625 14.325 0.225
32.625 4.425 -0.675
32.625 4.425 0.675
32.625 4.425 1.575
33.225 5.025 0.375
34.725 8.025 0.675
34.725 8.025 2.175
34.725 8.025 -0.075
21.975 7.425 0.675
21.975 7.425 1.575
30.225 3.075 -0.525
34.575 11.325 0.825
34.575 7.425 0.825
34.575 7.425 1.575
28.275 2.775 -0.075
28.275 2.775 0.525
34.875 9.375 1.125
34.425 6.975 0.075
22.125 6.975 1.425
22.125 6.975 0.525
28.125 15.975 -1.275
28.425 2.775 0.375
28.125 15.975 -0.375
28.125 2.775 -0.825
28.125 2.775 0.375
30.675 3.225 0.525
30.675 3.225 0.375
34.875 9.225 0.825
34.875 9.525 0.525
34.875 9.225 -0.225
34.875 9.225 0.675
34.875 9.525 0.375
34.875 9.525 2.025
34.875 9.525 0.825
28.575 2.775 -0.075
34.875 9.675 0.225
32.475 4.275 1.125
32.475 4.275 1.275
34.875 9.075 0.825
34.875 9.075 -0.375
32.475 14.475 -0.375
32.475 14.475 -0.525
34.875 9.675 0.825
33.375 5.175 -0.675
34.875 9.675 0.375
27.825 15.975 -0.375
27.825 2.775 0.975
27.825 2.775 0.675
28.725 2.775 -0.375
27.825 15.975 0.225
27.825 2.775 0.525
31.875 3.825 0.525
31.875 3.825 -0.975
31.875 3.825 0.075
31.875 3.825 1.575
31.875 3.825 -0.075
31.875 14.925 1.725
34.875 9.825 0.375
34.875 8.925 2.475
31.875 14.925 0.825
34.875 8.925 0.825
31.875 14.925 0.525
34.875 9.825 0.075
33.825 12.975 -0.375
33.825 5.775 -0.525
26.775 2.925 -1.425
26.775 2.925 -0.225
34.725 7.875 1.575
34.725 7.875 0.675
34.725 7.875 -0.225
34.725 7.875 2.475
27.675 2.775 0.225
27.675 15.975 0.525
27.675 2.775 0.825
27.675 2.775 -0.375
28.875 2.775 1.275
27.675 15.975 -0.225
27.675 15.975 -0.375
27.675 2.775 -0.975
34.875 9.975 0.375
34.875 9.975 0.225
34.875 8.775 0.825
34.875 8.775 -0.075
33.525 5.325 0.975
33.525 5.325 0.225
33.525 5.325 -0.825
32.325 4.125 -0.525
32.325 4.125 1.125
32.325 14.625 0.075
32.325 14.625 -0.075
32.325 14.625 0.975
32.325 4.125 0.525
21.975 7.275 0.825
26.175 3.075 0.375
30.375 3.075 0.525
30.375 3.075 -0.375
34.575 7.275 1.125
34.575 11.475 0.525
34.575 11.475 1.125
34.575 11.475 1.275
34.575 7.275 1.275
