# .PCD v0.7 - Point Cloud Data file format
VERSION 0.7
FIELDS x y z
SIZE 4 4 4
TYPE F F F
COUNT 1 1 1
WIDTH 2048
HEIGHT 1
VIEWPOINT 0 0 0 1 0 0 0
POINTS 2048
DATA ascii
-36.225 16.575 -1.125
-36.225 16.575 -1.275
-36.375 16.575 -0.075
-36.375 16.575 -1.575
-36.375 16.575 -0.525
-36.225 16.425 -0.825
-36.225 16.425 -1.275
-36.375 16.425 -1.575
-36.375 16.425 -1.425
-36.375 16.425 -1.125
-36.375 16.425 -0.075
-36.225 16.725 -1.125
-36.225 16.725 -0.375
-36.225 16.725 -1.575
-36.375 16.725 -0.825
-36.375 16.725 -1.275
-36.375 16.725 -0.975
-36.075 16.575 -1.275
-36.525 16.575 0.225
-36.525 16.575 -0.375
-36.525 16.575 -1.425
-36.075 16.725 -0.675
-36.075 16.725 -1.125
-36.075 16.725 0.075
-36.075 16.725 -0.975
-36.525 16.425 0.375
-36.525 16.425 -0.525
-36.525 16.425 -1.125
-36.525 16.725 -0.525
-36.525 16.725 -1.575
-36.225 16.275 -1.275
-36.225 16.275 -0.975
-36.375 16.275 -0.075
-36.375 16.275 -0.525
-36.225 16.875 -1.125
-36.225 16.875 -0.975
-36.225 16.875 -4.875
-36.225 16.875 -0.825
-36.375 16.875 -0.075
-36.375 16.875 -1.425
-36.075 16.275 -1.425
-36.075 16.275 -1.275
-36.075 16.275 4.125
-35.925 16.575 -0.825
-36.525 16.275 -0.525
-36.525 16.275 0.225
-36.075 16.875 -0.975
-36.075 16.875 -1.125
-36.075 16.875 -0.825
-36.075 16.875 -1.575
-36.675 16.575 -0.525
-36.675 16.575 -1.575
-35.925 16.425 -2.025
-35.925 16.425 -1.425
-35.925 16.425 -1.575
-36.525 16.875 -1.275
-36.525 16.875 -1.725
-36.525 16.875 -0.525
-35.925 16.725 -0.675
-35.925 16.725 -1.125
-36.675 16.425 -0.675
-36.675 16.425 -0.525
-36.675 16.725 -1.875
-36.225 16.125 -2.025
-36.225 16.125 -0.525
-36.375 16.125 -1.125
-36.375 16.125 -1.725
-36.375 16.125 -0.075
-36.375 16.125 -1.425
-36.375 16.125 -0.525
-35.925 16.275 -1.425
-35.925 16.275 -2.175
-35.925 16.275 -1.725
-36.375 17.025 -0.825
-36.375 17.025 -0.525
-36.675 16.275 -0.525
-36.675 16.275 -0.075
-35.925 16.875 -0.225
-35.925 16.875 -0.825
-36.075 16.125 -0.525
-36.075 16.125 -1.575
-36.525 16.125 -0.525
-36.525 16.125 -1.125
-36.675 16.875 -0.525
-36.075 17.025 0.075
-36.075 17.025 -1.125
-36.075 17.025 -0.825
-35.775 16.575 -0.975
-36.525 17.025 -0.525
-36.525 17.025 -1.275
-35.775 16.425 -1.875
-35.775 16.425 -1.125
-36.825 16.575 -0.675
-35.775 16.725 -1.125
-35.775 16.725 1.875
-35.775 16.725 -0.825
-35.775 16.725 -0.975
-35.775 16.725 -0.075
-36.825 16.425 -0.675
-35.925 16.125 -1.275
-36.675 16.125 -2.025
-36.675 16.125 -0.525
-35.775 16.275 -1.725
-35.775 16.275 -0.375
-35.775 16.275 0.225
-35.775 16.275 -1.275
-35.775 16.275 -1.875
-35.775 16.275 -2.775
-36.225 15.975 -0.075
-36.225 15.975 -0.825
-36.225 15.975 -0.525
-35.925 17.025 -1.125
-36.375 15.975 -0.525
-36.375 15.975 -0.225
-36.375 15.975 -1.575
-36.675 17.025 -0.525
-35.775 16.875 -0.375
-35.775 16.875 -0.525
-36.225 17.175 0.525
-36.225 17.175 -1.425
-36.375 17.175 -0.075
-36.075 15.975 -1.275
-36.525 15.975 -1.575
-36.525 15.975 -1.125
-36.525 15.975 -1.275
-36.525 15.975 -0.525
-36.075 17.175 -1.125
-36.525 17.175 0.225
-36.525 17.175 -0.525
-35.625 16.575 -0.375
-35.775 16.125 -1.425
-35.775 16.125 -1.725
-35.625 16.425 -1.125
-35.625 16.725 -1.125
-35.625 16.725 -0.675
-36.825 16.125 -0.525
-36.825 16.125 -1.425
-35.775 17.025 -0.675
-35.775 17.025 -1.575
-35.775 17.025 0.675
-35.775 17.025 -1.725
-35.775 17.025 -0.075
-36.675 15.975 -0.525
-36.675 15.975 0.975
-36.975 16.725 -0.375
-36.975 16.725 -0.675
-36.975 16.725 -0.525
-36.975 16.725 -1.575
-36.825 17.025 -1.425
-35.925 17.175 -0.525
-35.925 17.175 -0.675
-35.625 16.275 -1.575
-36.675 17.175 0.525
-36.675 17.175 -0.525
-35.625 16.875 -0.825
-35.625 16.875 -0.375
-35.625 16.875 -0.525
-35.625 16.875 -0.075
-36.225 15.825 -1.275
-36.225 15.825 -1.725
-36.225 15.825 -0.075
-36.225 15.825 -1.425
-36.225 15.825 -1.875
-36.375 15.825 0.525
-36.375 15.825 -1.275
-36.375 15.825 -0.225
-36.375 15.825 -1.125
-36.375 15.825 -0.525
-36.375 15.825 -1.875
-36.975 16.275 -0.525
-36.975 16.875 -0.675
-36.225 17.325 -1.275
-36.225 17.325 -1.875
-36.075 15.825 -1.275
-36.075 15.825 -1.575
-36.375 17.325 -0.075
-36.525 15.825 -0.525
-36.075 17.325 -1.725
-36.075 17.325 -1.275
-36.825 15.975 -0.525
-36.825 15.975 -1.575
-35.625 16.125 -1.575
-36.525 17.325 0.525
-36.525 17.325 0.225
-36.525 17.325 -1.725
-35.775 17.175 -1.875
-35.625 17.025 -0.375
-35.625 17.025 0.225
-36.975 16.125 -0.375
-36.825 17.175 -0.525
-35.475 16.575 -1.875
-35.475 16.575 -0.225
-35.475 16.575 -0.525
-35.925 15.825 -1.275
-35.475 16.425 -0.225
-35.475 16.425 -0.525
-35.475 16.425 -0.825
-36.675 15.825 -0.525
-36.675 15.825 -0.675
-35.475 16.725 -0.225
-35.925 17.325 0.375
-35.925 17.325 -0.225
-36.675 17.325 -1.725
-36.675 17.325 -0.975
-36.675 17.325 -0.525
-35.475 16.275 -1.575
-35.475 16.875 -0.075
-35.475 16.875 -0.225
-35.475 16.875 -1.125
-35.475 16.875 -0.525
-37.125 16.275 -1.275
-35.625 15.975 -0.975
-35.625 15.975 -1.575
-36.225 15.675 -0.525
-36.225 15.675 0.075
-36.225 15.675 -1.875
-36.225 15.675 -0.075
-36.225 15.675 -2.025
-36.225 15.675 -1.575
-36.375 15.675 -0.525
-37.125 16.875 -0.525
-36.975 15.975 -1.725
-36.975 15.975 -0.675
-36.975 15.975 -0.075
-35.625 17.175 -0.375
-35.625 17.175 0.375
-35.625 17.175 -0.975
-35.625 17.175 -0.225
-35.625 17.175 0.225
-36.825 15.825 -1.425
-36.075 15.675 -1.575
-36.075 15.675 -1.275
-36.225 17.475 -1.425
-36.525 15.675 -0.525
-36.375 17.475 0.075
-36.375 17.475 -0.525
-35.775 17.325 -0.075
-35.775 17.325 0.225
-35.775 17.325 -0.225
-36.825 17.325 -1.425
-36.825 17.325 -0.675
-36.825 17.325 -1.275
-35.475 17.025 0.525
-35.475 17.025 -0.675
-35.475 17.025 0.075
-35.475 17.025 -0.225
-36.075 17.475 -1.425
-37.125 16.125 -2.625
-36.525 17.475 -0.375
-37.125 17.025 -0.975
-35.925 15.675 -1.275
-35.325 16.575 -1.425
-35.325 16.575 -0.975
-35.325 16.575 -0.225
-36.675 15.675 -0.675
-36.675 15.675 0.525
-35.325 16.425 -0.225
-35.925 17.475 -1.275
-35.925 17.475 0.375
-36.675 17.475 -1.575
-36.675 17.475 -1.725
-36.675 17.475 -1.125
-36.675 17.475 -0.525
-36.675 17.475 0.525
-35.625 15.825 -1.725
-35.625 15.825 -0.975
-35.475 15.975 -1.875
-35.475 15.975 -1.725
-35.475 15.975 -1.575
-36.975 15.825 -0.525
-36.975 15.825 0.525
-35.325 16.275 -2.325
-35.625 17.325 0.975
-35.625 17.325 -0.075
-35.325 16.875 -0.075
-35.325 16.875 -0.675
-35.325 16.875 0.075
-35.325 16.875 -0.225
-35.325 16.875 -0.525
-35.325 16.875 -0.375
-37.125 15.975 -1.875
-35.475 17.175 -0.225
-35.475 17.175 0.225
-35.775 15.675 -1.425
-35.775 15.675 -0.975
-35.775 15.675 -0.825
-35.775 15.675 -1.575
-37.275 16.275 -1.875
-36.825 15.675 0.975
-36.825 15.675 -0.825
-36.825 15.675 -2.025
-37.125 17.175 -1.425
-37.125 17.175 -0.375
-36.225 15.525 -1.575
-36.225 15.525 -0.375
-36.225 15.525 -0.825
-36.375 15.525 -1.575
-36.375 15.525 -0.825
-36.375 15.525 0.375
-36.375 15.525 -0.525
-36.375 15.525 0.525
-36.075 15.525 -2.325
-36.075 15.525 0.075
-36.075 15.525 -0.525
-36.075 15.525 -0.075
-36.225 17.625 -1.275
-36.375 17.625 0.225
-36.375 17.625 -0.525
-36.375 17.625 -0.075
-35.325 17.025 -0.225
-35.325 17.025 -0.825
-35.325 17.025 0.525
-35.325 17.025 -0.375
-37.275 16.125 -0.225
-36.075 17.625 -1.875
-35.475 15.825 -1.575
-35.925 15.525 -2.175
-35.925 15.525 -1.275
-36.675 15.525 -1.425
-36.675 15.525 -0.525
-35.625 15.675 -0.525
-35.625 15.675 -2.025
-35.625 15.675 -1.575
-35.175 16.575 -0.675
-35.475 17.325 0.525
-35.475 17.325 -0.225
-35.175 16.425 0.075
-35.925 17.625 -1.575
-35.175 16.725 -0.375
-35.175 16.725 -0.225
-35.175 16.725 -0.075
-35.175 16.725 -1.425
-35.325 15.975 -1.725
-35.625 17.475 -0.525
-35.625 17.475 -2.175
-35.625 17.475 -1.275
-36.675 17.625 -0.675
-36.675 17.625 -0.525
-37.125 17.325 -0.225
-36.975 17.475 -0.525
-35.325 17.175 -0.225
-35.325 17.175 -0.525
-35.325 17.175 -0.375
-35.325 17.175 -0.675
-35.325 17.175 0.525
-35.175 16.275 -0.675
-35.775 15.525 -1.425
-35.775 15.525 -0.675
-35.175 16.875 -0.375
-35.175 16.875 -0.675
-35.175 16.875 -0.075
-35.175 16.875 0.975
-35.175 16.875 0.825
-35.175 16.875 -0.825
-35.175 16.875 0.075
-36.825 15.525 -0.825
-36.825 15.525 -0.525
-37.425 16.275 -1.425
-35.775 17.625 -1.125
-36.225 15.375 -0.525
-36.225 15.375 -1.575
-36.225 15.375 -0.975
-36.225 15.375 0.825
-36.225 15.375 0.525
-36.375 15.375 -1.425
-36.375 15.375 -1.275
-36.375 15.375 0.225
-36.375 15.375 -0.375
-36.825 17.625 -0.675
-36.825 17.625 -1.125
-35.175 16.125 -0.225
-35.175 16.125 -2.175
-35.175 16.125 2.475
-35.475 15.675 -1.725
-35.475 15.675 -1.575
-36.075 15.375 -1.575
-36.075 15.375 0.375
-36.075 15.375 -0.825
-36.075 15.375 -1.275
-36.075 15.375 0.225
-36.075 15.375 -0.525
-36.075 15.375 -1.425
-35.175 17.025 -0.825
-35.175 17.025 -0.525
-35.175 17.025 -0.675
-36.525 15.375 -1.575
-36.525 15.375 -0.525
-36.525 15.375 -0.975
-35.325 15.825 -1.575
-36.225 17.775 -2.475
-37.425 16.125 -0.825
-36.375 17.775 -0.075
-37.125 15.675 -1.125
-37.275 15.825 -0.675
-35.325 17.325 0.375
-35.325 17.325 -0.375
-35.325 17.325 0.225
-35.325 17.325 -0.675
-35.625 15.525 -1.875
-36.525 17.775 -1.275
-36.525 17.775 -0.525
-37.125 17.475 -0.525
-37.125 17.475 -0.825
-35.925 15.375 -1.575
-36.975 15.525 -2.175
-36.975 15.525 -1.425
-37.275 17.325 -0.225
-36.675 15.375 -0.525
-35.625 17.625 -1.125
-35.625 17.625 -1.575
-36.975 17.625 -0.825
-36.975 17.625 -1.275
-35.025 16.575 -0.975
-35.025 16.575 -0.675
-35.025 16.575 1.425
-35.025 16.575 0.975
-35.925 17.775 -0.975
-35.025 16.425 0.225
-35.025 16.425 -1.275
-35.025 16.425 -1.125
-35.175 17.175 -0.375
-35.175 17.175 -0.525
-35.175 17.175 -0.225
-35.175 17.175 -0.675
-35.175 17.175 -1.125
-35.175 17.175 0.075
-36.675 17.775 -1.425
-35.025 16.725 0.675
-35.025 16.725 1.425
-35.025 16.725 0.375
-35.025 16.725 -0.825
-35.025 16.725 1.725
-35.025 16.725 -0.375
-35.025 16.725 -1.575
-35.775 15.375 -1.725
-35.775 15.375 -0.975
-35.775 15.375 -1.575
-35.775 15.375 -2.025
-37.575 16.725 -0.825
-35.025 16.275 -2.175
-35.025 16.275 0.375
-36.825 15.375 -0.825
-36.825 15.375 -0.525
-35.025 16.875 -0.825
-35.025 16.875 -0.675
-35.025 16.875 0.075
-35.025 16.875 -1.125
-35.025 16.875 0.525
-35.025 16.875 -0.975
-35.025 16.875 0.975
-35.025 16.875 -0.075
-35.025 16.875 0.825
-35.325 15.675 -1.425
-35.325 15.675 -1.725
-35.775 17.775 -1.875
-35.775 17.775 -1.275
-35.475 15.525 -1.275
-36.825 17.775 -0.675
-35.325 17.475 0.375
-35.325 17.475 0.675
-36.225 15.225 -0.375
-36.225 15.225 -0.525
-36.225 15.225 0.225
-36.225 15.225 -1.125
-36.225 15.225 0.525
-35.025 16.125 -0.525
-36.375 15.225 -0.375
-35.475 17.625 -0.525
-37.275 17.475 -0.525
-35.025 17.025 -0.675
-35.025 17.025 -1.725
-35.025 17.025 -1.125
-35.025 17.025 -1.575
-35.025 17.025 -0.075
-35.025 17.025 -0.375
-35.025 17.025 -0.225
-35.175 17.325 0.225
-35.175 17.325 -0.075
-35.175 17.325 -0.975
-35.175 17.325 0.375
-35.175 17.325 -0.225
-35.175 17.325 -0.525
-35.175 17.325 -0.375
-37.125 17.625 -0.675
-37.425 15.825 -0.675
-36.075 15.225 -1.875
-36.075 15.225 0.075
-36.075 15.225 -2.025
-36.525 15.225 -1.425
-36.525 15.225 -0.525
-36.225 17.925 -0.825
-36.225 17.925 -0.525
-37.575 17.025 -0.675
-36.375 17.925 -0.375
-36.375 17.925 0.075
-37.425 17.325 0.075
-37.425 17.325 -0.675
-36.975 15.375 -1.125
-36.975 15.375 -0.675
-36.075 17.925 -0.225
-36.525 17.925 -1.575
-36.525 17.925 -0.525
-36.525 17.925 -1.425
-35.625 17.775 -1.725
-35.625 17.775 -1.275
-35.925 15.225 -1.425
-35.925 15.225 -1.875
-35.925 15.225 0.075
-35.925 15.225 -1.575
-36.675 15.225 -1.425
-36.675 15.225 -1.275
-36.675 15.225 -0.375
-35.025 17.175 -0.525
-35.025 17.175 -0.675
-35.025 17.175 -0.375
-35.025 17.175 -1.275
-35.025 17.175 -0.225
-35.025 17.175 -0.825
-34.875 16.575 0.825
-34.875 16.575 1.125
-35.325 15.525 -1.275
-34.875 16.425 -1.275
-34.875 16.425 -0.675
-34.875 16.425 -2.025
-37.575 17.175 -0.825
-35.175 15.675 -2.025
-35.175 15.675 -5.175
-34.875 16.725 1.575
-34.875 16.725 1.875
-34.875 16.725 -0.075
-34.875 16.725 -0.675
-34.875 16.725 0.375
-34.875 16.725 -1.275
-37.275 15.525 -0.975
-35.775 15.225 -1.575
-35.775 15.225 -1.425
-35.325 17.625 -1.275
-35.325 17.625 -2.025
-35.325 17.625 0.225
-35.325 17.625 -0.975
-36.825 15.225 -1.875
-36.825 15.225 -0.225
-36.825 15.225 -0.375
-36.825 15.225 -1.575
-35.475 15.375 -1.275
-35.475 15.375 -1.725
-35.175 17.475 -0.675
-35.175 17.475 -0.075
-35.175 17.475 0.225
-35.175 17.475 0.075
-34.875 16.875 0.525
-34.875 16.875 -0.825
-34.875 16.875 -0.975
-35.475 17.775 -1.275
-35.475 17.775 3.075
-35.025 15.825 -1.425
-36.825 17.925 -1.125
-36.825 17.925 1.275
-36.825 17.925 -0.525
-36.825 17.925 -1.275
-37.725 16.875 -0.675
-37.125 17.775 -0.975
-35.025 17.325 -0.375
-35.025 17.325 -1.425
-35.025 17.325 -0.525
-35.025 17.325 -0.825
-35.025 17.325 -0.675
-35.025 17.325 -0.975
-35.025 17.325 -0.075
-36.225 15.075 -0.525
-36.375 15.075 -0.375
-36.375 15.075 -1.875
-36.375 15.075 -0.525
-34.875 17.025 0.825
-34.875 17.025 -0.975
-34.875 17.025 -0.225
-34.875 17.025 -0.825
-34.875 17.025 -0.375
-34.875 17.025 -1.125
-35.625 15.225 -1.425
-36.975 15.225 -0.375
-36.075 15.075 0.225
-36.075 15.075 0.375
-36.075 15.075 -0.525
-36.075 15.075 0.525
-36.075 15.075 -2.025
-36.525 15.075 -0.525
-36.225 18.075 -0.075
-36.225 18.075 -0.525
-36.375 18.075 0.375
-36.375 18.075 -0.525
-35.625 17.925 -0.975
-35.625 17.925 -1.275
-36.975 17.925 -0.675
-35.325 15.375 -1.725
-35.325 15.375 -1.575
-35.925 15.075 -1.275
-35.925 15.075 -0.525
-35.925 15.075 -1.425
-35.925 15.075 0.375
-35.925 15.075 -0.825
-35.925 15.075 0.075
-35.925 15.075 -2.025
-35.925 15.075 -0.075
-36.525 18.075 -0.975
-36.525 18.075 -1.425
-36.675 15.075 -0.525
-36.675 15.075 -0.675
-35.175 17.625 -0.975
-35.175 17.625 -0.375
-35.175 17.625 0.225
-35.175 17.625 0.075
-37.275 15.375 -1.275
-34.875 17.175 -1.125
-34.875 17.175 0.075
-34.875 17.175 -0.675
-34.875 17.175 -0.375
-34.875 17.175 -0.525
-37.425 17.625 -2.175
-35.925 18.075 0.225
-35.925 18.075 -1.425
-35.025 17.475 0.075
-35.025 17.475 -0.225
-35.025 17.475 -0.075
-35.025 17.475 -0.525
-36.675 18.075 -0.525
-37.275 17.775 -1.275
-34.725 16.575 -0.075
-34.725 16.575 -0.525
-34.725 16.575 2.325
-34.725 16.575 0.525
-34.725 16.575 1.125
-35.475 15.225 -1.425
-34.725 16.425 0.375
-35.775 15.075 -3.525
-35.775 15.075 -1.275
-34.725 16.725 0.975
-34.725 16.725 1.275
-34.725 16.725 -0.075
-34.725 16.725 2.025
-34.725 16.725 -0.525
-34.725 16.725 0.675
-37.575 17.475 -0.525
-35.475 17.925 -1.575
-35.475 17.925 -1.725
-34.725 16.275 2.475
-34.725 16.275 3.225
-37.875 16.725 -0.825
-34.725 16.875 -0.825
-34.725 16.875 -0.375
-34.725 16.875 0.375
-34.725 16.875 1.725
-34.725 16.875 -0.675
-35.775 18.075 -1.425
-35.775 18.075 -1.575
-36.825 18.075 -1.125
-34.875 17.325 -0.225
-34.875 17.325 0.375
-34.875 17.325 -0.525
-34.875 17.325 -0.825
-34.725 16.125 -0.675
-35.625 15.075 -1.425
-35.625 15.075 -3.525
-35.625 15.075 -0.825
-34.725 17.025 0.225
-34.725 17.025 1.575
-34.725 17.025 -0.525
-34.725 17.025 0.975
-34.725 17.025 0.825
-34.725 17.025 1.725
-35.025 15.525 -1.575
-36.975 15.075 -0.225
-36.225 14.925 -0.375
-36.225 14.925 -1.425
-36.375 14.925 -0.525
-36.375 14.925 -1.725
-37.425 15.375 -0.825
-35.175 17.775 3.075
-35.175 17.775 -0.525
-35.175 17.775 -1.125
-35.175 17.775 -0.075
-35.325 15.225 -1.575
-36.075 14.925 -0.525
-36.075 14.925 0.525
-36.075 14.925 -0.975
-36.075 14.925 -0.375
-37.875 17.025 -1.275
-35.025 17.625 -0.675
-35.025 17.625 -0.075
-35.025 17.625 0.075
-36.525 14.925 -2.025
-36.525 14.925 -0.525
-35.625 18.075 0.225
-36.975 18.075 -1.575
-36.975 18.075 -1.125
-36.975 18.075 -0.525
-37.425 17.775 -0.225
-36.225 18.225 -1.875
-36.225 18.225 0.375
-36.225 18.225 -0.375
-36.225 18.225 -0.975
-36.375 18.225 -0.525
-36.375 18.225 -1.725
-35.325 17.925 -1.575
-34.725 15.975 -2.325
-35.925 14.925 -1.275
-35.925 14.925 0.525
-35.925 14.925 -1.425
-35.925 14.925 0.075
-35.925 14.925 -0.525
-35.925 14.925 0.375
-35.925 14.925 -0.825
-36.075 18.225 -0.525
-36.075 18.225 -0.825
-36.525 18.225 -0.375
-36.675 14.925 -0.525
-34.725 17.175 -0.375
-34.725 17.175 -0.075
-34.725 17.175 0.825
-34.725 17.175 -0.525
-34.725 17.175 0.075
-34.725 17.175 -0.675
-34.725 17.175 0.975
-37.275 17.925 -1.725
-34.875 17.475 -0.525
-34.875 17.475 -0.825
-34.875 17.475 -0.075
-34.875 17.475 0.075
-34.875 17.475 -0.225
-37.725 15.675 -1.575
-37.725 15.675 -1.875
-35.475 15.075 0.675
-35.475 15.075 -1.875
-37.875 17.175 0.075
-35.925 18.225 -0.825
-35.925 18.225 -0.225
-35.925 18.225 -1.725
-37.125 15.075 -1.425
-37.125 15.075 -1.575
-37.125 15.075 -0.675
-36.675 18.225 -0.675
-34.575 16.575 1.425
-34.575 16.575 1.575
-34.575 16.575 -0.375
-34.575 16.575 0.225
-35.775 14.925 0.075
-35.775 14.925 -0.075
-35.775 14.925 -2.175
-35.775 14.925 -0.525
-35.475 18.075 -1.275
-35.475 18.075 2.925
-35.475 18.075 -1.575
-34.575 16.425 0.225
-34.575 16.425 -0.075
-34.575 16.725 0.075
-34.575 16.725 2.325
-34.575 16.725 0.525
-34.575 16.725 -0.225
-37.125 18.075 -0.825
-35.025 15.375 -1.425
-35.175 15.225 -1.725
-34.725 17.325 -0.975
-34.725 17.325 -0.525
-35.775 18.225 -1.425
-35.775 18.225 -0.975
-34.575 16.875 -0.075
-34.575 16.875 0.975
-34.575 16.875 0.525
-34.575 16.875 0.675
-34.575 16.875 0.375
-34.575 16.875 -0.525
-34.575 16.875 -0.375
-34.575 16.875 1.425
-34.575 16.875 0.075
-34.575 16.875 2.025
-37.875 15.825 -2.625
-35.025 17.775 0.075
-35.025 17.775 -0.675
-37.425 15.225 -1.425
-35.175 17.925 -1.725
-35.175 17.925 -1.575
-35.175 17.925 0.375
-35.175 17.925 -0.525
-35.175 17.925 -0.825
-35.625 14.925 -1.125
-34.575 16.125 -0.825
-34.875 17.625 -0.225
-34.875 17.625 -0.075
-35.325 15.075 -0.975
-37.425 17.925 -1.425
-37.425 17.925 -0.075
-34.575 17.025 -0.525
-34.575 17.025 0.225
-34.575 17.025 -0.075
-34.575 17.025 0.675
-34.575 17.025 0.525
-34.575 17.025 -0.225
-34.575 17.025 0.825
-36.225 14.775 -0.975
-36.225 14.775 -0.525
-36.225 14.775 -0.675
-36.375 14.775 -0.525
-36.375 14.775 -1.875
-36.375 14.775 -0.375
-36.375 14.775 -1.575
-38.025 16.125 -1.725
-35.625 18.225 -1.425
-35.325 18.075 -0.825
-35.325 18.075 -1.425
-35.325 18.075 -1.575
-36.975 18.225 -0.825
-36.975 18.225 -0.975
-36.075 14.775 -1.425
-36.075 14.775 -0.525
-36.075 14.775 -0.375
-36.075 14.775 -0.675
-36.075 14.775 -3.375
-36.525 14.775 -0.375
-36.525 14.775 -0.525
-37.275 18.075 -1.425
-34.725 17.475 0.075
-34.725 17.475 -0.675
-36.225 18.375 -1.125
-36.225 18.375 -0.675
-36.375 18.375 -1.275
-36.375 18.375 1.425
-36.375 18.375 -0.825
-36.375 18.375 -0.525
-36.375 18.375 -1.125
-34.575 17.175 0.375
-34.575 17.175 0.525
-34.575 17.175 -0.675
-34.575 17.175 1.575
-34.575 17.175 1.125
-34.575 17.175 -0.225
-34.575 17.175 -0.075
-35.925 14.775 -0.525
-35.925 14.775 -1.275
-35.925 14.775 -0.375
-36.075 18.375 -2.175
-36.075 18.375 2.325
-36.075 18.375 -0.825
-36.075 18.375 -0.525
-36.075 18.375 -0.675
-35.475 14.925 -1.275
-35.475 14.925 -1.425
-35.475 14.925 -0.975
-35.475 14.925 -1.725
-36.525 18.375 0.075
-35.025 15.225 -1.575
-35.925 18.375 -0.075
-35.475 18.225 -1.425
-36.675 18.375 -0.525
-36.675 18.375 -0.675
-36.675 18.375 -1.125
-35.775 14.775 -1.275
-35.775 14.775 -0.825
-35.775 14.775 -2.175
-35.775 14.775 0.375
-35.775 14.775 -0.525
-35.775 14.775 -0.075
-35.775 14.775 0.075
-35.025 17.925 -0.525
-35.025 17.925 -0.675
-35.025 17.925 -0.375
-34.875 17.775 -0.525
-34.875 17.775 -0.675
-34.875 17.775 -0.075
-34.425 16.575 1.125
-34.425 16.575 0.225
-34.425 16.575 -1.425
-34.575 15.825 2.625
-34.575 15.825 0.975
-34.425 16.425 -0.375
-34.425 16.425 2.325
-34.425 16.725 2.025
-34.425 16.725 0.075
-34.425 16.725 0.975
-34.425 16.725 -0.075
-34.425 16.725 2.775
-34.425 16.725 0.225
-34.425 16.725 1.725
-34.575 17.325 -0.525
-34.575 17.325 0.225
-34.575 17.325 -0.375
-34.575 17.325 0.375
-34.575 17.325 0.525
-35.175 18.075 -0.675
-35.175 18.075 -0.825
-38.175 16.575 -1.575
-35.775 18.375 -1.125
-35.775 18.375 -0.525
-36.825 18.375 -1.425
-34.425 16.875 3.675
-34.425 16.875 -0.825
-34.425 16.875 3.525
-34.425 16.875 0.075
-34.425 16.875 1.275
-34.425 16.875 0.225
-34.425 16.875 -0.375
-34.725 17.625 0.375
-35.625 14.775 0.075
-35.625 14.775 -0.525
-35.625 14.775 0.375
-37.275 14.925 -0.975
-36.975 14.775 -0.225
-34.425 17.025 -0.225
-34.425 17.025 1.875
-34.425 17.025 1.125
-34.425 17.025 -0.075
-34.425 17.025 -0.375
-34.425 17.025 0.075
-35.325 18.225 -1.425
-35.625 18.375 -1.425
-37.275 18.225 -0.975
-36.225 14.625 -0.525
-36.225 14.625 -0.375
-36.975 18.375 -0.825
-36.975 18.375 -1.125
-34.575 17.475 -0.525
-34.575 17.475 -0.825
-34.575 17.475 0.375
-34.575 17.475 0.225
-34.575 17.475 -0.375
-34.875 15.225 -1.575
-34.875 15.225 -1.425
-36.075 14.625 -1.275
-36.075 14.625 -0.525
-36.075 14.625 -0.375
-36.075 14.625 -0.675
-36.525 14.625 -0.225
-35.025 15.075 -1.275
-34.425 17.175 0.825
-34.425 17.175 -0.075
-34.425 17.175 0.075
-34.425 17.175 1.275
-34.425 17.175 -0.525
-34.425 17.175 -0.225
-34.725 15.375 -1.575
-36.225 18.525 0.525
-34.875 17.925 -0.825
-34.875 17.925 -0.525
-34.875 17.925 -0.375
-36.375 18.525 0.225
-36.375 18.525 -0.525
-36.375 18.525 -1.275
-35.925 14.625 -1.725
-35.925 14.625 -1.125
-35.925 14.625 -0.525
-37.125 14.775 -0.225
-35.025 18.075 -0.375
-35.025 18.075 -0.675
-36.075 18.525 -0.525
-36.075 18.525 -1.575
-36.525 18.525 1.725
-35.175 14.925 -1.725
-35.175 14.925 -1.275
-34.725 17.775 -0.525
-34.725 17.775 -0.375
-34.725 17.775 2.025
-35.475 18.375 -1.125
-35.475 18.375 -1.575
-35.475 18.375 -0.975
-35.475 18.375 -0.075
-37.425 14.925 -0.975
-37.125 18.375 -1.125
-35.925 18.525 -1.875
-35.925 18.525 -1.125
-35.925 18.525 0.525
-35.925 18.525 -0.375
-35.925 18.525 -0.675
-36.675 18.525 -1.275
-35.175 18.225 -0.675
-35.775 14.625 -0.375
-35.775 14.625 -3.675
-35.775 14.625 0.675
-35.775 14.625 -0.525
-35.775 14.625 0.525
-37.425 18.225 -1.575
-34.275 16.575 -0.225
-34.275 16.575 1.275
-34.275 16.575 -0.675
-34.275 16.575 -0.975
-34.275 16.575 1.125
-34.275 16.575 -1.275
-34.275 16.575 0.675
-34.425 17.325 -0.975
-34.425 17.325 -0.075
-34.425 17.325 0.675
-34.425 17.325 -0.525
-34.425 17.325 0.225
-34.425 17.325 -0.675
-34.425 17.325 -0.225
-34.425 17.325 0.375
-34.575 17.625 -0.225
-34.575 17.625 -0.525
-34.275 16.725 0.525
-34.275 16.725 3.375
-34.275 16.725 -0.525
-34.275 16.725 2.325
-35.775 18.525 -1.725
-35.775 18.525 -1.275
-35.775 18.525 -1.575
-35.775 18.525 -0.375
-35.775 18.525 0.075
-35.775 18.525 -0.525
-35.325 14.775 -1.425
-36.825 18.525 -0.825
-34.275 16.275 -0.825
-34.275 16.875 1.275
-34.275 16.875 1.125
-34.275 16.875 1.575
-34.275 16.875 -0.375
-34.275 16.875 1.875
-34.275 16.875 -0.225
-35.625 14.625 0.075
-35.625 14.625 -0.525
-35.625 14.625 -2.475
-35.625 14.625 0.525
-35.625 14.625 -0.075
-34.875 15.075 -1.575
-36.975 14.625 -1.425
-36.975 14.625 -0.375
-35.325 18.375 -1.275
-35.325 18.375 -1.425
-34.275 17.025 -0.375
-34.275 17.025 0.975
-34.275 17.025 1.275
-34.275 17.025 -0.225
-34.275 17.025 0.825
-34.875 18.075 -1.425
-34.875 18.075 -0.675
-35.625 18.525 -0.525
-35.625 18.525 -0.825
-35.625 18.525 0.075
-35.625 18.525 -0.975
-35.625 18.525 -1.275
-35.625 18.525 -0.075
-35.625 18.525 -1.875
-34.725 17.925 -0.525
-34.725 17.925 -0.675
-34.425 17.475 -0.975
-34.425 17.475 0.225
-34.425 17.475 -0.525
-34.425 17.475 0.375
-38.175 15.675 -1.275
-37.725 18.075 -0.825
-38.325 17.025 -2.475
-36.225 14.475 -0.525
-36.375 14.475 -1.125
-36.375 14.475 -1.875
-35.025 18.225 -0.975
-35.025 18.225 -1.425
-36.075 14.475 -0.525
-36.525 14.475 -1.425
-36.525 14.475 -1.725
-35.475 14.625 0.075
-35.475 14.625 -0.075
-35.475 14.625 -1.125
-35.475 14.625 -2.175
-35.475 14.625 -0.525
-35.175 14.775 -1.575
-35.175 14.775 -1.725
-34.275 17.175 0.375
-34.275 17.175 0.075
-34.275 17.175 -0.675
-34.275 17.175 -0.225
-34.275 17.175 0.825
-34.275 17.175 0.525
-34.275 17.175 -0.075
-37.125 14.625 -1.275
-36.225 18.675 -1.125
-36.225 18.675 1.575
-36.375 18.675 -0.675
-35.925 14.475 -0.375
-36.675 14.475 -1.875
-36.075 18.675 -0.975
-36.075 18.675 -0.525
-38.325 17.175 -2.325
-35.475 18.525 -1.425
-35.475 18.525 -1.575
-35.475 18.525 -1.275
-35.475 18.525 -0.975
-36.525 18.675 -0.225
-35.175 18.375 -0.675
-35.175 18.375 -1.575
-34.425 17.625 -0.075
-34.425 17.625 -0.375
-36.675 18.675 -0.825
-35.775 14.475 -1.725
-35.775 14.475 -0.525
-35.775 14.475 -1.425
-38.175 15.525 -1.275
-34.275 17.325 0.675
-34.275 17.325 0.075
-34.875 14.925 -1.575
-35.325 14.625 -1.125
-35.325 14.625 -1.425
-34.125 16.575 -0.525
-34.125 16.425 2.625
-34.125 16.425 -0.675
-34.125 16.425 -0.825
-34.125 16.425 -0.375
-34.125 16.725 -0.375
-34.125 16.725 -0.225
-34.125 16.725 -0.525
-35.775 18.675 2.325
-35.775 18.675 -0.525
-35.775 18.675 0.525
-35.775 18.675 -1.425
-35.775 18.675 -0.225
-35.775 18.675 -1.575
-34.725 18.075 -0.075
-36.825 18.675 -0.975
-34.125 16.275 -1.575
-34.125 16.275 -0.975
-34.875 18.225 -0.825
-34.875 18.225 -1.575
-34.125 16.875 1.575
-34.125 16.875 0.675
-34.125 16.875 -0.525
-34.125 16.875 -0.375
-35.325 18.525 -1.275
-35.325 18.525 -1.425
-35.625 14.475 -0.525
-35.625 14.475 -1.875
-35.625 14.475 -0.375
-34.575 17.925 -0.075
-34.575 17.925 -0.525
-36.975 14.475 -0.375
-37.575 14.775 -3.075
-34.125 16.125 -0.225
-35.025 18.375 -1.575
-34.275 17.475 -1.575
-34.275 17.475 -0.225
-34.275 17.475 -0.825
-34.275 17.475 0.225
-34.275 17.475 0.375
-34.275 17.475 -0.525
-34.275 17.475 -0.375
-34.275 17.475 -0.675
-34.125 17.025 0.225
-34.125 17.025 -0.375
-34.125 17.025 -0.225
-34.125 17.025 1.125
-34.125 17.025 0.825
-34.125 17.025 3.525
-35.625 18.675 -0.975
-35.625 18.675 -0.525
-35.625 18.675 0.525
-35.625 18.675 -0.075
-35.625 18.675 -1.275
-37.575 18.375 -0.825
-34.425 17.775 0.075
-34.425 17.775 -1.125
-34.425 17.775 -0.525
-34.425 17.775 -0.075
-34.425 17.775 -0.225
-38.325 17.475 -1.575
-38.325 17.475 -2.025
-36.225 14.325 -1.425
-36.225 14.325 -1.575
-36.375 14.325 -1.725
-35.475 14.475 -0.075
-35.475 14.475 -0.525
-35.475 14.475 -0.825
-36.075 14.325 -0.375
-36.525 14.325 -0.225
-36.525 14.325 -1.275
-34.125 17.175 -0.075
-34.125 17.175 -0.225
-34.125 17.175 1.575
-34.125 17.175 0.075
-35.175 18.525 -1.125
-36.225 18.825 -0.825
-36.375 18.825 -0.525
-36.375 18.825 -0.975
-35.475 18.675 -1.425
-35.475 18.675 0.075
-35.475 18.675 -0.975
-35.925 14.325 -1.725
-35.925 14.325 -2.325
-35.925 14.325 -0.525
-37.425 18.525 -1.875
-36.075 18.825 -0.675
-36.075 18.825 -1.125
-36.075 18.825 -0.825
-36.525 18.825 -0.975
-36.525 18.825 -1.125
-34.275 17.625 -0.225
-34.275 17.625 0.075
-34.275 17.625 -0.975
-34.275 17.625 -0.075
-34.275 17.625 -0.675
-34.725 18.225 -1.275
-34.575 18.075 -0.075
-35.925 18.825 -2.025
-35.925 18.825 -0.525
-35.775 14.325 -0.375
-35.775 14.325 -3.975
-35.775 14.325 -0.525
-34.125 17.325 0.075
-34.125 17.325 -0.375
-34.125 17.325 -0.675
-34.125 17.325 -0.225
-34.125 17.325 -0.075
-38.325 17.625 -1.425
-38.325 17.625 -1.275
-35.325 14.475 -0.525
-35.325 14.475 -1.425
-35.325 14.475 0.075
-36.825 14.325 -0.075
-34.875 18.375 0.225
-38.025 18.075 -1.425
-38.025 18.075 -1.125
-34.425 17.925 -2.925
-35.025 14.625 -1.425
-35.025 14.625 -1.575
-33.975 16.575 0.075
-33.975 16.575 -0.525
-33.975 16.575 -1.275
-33.975 16.575 -0.825
-33.975 16.575 -0.675
-33.975 16.425 -0.225
-33.975 16.425 1.125
-33.975 16.725 -0.525
-33.975 16.725 -0.375
-33.975 16.725 -0.675
-33.975 16.725 1.275
-35.775 18.825 -1.725
-35.775 18.825 -2.025
-35.325 18.675 -1.125
-35.325 18.675 -0.825
-35.325 18.675 -0.525
-35.325 18.675 -1.425
-37.575 14.625 -1.275
-36.825 18.825 -0.975
-38.175 17.925 -2.025
-37.275 18.675 -1.125
-33.975 16.275 -1.275
-33.975 16.275 3.825
-35.625 14.325 -0.375
-35.625 14.325 -1.575
-35.625 14.325 -1.425
-35.625 14.325 -1.125
-35.025 18.525 -1.725
-33.975 16.875 -0.975
-33.975 16.875 -0.525
-33.975 16.875 0.975
-33.975 16.875 -0.225
-36.975 14.325 -0.825
-37.575 18.525 -2.025
-34.125 17.475 0.075
-34.125 17.475 0.225
-34.125 17.475 -0.075
-34.125 17.475 -0.675
-34.125 17.475 -1.425
-34.275 17.775 -0.225
-34.275 17.775 -1.125
-38.475 15.675 -1.125
-35.625 18.825 -0.525
-35.625 18.825 -1.425
-35.625 18.825 0.525
-33.975 17.025 -0.525
-33.975 17.025 -0.075
-33.975 17.025 0.075
-33.975 17.025 0.375
-36.975 18.825 -0.375
-36.975 18.825 -0.975
-38.475 17.475 -1.275
-35.475 14.325 0.675
-35.475 14.325 -0.375
-35.475 14.325 0.525
-35.475 14.325 -0.525
-36.225 14.175 0.975
-36.375 14.175 0.525
-36.375 14.175 -1.275
-36.375 14.175 0.375
-35.175 18.675 -1.725
-35.175 18.675 -1.275
-33.975 17.175 0.375
-33.975 17.175 -0.375
-33.975 17.175 0.225
-33.975 17.175 1.125
-33.975 17.175 0.675
-33.975 17.175 0.975
-34.725 18.375 -1.575
-34.725 18.375 -1.725
-34.725 18.375 -1.875
-36.075 14.175 -1.575
-36.075 14.175 -0.375
-36.525 14.175 -1.575
-37.425 18.675 -1.275
-37.425 18.675 -1.125
-35.475 18.825 0.375
-35.475 18.825 -1.425
-35.475 18.825 -2.775
-35.475 18.825 -0.375
-35.475 18.825 0.075
-35.475 18.825 -1.725
-35.475 18.825 0.225
-37.725 14.625 -1.425
-34.125 17.625 0.075
-34.125 17.625 -0.525
-34.125 17.625 -0.225
-34.125 17.625 -0.975
-37.125 18.825 -1.425
-35.925 14.175 -0.375
-36.225 18.975 -0.225
-36.225 18.975 -1.125
-36.375 18.975 0.675
-36.375 18.975 -0.825
-36.675 14.175 -0.975
-34.875 18.525 -1.125
-36.075 18.975 -0.525
-36.075 18.975 -0.375
-36.525 18.975 -1.725
-33.975 15.825 -4.575
-34.275 17.925 -0.375
-34.275 17.925 0.375
-38.325 15.225 -0.975
-35.325 14.325 -0.525
-35.325 14.325 -1.275
-35.325 14.325 -0.825
-33.975 17.325 -0.975
-33.975 17.325 -0.525
-33.975 17.325 0.075
-33.975 17.325 -0.825
-33.975 17.325 -0.675
-35.025 14.475 -4.275
-35.025 14.475 -1.425
-35.025 14.475 -0.975
-35.925 18.975 -1.575
-37.575 14.475 -0.975
-35.325 18.825 0.075
-35.325 18.825 -0.825
-35.325 18.825 -0.975
-35.325 18.825 -0.525
-35.025 18.675 -0.825
-33.825 16.575 -0.825
-33.825 16.575 3.525
-33.825 16.575 -0.075
-33.825 16.575 -0.525
-33.825 16.575 -1.125
-35.775 18.975 -2.025
-35.775 18.975 1.125
-35.775 18.975 -1.425
-37.275 18.825 -0.375
-33.825 16.425 -0.075
-33.825 16.725 0.075
-33.825 16.725 -0.375
-33.825 16.725 -0.825
-37.575 18.675 -2.025
-37.575 18.675 -0.675
-35.625 14.175 -1.125
-35.625 14.175 -1.275
-33.825 16.275 -1.275
-33.825 16.275 -0.975
-33.825 16.275 -1.425
-34.125 17.775 -0.225
-34.125 17.775 0.075
-34.125 17.775 -0.075
-34.125 17.775 -0.375
-36.975 14.175 -2.325
-33.825 16.875 -0.225
-33.825 16.875 -1.125
-33.825 16.875 -0.525
-33.825 16.875 -0.375
-33.975 17.475 0.225
-33.975 17.475 -0.375
-34.725 14.625 -2.025
-34.725 14.625 -1.275
-34.725 14.625 -1.425
-38.775 16.725 -1.125
-34.575 18.375 -4.725
-35.175 14.325 0.225
-35.175 14.325 -0.075
-35.175 14.325 -0.375
-38.475 17.775 -2.325
-35.625 18.975 -0.525
-35.625 18.975 -1.425
-35.625 18.975 -0.975
-35.625 18.975 -0.375
-33.825 17.025 -0.225
-33.825 17.025 0.075
-36.975 18.975 -0.525
-38.025 18.375 -2.325
-34.275 18.075 -3.075
-34.875 14.475 -1.425
-35.475 14.175 -1.275
-35.175 18.825 0.075
-35.175 18.825 -0.075
-35.175 18.825 -1.275
-38.775 17.025 -1.125
-36.375 14.025 -1.575
-33.825 17.175 -0.525
-33.825 17.175 -0.675
-34.875 18.675 -1.575
-36.075 14.025 -1.425
-35.475 18.975 -0.525
-35.475 18.975 -1.275
-35.475 18.975 -1.725
-33.975 17.625 -0.225
-33.975 17.625 -0.375
-33.975 17.625 -0.075
-37.725 18.675 -0.525
-37.725 18.675 -0.825
-34.125 17.925 0.375
-38.775 17.175 -1.425
-35.925 14.025 -1.425
-36.375 19.125 -1.125
-36.375 19.125 -0.975
-36.375 19.125 0.525
-36.675 14.025 -1.425
-35.025 14.325 -1.125
-36.075 19.125 -0.525
-36.075 19.125 -1.275
-33.825 15.825 -3.975
-35.325 14.175 -1.275
-35.325 14.175 -0.375
-35.325 14.175 -1.575
-33.825 17.325 -0.375
-33.825 17.325 -0.825
-33.825 17.325 0.675
-34.575 14.625 -1.425
-35.775 14.025 -0.525
-35.925 19.125 -1.575
-36.675 19.125 -1.275
-35.325 18.975 0.525
-35.325 18.975 -0.525
-35.325 18.975 -1.425
-35.325 18.975 -1.275
-38.025 14.625 -0.975
-37.275 18.975 0.525
-37.275 18.975 -1.575
-34.575 18.525 -1.725
-33.975 17.775 -0.225
-33.975 17.775 -0.375
-33.975 17.775 -0.525
-33.975 17.775 -0.075
-35.775 19.125 -0.525
-33.675 16.575 -0.675
-33.675 16.575 -0.225
-33.675 16.575 -0.375
-33.675 16.725 -0.225
-33.675 16.725 -0.525
-33.675 16.725 -1.425
-33.675 16.725 -0.975
-33.675 16.725 -0.825
-35.625 14.025 -0.525
-35.625 14.025 -0.375
-35.625 14.025 -1.275
-36.975 14.025 -0.375
-38.325 18.225 -0.525
-33.825 17.475 -0.825
-33.825 17.475 0.675
-33.825 17.475 0.225
-33.825 17.475 0.075
-33.825 17.475 -0.375
-33.825 17.475 -0.525
-34.725 18.675 -1.575
-34.725 18.675 -1.725
-33.675 16.275 -0.825
-33.675 16.875 -0.525
-33.675 16.875 -0.375
-33.675 16.875 -0.975
-35.175 14.175 0.075
-35.175 14.175 -0.825
-35.175 14.175 -0.375
-38.925 16.725 -1.575
-38.925 16.725 -1.875
-37.875 18.675 -0.525
-34.875 14.325 -0.825
-35.625 19.125 -2.325
-33.675 16.125 -0.525
-33.675 17.025 -0.375
-33.675 17.025 2.175
-35.175 18.975 -1.575
-35.175 18.975 -0.525
-35.175 18.975 0.525
-35.175 18.975 -1.275
-35.175 18.975 -0.825
-35.475 14.025 -0.375
-35.475 14.025 -1.125
-35.475 14.025 -1.575
-35.475 14.025 -1.275
-37.425 18.975 -0.375
-37.725 18.825 -0.825
-37.725 18.825 -0.375
-33.675 15.975 -1.875
-33.825 17.625 -0.375
-33.825 17.625 -0.525
-33.825 17.625 -0.675
-33.825 17.625 -0.075
-33.825 17.625 2.025
-33.675 17.175 0.375
-33.975 17.925 -0.525
-34.425 14.625 -1.575
-35.475 19.125 -1.425
-35.475 19.125 -0.525
-37.125 19.125 0.075
-34.575 14.475 -1.725
-35.025 14.175 0.075
-35.025 14.175 -0.075
-38.175 14.625 -2.775
-34.425 18.525 -1.575
-37.575 14.175 -1.275
-35.325 14.025 -1.425
-35.325 14.025 -1.125
-35.325 14.025 -0.375
-36.375 19.275 -0.375
-34.575 18.675 -1.425
-34.575 18.675 -1.575
-36.075 19.275 -0.975
-33.675 17.325 -0.525
-33.675 17.325 -0.825
-35.025 18.975 -1.425
-35.025 18.975 -1.125
-35.025 18.975 0.375
-35.025 18.975 -1.275
-37.575 18.975 -0.675
-37.575 18.975 -1.875
-35.775 13.875 -0.225
-35.925 19.275 -1.425
-35.925 19.275 -0.975
-35.325 19.125 -1.275
-35.325 19.125 -0.825
-38.475 18.225 -1.125
-37.275 19.125 -1.875
-37.275 19.125 -0.525
-33.825 17.775 0.075
-33.825 17.775 -0.225
-33.825 17.775 -0.675
-33.825 17.775 0.375
-33.825 17.775 -0.525
-33.825 17.775 -0.375
-34.725 18.825 -0.525
-34.725 18.825 -1.275
-33.675 15.675 0.375
-37.875 18.825 -1.425
-33.525 16.575 -1.125
-33.525 16.575 -1.275
-33.525 16.575 -0.525
-33.525 16.575 -0.825
-33.525 16.575 -0.975
-33.525 16.575 -0.375
-33.975 18.075 -0.375
-33.525 16.425 -1.125
-33.525 16.725 -0.525
-33.525 16.725 -1.275
-33.525 16.725 -0.375
-33.525 16.725 0.675
-33.675 17.475 -0.675
-33.675 17.475 -0.225
-33.675 17.475 -0.375
-33.675 17.475 -0.525
-35.175 14.025 -0.375
-35.175 14.025 -1.275
-35.175 14.025 -1.125
-34.875 14.175 -1.275
-33.525 16.275 -1.275
-33.525 16.275 -1.575
-35.625 19.275 -0.975
-35.625 19.275 -2.025
-35.625 19.275 -1.875
-34.275 14.625 -1.575
-34.275 14.625 -1.875
-35.175 19.125 -1.425
-35.175 19.125 -1.275
-35.175 19.125 -0.525
-35.175 19.125 -1.575
-34.875 18.975 -1.125
-34.425 14.475 -1.425
-36.975 19.275 -1.875
-36.975 19.275 -0.525
-33.525 16.125 -0.225
-33.525 17.025 2.025
-33.525 17.025 -0.825
-38.175 14.475 -0.675
-34.275 18.525 -3.975
-33.825 17.925 3.075
-33.825 17.925 -0.525
-33.825 17.925 -0.225
-33.825 17.925 -0.375
-34.575 14.325 -1.425
-34.575 14.325 -1.575
-34.425 18.675 -3.825
-33.675 17.625 -0.075
-33.675 17.625 -0.375
-33.675 17.625 -0.225
-33.525 15.975 -3.825
-33.525 15.975 -3.975
-35.475 19.275 -0.375
-35.475 19.275 -0.525
-35.475 19.275 -1.425
-35.025 14.025 -0.375
-35.025 14.025 -1.575
-36.375 13.725 -1.875
-34.575 18.825 -1.575
-34.575 18.825 -1.125
-36.075 13.725 -0.375
-39.075 15.975 -4.425
-33.975 18.225 3.375
-33.975 18.225 -3.375
-34.725 14.175 -1.575
-35.325 13.875 -0.525
-35.325 13.875 -0.975
-35.025 19.125 -1.125
-35.025 19.125 -1.575
-35.025 19.125 0.525
-35.025 19.125 -0.975
-35.925 13.725 -0.825
-36.225 19.425 -0.975
-37.875 14.175 -2.625
-36.375 19.425 -0.525
-37.575 19.125 0.825
-36.075 19.425 -0.375
-36.075 19.425 -1.275
-34.725 18.975 -0.375
-34.725 18.975 -1.275
-34.725 18.975 -0.975
-35.325 19.275 -0.525
-35.775 13.725 -1.125
-33.675 17.775 -0.375
-33.675 17.775 -0.225
-33.675 17.775 -0.675
-35.925 19.425 -0.675
-37.875 18.975 -0.675
-33.825 18.075 -0.525
-34.275 14.475 -1.125
-34.275 14.475 0.375
-34.275 14.475 -1.425
-34.275 14.475 -1.575
-34.875 14.025 -1.875
-34.875 14.025 -0.675
-34.875 14.025 -0.375
-35.175 13.875 -0.525
-35.175 13.875 0.675
-34.425 14.325 -0.975
-34.425 14.325 -0.525
-33.525 17.475 -0.225
-33.375 16.575 -1.125
-33.375 16.575 -0.975
-33.375 16.425 -0.975
-33.375 16.425 -1.275
-33.375 16.425 -1.425
-33.375 16.725 -0.975
-34.125 18.525 -3.825
-34.875 19.125 -0.975
-34.875 19.125 -0.825
-33.375 16.275 -0.975
-33.375 16.275 -1.125
-33.375 16.875 -0.825
-33.375 16.875 -0.225
-35.175 19.275 -0.975
-35.175 19.275 -0.375
-39.225 16.575 -4.125
-33.675 15.225 -1.275
-37.725 19.125 -0.675
-35.625 19.425 -1.275
-35.625 19.425 -0.225
-35.625 19.425 -0.375
-33.975 18.375 -1.725
-36.975 19.425 -1.275
-36.975 19.425 -0.525
-33.375 16.125 -0.525
-33.375 16.125 0.075
-33.675 17.925 -0.225
-35.475 13.725 -0.525
-35.475 13.725 -1.425
-35.475 13.725 -0.825
-33.375 17.025 -0.375
-33.375 17.025 1.875
-34.575 18.975 -0.075
-34.575 18.975 -1.575
-34.575 18.975 -0.525
-33.525 17.625 -0.225
-33.525 17.625 -0.375
-33.525 17.625 -0.075
-39.225 16.125 -4.725
-35.475 19.425 -1.125
-35.475 19.425 -0.825
-35.475 19.425 -0.525
-33.375 17.175 -0.375
-34.725 14.025 0.075
-37.125 19.425 -2.925
-35.025 19.275 -0.525
-35.325 13.725 -0.375
-35.325 13.725 -0.975
-34.725 19.125 -1.425
-33.375 15.825 -0.825
-33.375 15.825 -0.525
-33.375 15.825 -0.675
-33.375 15.825 -0.075
-35.925 13.575 -0.825
-33.525 15.375 -1.425
-34.275 14.325 -1.875
-33.375 17.325 -0.825
-36.225 19.575 -0.825
-36.375 19.575 -1.125
-36.375 19.575 -0.075
-36.375 19.575 0.375
-33.525 17.775 -0.075
-33.525 17.775 -0.525
-33.525 17.775 -0.225
-33.525 17.775 -0.375
-36.075 19.575 -0.975
-33.675 18.075 -1.875
-36.525 19.575 -1.125
-36.525 19.575 -0.825
-34.125 18.675 -3.825
-37.275 19.425 -2.025
-37.275 19.425 -0.375
-34.425 14.175 -1.575
-34.425 14.175 -1.275
-34.425 14.175 -1.425
-35.775 13.575 -1.575
-34.275 18.825 0.525
-36.825 13.575 -0.825
-35.925 19.575 -0.525
-34.875 13.875 -0.375
-34.875 13.875 0.525
-38.925 18.075 -0.675
-33.375 15.675 -0.375
-35.175 13.725 -0.375
-35.175 13.725 -0.525
-34.425 18.975 0.075
-35.625 13.575 -0.975
-35.625 13.575 -0.525
-35.625 13.575 -1.875
-34.875 19.275 0.375
-34.875 19.275 -1.425
-34.875 19.275 -0.075
-36.825 19.575 -0.225
-33.225 16.575 -1.275
-33.225 16.575 4.725
-33.225 16.575 -0.975
-33.225 16.425 -0.825
-33.225 16.425 -0.525
-35.175 19.425 -2.475
-35.175 19.425 -1.275
-35.175 19.425 -0.525
-33.225 16.275 -0.375
-33.225 16.875 -0.825
-33.225 16.875 -0.675
-33.525 17.925 -0.225
-33.525 17.925 -0.375
-33.525 17.925 -0.525
-34.575 19.125 -0.525
-34.575 19.125 -0.825
-36.975 19.575 -1.125
-36.975 19.575 -1.875
-33.375 15.525 -0.825
-33.225 17.025 4.425
-33.375 17.625 -0.375
-35.025 13.725 -0.375
-34.725 13.875 0.675
-34.725 13.875 0.075
-33.975 14.475 -1.725
-33.975 14.475 -1.275
-33.225 15.975 -0.225
-35.475 19.575 -0.525
-35.475 19.575 -0.375
-34.275 14.175 -1.425
-35.025 19.425 -0.675
-35.025 19.425 -2.325
-35.025 19.425 -1.425
-35.025 19.425 -0.525
-34.725 19.275 -0.975
-33.825 14.625 -1.125
-34.275 18.975 -0.975
-34.275 18.975 0.075
-33.375 15.375 -1.125
-33.375 15.375 -0.375
-34.425 14.025 -1.575
-33.825 18.525 -1.575
-33.825 18.525 -3.675
-33.525 18.075 -0.525
-33.375 17.775 -0.375
-33.375 17.775 3.225
-33.375 17.775 -0.225
-36.225 19.725 -0.975
-36.225 19.725 -0.825
-36.375 19.725 -0.525
-34.875 13.725 -1.725
-34.875 13.725 -0.375
-34.425 19.125 -1.725
-34.425 19.125 0.525
-34.425 19.125 -1.425
-34.425 19.125 -0.525
-36.075 19.725 -0.375
-36.525 19.725 -1.125
-35.775 13.425 -1.725
-35.925 19.725 -0.525
-34.575 13.875 0.525
-34.575 13.875 -1.275
-34.575 13.875 -0.375
-34.575 13.875 -0.675
-34.575 13.875 0.225
-34.575 13.875 -1.425
-35.175 13.575 -0.525
-33.225 15.675 -0.525
-33.225 15.675 -0.825
-33.225 17.475 0.075
-35.625 13.425 -1.575
-35.625 13.425 -0.525
-34.575 19.275 -0.975
-34.575 19.275 -1.725
-34.575 19.275 -1.275
-34.575 19.275 -1.425
-33.525 14.925 -0.075
-35.175 19.575 0.825
-33.075 16.575 -0.675
-33.075 16.425 -0.975
-33.075 16.425 -0.225
-33.975 14.325 -1.275
-33.075 16.725 -0.825
-33.075 16.725 -0.375
-34.125 14.175 -1.575
-34.125 14.175 -0.975
-33.075 16.275 -0.375
-33.825 14.475 -1.575
-33.075 16.875 -0.525
-33.075 16.875 -0.825
-38.475 14.175 -3.525
-36.975 19.725 0.225
-33.975 18.825 -1.425
-33.975 18.825 -1.275
-34.275 14.025 -1.425
-34.725 13.725 -1.575
-34.725 13.725 -0.975
-34.725 13.725 -1.275
-34.725 13.725 -0.375
-35.475 13.425 -0.825
-35.475 13.425 -1.425
-34.125 18.975 -4.275
-34.125 18.975 -0.375
-34.125 18.975 0.525
-34.125 18.975 -1.875
-35.025 13.575 -1.575
-35.025 13.575 -0.375
-33.075 16.125 -0.975
-33.075 16.125 -0.375
-33.825 18.675 -1.125
-34.275 19.125 -1.575
-35.475 19.725 -1.275
-33.675 18.525 -3.375
-34.425 13.875 0.075
-34.425 13.875 -0.825
-34.425 13.875 -1.275
-34.425 13.875 -1.125
-34.425 13.875 -1.425
-34.425 13.875 -0.375
-34.425 13.875 -1.875
-33.075 17.175 4.875
-35.325 13.425 -0.525
-34.425 19.275 -0.525
-34.425 19.275 -1.725
-34.425 19.275 -1.125
-34.425 19.275 -1.425
-33.225 17.775 0.375
-33.225 17.775 -0.825
-33.075 15.825 -0.375
-33.075 17.325 -0.375
-34.875 13.575 -0.675
-34.875 13.575 -0.525
-33.525 18.375 -1.425
-33.525 18.375 -0.975
-35.325 19.725 -0.525
-36.225 19.875 -0.825
-36.375 19.875 -1.575
-34.575 13.725 0.675
-34.575 13.725 -0.375
-36.075 19.875 0.375
-36.525 19.875 -0.375
-33.825 14.325 -0.975
-35.175 13.425 -0.975
-34.875 19.575 -1.125
-34.875 19.575 -0.525
-34.875 19.575 -0.825
-35.925 19.875 -0.975
-35.925 19.875 -1.125
-35.925 19.875 -0.825
-34.125 14.025 -1.275
-33.075 15.675 -0.975
-34.575 19.425 -1.425
-34.575 19.425 -1.125
-33.075 17.475 -0.075
-33.075 17.475 -0.225
-33.975 18.975 -0.675
-33.975 18.975 -0.075
-33.975 18.975 -0.375
-33.975 18.975 -1.275
-33.975 18.975 4.125
-33.975 18.975 -2.175
-33.675 14.475 -1.425
-33.825 18.825 -3.525
-35.775 19.875 -0.225
-33.225 17.925 0.075
-34.125 19.125 -2.325
-34.125 19.125 0.225
-34.125 19.125 -0.375
-33.375 18.225 0.375
-34.275 13.875 -0.675
-34.275 13.875 0.075
-34.275 13.875 -1.275
-34.275 13.875 -1.125
-33.675 18.675 1.275
-33.675 18.675 -0.525
-33.675 18.675 -1.275
-32.925 16.575 -0.375
-32.925 16.575 -0.675
-32.925 16.575 0.225
-32.925 16.425 0.225
-32.925 16.425 -0.675
-32.925 16.725 -0.075
-32.925 16.275 -0.525
-32.925 16.275 0.225
-32.925 16.275 -1.275
-33.075 15.525 -0.375
-32.925 16.875 -0.225
-34.275 19.275 -0.525
-34.275 19.275 -1.125
-36.975 19.875 -1.275
-36.975 19.875 -1.425
-33.075 17.625 -0.225
-33.525 18.525 1.125
-32.925 16.125 -0.225
-34.425 13.725 -0.375
-33.225 15.075 -0.375
-35.475 19.875 -0.225
-37.575 19.725 -0.075
-32.925 15.975 -0.525
-37.125 19.875 -0.675
-34.425 19.425 -1.275
-34.425 19.425 -1.425
-33.225 18.075 -1.425
-33.225 18.075 -0.975
-32.925 17.175 -0.375
-32.925 17.175 -0.075
-33.825 14.175 -1.275
-33.375 18.375 -1.275
-33.975 14.025 -1.125
-33.075 17.775 0.075
-33.075 17.775 -0.825
-33.075 17.775 -0.525
-34.875 13.425 -1.575
-33.675 14.325 -1.125
-33.675 14.325 -1.275
-33.675 14.325 -1.425
-33.825 18.975 -0.825
-33.825 18.975 -3.825
-34.125 13.875 -1.575
-32.925 17.325 -0.225
-35.325 19.875 -0.975
-35.325 19.875 -1.425
-35.325 19.875 -1.575
-38.025 13.575 -1.875
-33.975 19.125 -1.725
-33.975 19.125 -0.675
-33.975 19.125 -0.375
-33.675 18.825 -1.125
-34.875 19.725 0.075
-34.875 19.725 -1.425
-34.875 19.725 -0.525
-34.575 19.575 -0.525
-36.525 20.025 -0.825
-34.125 19.275 -1.725
-37.725 19.725 -1.125
-37.725 19.725 -0.225
-34.275 13.725 -1.425
-34.275 13.725 0.825
-34.275 13.725 -0.675
-34.275 13.725 -0.375
-33.525 18.675 -0.975
-35.925 20.025 -1.125
-38.325 13.725 -4.875
-35.175 19.875 -1.125
-33.375 14.625 -1.575
-34.275 19.425 -0.525
-34.275 19.425 -1.575
-34.275 19.425 -1.275
-34.275 19.425 -0.375
-32.775 16.575 0.525
-32.775 16.575 -0.825
-39.225 14.625 0.075
-32.775 16.425 -0.825
-32.775 16.425 0.375
-32.775 16.425 -0.225
-32.775 16.725 -0.225
-32.775 16.725 -0.825
-32.775 16.725 -0.675
-34.425 13.575 -1.275
-35.025 13.275 -0.825
-32.775 16.275 -0.375
-35.625 20.025 0.075
-35.625 20.025 -0.825
-32.775 16.875 -0.825
-32.775 16.875 0.225
-32.775 16.875 -0.675
-34.725 19.725 -0.825
-38.175 13.575 2.775
-33.675 14.175 -1.725
-33.075 15.075 -1.425
-32.775 16.125 -5.625
-34.425 19.575 -1.875
-34.425 19.575 -1.425
-32.775 17.025 -0.225
-32.775 17.025 -0.975
-32.775 17.025 -0.675
-38.175 19.575 0.225
-33.825 19.125 0.075
-33.825 19.125 -1.125
-35.475 20.025 -0.075
-35.475 20.025 -1.125
-33.675 18.975 -0.975
-33.225 18.375 -1.725
-32.775 15.975 -0.825
-32.775 15.975 -0.975
-33.975 19.275 0.675
-32.775 17.175 -0.225
-34.125 13.725 0.375
-34.125 13.725 0.675
-34.125 13.725 -0.375
-34.575 13.425 -0.375
-34.575 13.425 -0.975
-32.925 17.775 -0.525
-34.875 13.275 -0.975
-34.875 13.275 -1.575
-33.375 14.475 0.375
-34.125 19.425 -1.125
-34.125 19.425 -0.525
-32.775 15.825 -0.225
-34.575 19.725 -1.275
-34.575 19.725 -1.125
-33.375 18.675 -1.725
-39.225 14.475 0.225
-34.275 13.575 -0.375
-34.875 19.875 -0.375
-33.075 14.925 -0.375
-37.725 19.875 -0.975
-38.325 13.575 2.325
-36.225 20.175 -0.975
-36.525 20.175 -0.975
-34.275 19.575 -1.575
-33.225 14.625 -1.875
-33.225 14.625 -3.825
-33.225 14.625 -1.575
