# .PCD v0.7 - Point Cloud Data file format
VERSION 0.7
FIELDS x y z
SIZE 4 4 4
TYPE F F F
COUNT 1 1 1
WIDTH 2048
HEIGHT 1
VIEWPOINT 0 0 0 1 0 0 0
POINTS 2048
DATA ascii
-23.625 -5.625 1.275
-23.925 -5.325 0.075
-24.525 -5.475 1.425
-23.625 -5.475 1.125
-24.525 -5.325 1.425
-24.525 -5.325 0.675
-23.625 -5.175 0.075
-24.825 -5.475 0.975
-23.325 -5.475 0.525
-25.125 -5.625 1.275
-23.175 -5.175 0.675
-24.975 -5.175 2.025
-24.975 -6.675 1.575
-22.875 -6.225 2.025
-22.875 -6.375 2.025
-25.425 -5.625 0.825
-25.425 -5.475 0.825
-25.425 -5.325 1.125
-25.575 -5.775 1.425
-23.775 -4.425 2.625
-23.625 -4.425 -4.275
-23.475 -4.425 2.775
-25.725 -5.775 1.125
-22.275 -5.925 0.825
-25.725 -5.175 0.975
-25.725 -5.175 1.275
-22.575 -4.875 0.825
-24.675 -4.125 -4.275
-22.575 -4.725 0.675
-22.425 -4.875 0.975
-22.425 -4.875 1.125
-25.725 -4.875 1.575
-26.025 -5.475 0.375
-26.025 -5.325 -0.075
-25.725 -4.725 1.725
-22.575 -4.425 0.675
-25.725 -4.575 1.725
-22.275 -4.725 0.975
-22.275 -4.725 0.375
-22.125 -4.875 0.675
-22.125 -4.875 1.125
-22.425 -4.425 0.675
-22.575 -4.275 0.525
-22.125 -4.725 0.675
-22.425 -4.275 0.825
-22.425 -4.275 0.525
-25.875 -4.425 1.425
-21.975 -4.875 -0.075
-26.175 -4.875 0.975
-22.125 -4.575 0.525
-22.125 -4.575 0.675
-25.425 -3.975 1.575
-24.075 -3.525 1.875
-24.225 -3.525 1.875
-21.975 -4.725 0.975
-21.975 -4.725 0.375
-21.975 -4.725 0.825
-25.275 -3.825 1.275
-22.275 -4.275 0.525
-22.125 -4.425 0.675
-21.825 -4.875 1.275
-21.825 -4.875 0.225
-21.975 -4.575 0.825
-21.975 -4.575 0.975
-21.975 -4.575 0.675
-24.075 -3.375 0.675
-21.825 -4.725 1.125
-21.825 -4.725 0.675
-22.125 -4.275 0.675
-22.125 -4.275 0.525
-23.925 -3.375 2.175
-24.975 -3.525 1.275
-24.375 -3.375 1.425
-21.975 -4.425 0.525
-21.975 -4.425 0.675
-24.525 -3.375 1.575
-26.625 -6.375 1.875
-21.825 -4.575 -0.075
-22.125 -4.125 0.075
-21.975 -4.275 0.375
-21.975 -4.275 0.525
-21.675 -4.725 0.675
-25.275 -3.525 1.425
-24.375 -3.225 -0.225
-26.025 -3.975 2.175
-25.125 -3.375 1.575
-26.775 -6.525 0.975
-24.675 -3.225 2.025
-21.825 -4.275 0.375
-21.525 -4.725 1.425
-21.525 -4.725 0.675
-24.075 -3.075 1.125
-21.225 -6.225 2.175
-24.375 -3.075 3.075
-21.825 -4.125 0.075
-25.425 -3.375 1.725
-21.375 -4.875 1.425
-25.125 -3.225 1.425
-23.775 -2.925 -0.075
-27.075 -6.225 0.375
-24.375 -2.925 1.425
-25.125 -3.075 1.275
-21.525 -4.275 0.975
-26.625 -4.275 0.675
-21.075 -5.325 1.575
-24.675 -2.925 -0.075
-26.325 -3.825 0.975
-25.275 -3.075 2.025
-27.075 -5.175 1.275
-26.475 -3.975 0.825
-26.625 -4.125 0.825
-23.175 -2.925 0.225
-24.975 -2.925 1.275
-21.225 -4.575 0.525
-20.925 -6.225 1.875
-21.375 -4.275 1.275
-21.375 -4.275 -0.675
-25.725 -3.225 0.975
-25.125 -2.925 0.075
-24.525 -2.775 -0.375
-26.475 -3.825 0.825
-21.225 -4.425 0.675
-21.225 -4.425 0.825
-23.325 -2.775 0.075
-21.375 -4.125 0.825
-20.925 -5.025 1.425
-21.225 -4.275 1.725
-21.225 -4.275 1.575
-21.225 -4.275 0.375
-21.225 -4.275 0.675
-27.375 -5.775 0.825
-20.775 -5.775 1.425
-20.775 -6.075 1.725
-20.775 -6.075 1.575
-20.775 -6.075 1.875
-25.125 -2.775 2.175
-21.375 -3.975 0.375
-24.525 -2.625 -0.225
-27.375 -5.475 1.125
-20.775 -6.375 1.725
-21.075 -4.425 1.725
-21.075 -4.425 0.675
-21.075 -4.425 1.275
-25.575 -2.925 0.225
-25.575 -2.925 -0.075
-21.075 -4.425 1.575
-21.075 -4.425 0.975
-20.775 -5.325 1.425
-20.775 -5.325 1.875
-27.375 -5.325 1.125
-27.375 -5.325 0.525
-21.225 -4.125 1.275
-21.225 -4.125 0.825
-21.225 -4.125 0.525
-22.875 -2.775 0.075
-20.775 -5.175 1.725
-20.775 -5.175 1.875
-20.775 -5.175 1.275
-23.175 -2.625 -0.075
-20.775 -5.025 1.425
-26.175 -3.225 0.525
-22.425 -2.925 0.075
-21.075 -4.275 1.275
-20.925 -4.575 1.425
-20.925 -4.575 1.725
-20.925 -4.575 1.575
-20.925 -4.575 2.475
-20.925 -4.575 1.875
-22.725 -2.775 0.075
-20.625 -5.925 2.025
-24.075 -2.475 -0.825
-20.625 -6.075 1.575
-23.925 -2.475 -0.375
-24.225 -2.475 0.375
-20.625 -6.225 1.875
-20.775 -4.875 0.225
-20.925 -4.425 1.275
-20.925 -4.425 1.725
-25.575 -2.775 0.375
-21.075 -4.125 1.275
-20.625 -5.325 1.725
-20.625 -5.325 1.425
-24.675 -2.475 0.375
-22.875 -2.625 -0.075
-20.775 -4.725 1.275
-20.775 -4.725 2.175
-20.775 -4.725 0.825
-26.775 -3.675 0.075
-20.625 -5.175 1.425
-23.325 -2.475 -0.075
-20.625 -5.025 1.425
-23.175 -2.475 -0.225
-23.175 -2.475 -0.375
-25.425 -2.625 -0.225
-22.125 -2.925 0.225
-20.475 -5.925 1.575
-27.675 -5.925 0.975
-20.475 -6.075 1.575
-24.225 -2.325 0.225
-20.625 -4.875 1.125
-23.025 -2.475 -0.075
-25.125 -2.475 0.075
-25.125 -2.475 0.675
-20.475 -6.225 1.425
-24.375 -2.325 0.225
-27.675 -5.625 0.975
-27.675 -5.625 3.375
-20.775 -4.425 1.875
-20.775 -4.425 1.275
-20.475 -6.375 1.425
-24.525 -2.325 -0.525
-22.275 -2.775 -0.075
-22.275 -2.775 0.075
-20.475 -5.325 1.425
-24.675 -2.325 -0.675
-20.625 -4.725 1.425
-20.475 -5.175 1.725
-20.475 -5.175 2.025
-20.475 -5.175 1.425
-23.325 -2.325 -0.075
-23.325 -2.325 -0.225
-20.775 -4.275 0.375
-20.775 -4.275 1.575
-20.775 -4.275 1.725
-20.775 -4.275 1.425
-20.925 -3.975 1.125
-20.625 -4.575 1.875
-20.625 -4.575 1.575
-22.125 -2.775 0.225
-25.425 -2.475 -0.075
-27.225 -3.975 0.825
-23.175 -2.325 0.075
-24.975 -2.325 -0.075
-24.975 -2.325 -0.225
-23.025 -2.325 0.075
-22.275 -2.625 -0.075
-25.875 -2.625 -0.075
-20.775 -4.125 1.425
-20.625 -4.425 1.875
-22.575 -2.475 0.375
-20.325 -5.625 1.725
-20.925 -3.825 2.325
-25.275 -2.325 0.825
-22.875 -2.325 -0.225
-22.875 -2.325 0.075
-23.475 -2.175 -0.225
-20.325 -5.325 1.275
-26.025 -2.625 0.075
-20.775 -3.975 0.975
-20.775 -3.975 0.375
-20.475 -4.575 1.275
-22.725 -2.325 -0.225
-25.425 -2.325 -0.075
-23.175 -2.175 -0.075
-20.625 -4.125 1.125
-25.875 -2.475 0.075
-22.575 -2.325 -0.225
-24.075 -2.025 -1.875
-20.175 -6.075 1.575
-20.775 -3.825 0.075
-26.175 -2.625 -0.225
-23.625 -2.025 -6.225
-22.875 -2.175 0.075
-23.475 -2.025 0.075
-20.475 -4.275 1.425
-20.475 -4.275 2.025
-22.425 -2.325 -0.225
-22.725 -2.175 -0.225
-25.425 -2.175 -0.075
-27.375 -3.675 0.675
-20.475 -4.125 1.275
-21.075 -3.225 1.425
-27.075 -3.225 0.975
-27.075 -3.225 0.675
-21.075 -3.225 0.375
-20.325 -4.425 1.425
-23.025 -2.025 -0.075
-23.025 -2.025 0.075
-20.925 -3.375 0.375
-20.925 -3.375 1.425
-24.225 -1.875 -0.975
-22.875 -2.025 0.075
-27.375 -3.525 0.675
-23.475 -1.875 0.075
-22.125 -2.325 2.475
-27.525 -3.675 0.375
-22.725 -2.025 0.075
-21.075 -3.075 1.575
-26.925 -2.925 0.075
-20.925 -3.225 -0.375
-20.925 -3.225 1.125
-20.925 -3.225 0.825
-20.925 -3.225 0.975
-23.175 -1.875 -0.225
-20.775 -3.375 0.975
-20.775 -3.375 0.825
-20.175 -4.425 1.875
-23.025 -1.875 -0.225
-24.075 -1.725 -0.225
-20.625 -3.525 2.925
-23.625 -1.725 -1.875
-24.525 -1.725 -0.075
-20.175 -4.275 1.125
-21.075 -2.925 0.375
-26.325 -2.325 -0.525
-20.925 -3.075 1.275
-20.925 -3.075 1.425
-27.375 -3.225 0.825
-20.775 -3.225 1.275
-20.775 -3.225 1.125
-20.775 -3.225 1.575
-23.325 -1.725 0.375
-25.425 -1.875 -0.225
-27.525 -3.375 0.075
-27.525 -3.375 0.525
-20.625 -3.375 0.825
-27.525 -3.375 0.825
-23.175 -1.725 -0.225
-24.975 -1.725 -0.525
-24.975 -1.725 -0.375
-22.275 -2.025 -0.375
-27.825 -3.825 0.225
-26.175 -2.175 0.975
-22.575 -1.875 0.075
-26.475 -2.325 -0.375
-27.675 -3.525 0.375
-19.875 -4.875 -0.825
-20.925 -2.925 0.975
-20.925 -2.925 1.425
-21.075 -2.775 0.375
-27.075 -2.775 1.575
-24.225 -1.575 0.375
-23.775 -1.575 0.075
-20.775 -3.075 1.125
-25.275 -1.725 0.075
-25.275 -1.725 0.525
-23.625 -1.575 -0.225
-20.625 -3.225 0.225
-20.625 -3.225 0.825
-20.625 -3.225 1.125
-20.625 -3.225 1.275
-23.475 -1.575 0.075
-23.475 -1.575 -0.225
-23.475 -1.575 0.225
-21.675 -2.175 -0.375
-20.925 -2.775 0.675
-20.925 -2.775 0.375
-25.575 -1.725 -0.075
-21.075 -2.625 0.975
-27.375 -2.925 0.375
-27.375 -2.925 0.825
-27.375 -2.925 1.275
-27.525 -3.075 0.375
-23.025 -1.575 0.375
-23.025 -1.575 -0.075
-23.025 -1.575 -0.525
-24.075 -1.425 -1.875
-27.675 -3.225 0.225
-27.675 -3.225 -0.075
-26.325 -2.025 -0.525
-26.325 -2.025 0.075
-23.775 -1.425 -0.075
-25.275 -1.575 -0.225
-25.275 -1.575 0.675
-23.475 -1.425 -0.525
-24.675 -1.425 0.225
-25.425 -1.575 0.525
-25.425 -1.575 -0.675
-20.925 -2.625 0.075
-21.975 -1.875 -0.075
-27.375 -2.775 0.675
-28.125 -3.825 0.075
-20.625 -2.925 1.575
-20.625 -2.925 1.275
-21.075 -2.475 0.975
-27.975 -3.525 0.075
-23.175 -1.425 -0.375
-24.975 -1.425 -0.675
-20.475 -3.075 0.675
-22.575 -1.575 -0.075
-23.025 -1.425 -0.375
-23.025 -1.425 -0.075
-22.425 -1.575 -0.075
-23.925 -1.275 -0.075
-23.925 -1.275 -0.225
-25.275 -1.425 -0.075
-23.775 -1.275 -0.525
-27.975 -3.375 0.675
-27.975 -3.375 0.375
-20.775 -2.625 0.975
-20.775 -2.625 1.575
-27.375 -2.625 0.675
-20.925 -2.475 1.575
-20.925 -2.475 0.075
-20.925 -2.475 1.125
-20.625 -2.775 1.275
-23.625 -1.275 -0.075
-23.625 -1.275 -0.675
-24.525 -1.275 -0.975
-27.225 -2.475 1.425
-20.475 -2.925 1.125
-20.475 -2.925 1.725
-27.675 -2.925 0.225
-23.475 -1.275 -0.825
-21.975 -1.725 -0.225
-22.725 -1.425 -0.525
-25.425 -1.425 -0.075
-22.275 -1.575 0.075
-22.275 -1.575 -0.225
-21.225 -2.175 0.975
-22.575 -1.425 -0.375
-26.325 -1.725 -0.075
-22.125 -1.575 -0.225
-22.125 -1.575 1.425
-23.025 -1.275 -0.225
-27.525 -2.625 0.825
-20.775 -2.475 0.825
-27.375 -2.475 1.275
-27.375 -2.475 0.375
-27.375 -2.475 0.675
-20.775 -2.475 0.675
-20.775 -2.475 -0.075
-20.925 -2.325 1.575
-21.525 -1.875 0.675
-21.525 -1.875 1.275
-24.075 -1.125 0.375
-23.925 -1.125 -0.075
-25.275 -1.275 0.075
-22.875 -1.275 -0.225
-21.225 -2.025 0.975
-21.225 -2.025 1.575
-21.225 -2.025 0.525
-21.975 -1.575 -1.125
-21.975 -1.575 0.375
-26.175 -1.575 0.825
-26.175 -1.575 4.125
-27.975 -3.075 -0.525
-24.675 -1.125 -0.375
-24.675 -1.125 -0.975
-26.475 -1.725 2.775
-22.725 -1.275 -0.225
-22.725 -1.275 0.075
-22.725 -1.275 -0.075
-22.725 -1.275 -0.525
-25.425 -1.275 -0.225
-21.375 -1.875 0.675
-23.175 -1.125 -0.675
-23.175 -1.125 -0.825
-23.175 -1.125 1.125
-23.175 -1.125 -0.525
-23.175 -1.125 -0.225
-27.375 -2.325 0.825
-20.775 -2.325 1.125
-27.375 -2.325 0.375
-27.375 -2.325 -0.375
-20.775 -2.325 0.975
-20.775 -2.325 0.225
-22.575 -1.275 -1.725
-25.575 -1.275 -0.075
-22.575 -1.275 0.225
-21.825 -1.575 -0.375
-22.125 -1.425 0.225
-28.275 -3.375 0.375
-26.625 -1.725 0.675
-21.075 -2.025 0.975
-27.975 -2.925 0.225
-22.875 -1.125 -0.225
-22.875 -1.125 0.075
-24.075 -0.975 -0.075
-24.075 -0.975 -0.375
-21.225 -1.875 0.525
-21.225 -1.875 0.675
-21.225 -1.875 1.425
-24.225 -0.975 -0.225
-23.925 -0.975 -0.075
-23.925 -0.975 -0.375
-24.375 -0.975 0.975
-24.375 -0.975 0.825
-23.775 -0.975 -0.375
-23.775 -0.975 -0.075
-21.975 -1.425 0.375
-26.475 -1.575 0.225
-24.525 -0.975 -0.375
-24.525 -0.975 0.975
-23.625 -0.975 -0.075
-24.525 -0.975 -0.225
-27.525 -2.325 0.975
-20.625 -2.325 0.825
-20.625 -2.325 0.075
-20.625 -2.325 2.775
-22.725 -1.125 -0.375
-23.475 -0.975 -0.075
-24.675 -0.975 -0.525
-27.675 -2.475 0.075
-27.675 -2.475 0.825
-21.375 -1.725 0.675
-21.375 -1.725 0.525
-21.375 -1.725 0.225
-27.825 -2.625 0.375
-20.325 -2.625 2.175
-27.375 -2.175 0.225
-20.775 -2.175 1.575
-23.325 -0.975 -0.225
-20.925 -2.025 0.375
-20.925 -2.025 0.525
-28.875 -4.425 0.975
-21.825 -1.425 0.975
-23.175 -0.975 -0.075
-24.975 -0.975 1.125
-21.075 -1.875 0.375
-21.075 -1.875 0.825
-21.075 -1.875 0.675
-21.525 -1.575 1.425
-22.125 -1.275 -0.075
-25.125 -0.975 -0.675
-21.225 -1.725 0.675
-20.475 -2.325 1.125
-27.675 -2.325 -0.825
-27.675 -2.325 0.075
-27.675 -2.325 0.975
-29.025 -4.725 0.075
-25.275 -0.975 -0.525
-27.825 -2.475 0.375
-20.325 -2.475 2.175
-27.525 -2.175 0.525
-21.675 -1.425 -0.225
-21.675 -1.425 -0.375
-24.075 -0.825 -0.375
-24.075 -0.825 0.975
-24.225 -0.825 0.075
-24.225 -0.825 0.375
-24.225 -0.825 1.125
-24.225 -0.825 -0.225
-24.225 -0.825 0.525
-24.225 -0.825 0.975
-23.925 -0.825 -0.375
-26.175 -1.275 -0.075
-18.975 -6.225 -0.225
-24.375 -0.825 0.825
-24.375 -0.825 0.075
-20.775 -2.025 0.675
-27.975 -2.625 0.525
-26.775 -1.575 1.575
-21.375 -1.575 0.825
-21.375 -1.575 -0.075
-21.375 -1.575 -5.475
-24.525 -0.825 0.975
-24.525 -0.825 0.525
-23.625 -0.825 -0.225
-20.925 -1.875 0.525
-29.025 -4.575 0.375
-22.725 -0.975 0.225
-25.425 -0.975 0.825
-25.425 -0.975 0.375
-25.425 -0.975 0.975
-27.225 -1.875 0.975
-23.475 -0.825 -0.075
-23.475 -0.825 -0.675
-23.475 -0.825 -0.225
-24.675 -0.825 0.075
-24.675 -0.825 0.975
-24.675 -0.825 0.525
-24.675 -0.825 0.825
-23.325 -0.825 -0.075
-24.825 -0.825 0.525
-24.825 -0.825 0.375
-23.325 -0.825 -0.375
-23.325 -0.825 -0.525
-21.075 -1.725 1.275
-21.075 -1.725 0.525
-21.075 -1.725 1.575
-21.075 -1.725 1.125
-21.825 -1.275 -0.075
-22.575 -0.975 0.375
-22.575 -0.975 -0.225
-22.575 -0.975 0.075
-21.525 -1.425 0.075
-24.975 -0.825 0.225
-24.975 -0.825 0.375
-24.975 -0.825 0.075
-24.975 -0.825 0.525
-27.825 -2.325 0.075
-27.825 -2.325 0.375
-27.675 -2.175 0.225
-21.225 -1.575 1.125
-21.225 -1.575 0.225
-21.225 -1.575 0.675
-21.225 -1.575 0.825
-21.225 -1.575 0.525
-26.925 -1.575 1.425
-27.525 -2.025 0.675
-20.625 -2.025 0.525
-25.125 -0.825 0.375
-23.025 -0.825 0.075
-22.425 -0.975 -0.675
-22.425 -0.975 0.075
-20.775 -1.875 1.575
-21.675 -1.275 -0.075
-21.675 -1.275 -0.375
-25.275 -0.825 1.575
-25.275 -0.825 0.375
-22.875 -0.825 -1.125
-22.875 -0.825 0.075
-21.375 -1.425 1.275
-20.925 -1.725 0.675
-20.925 -1.725 0.375
-20.925 -1.725 0.525
-24.075 -0.675 0.825
-24.075 -0.675 0.375
-24.225 -0.675 0.375
-24.225 -0.675 -0.525
-24.225 -0.675 0.525
-24.225 -0.675 1.425
-23.925 -0.675 0.825
-23.925 -0.675 0.375
-23.925 -0.675 0.975
-23.775 -0.675 0.975
-24.375 -0.675 0.375
-23.775 -0.675 -0.525
-23.775 -0.675 -0.375
-19.125 -4.125 0.975
-25.875 -0.975 1.275
-23.625 -0.675 -0.825
-24.525 -0.675 0.525
-23.625 -0.675 0.975
-24.525 -0.675 0.375
-25.425 -0.825 0.375
-23.475 -0.675 0.975
-23.475 -0.675 -0.375
-21.075 -1.575 0.675
-21.075 -1.575 0.525
-24.675 -0.675 0.375
-23.325 -0.675 0.075
-24.825 -0.675 0.375
-23.325 -0.675 0.375
-23.325 -0.675 -0.375
-20.325 -2.175 2.325
-24.825 -0.675 0.525
-21.525 -1.275 -0.375
-25.575 -0.825 0.375
-22.575 -0.825 -0.525
-22.575 -0.825 0.075
-25.575 -0.825 0.525
-22.575 -0.825 -0.225
-27.525 -1.875 0.825
-26.025 -0.975 0.975
-22.125 -0.975 -0.675
-22.125 -0.975 -0.375
-23.175 -0.675 0.225
-24.975 -0.675 0.525
-24.975 -0.675 -0.675
-20.775 -1.725 0.825
-23.025 -0.675 0.225
-22.425 -0.825 -0.525
-25.725 -0.825 0.375
-25.725 -0.825 0.525
-21.675 -1.125 -0.825
-21.675 -1.125 -0.375
-20.925 -1.575 0.675
-20.925 -1.575 0.975
-20.925 -1.575 1.125
-20.925 -1.575 0.825
-21.975 -0.975 -0.975
-21.975 -0.975 0.225
-21.975 -0.975 -0.825
-21.975 -0.975 -0.375
-22.875 -0.675 -0.075
-24.075 -0.525 1.275
-24.225 -0.525 0.225
-23.925 -0.525 0.375
-24.375 -0.525 -0.075
-23.775 -0.525 0.375
-21.075 -1.425 1.125
-21.075 -1.425 1.725
-25.875 -0.825 0.525
-22.275 -0.825 -0.375
-27.075 -1.425 0.225
-20.175 -2.175 0.975
-20.325 -2.025 2.625
-23.625 -0.525 0.225
-23.475 -0.525 -0.375
-27.525 -1.725 0.975
-20.625 -1.725 1.425
-21.525 -1.125 0.075
-26.325 -0.975 -0.075
-23.325 -0.525 -0.225
-23.325 -0.525 0.525
-23.325 -0.525 0.975
-21.225 -1.275 1.275
-18.975 -3.975 0.825
-26.025 -0.825 0.975
-22.575 -0.675 0.375
-22.575 -0.675 -0.375
-22.575 -0.675 -0.525
-25.575 -0.675 0.525
-20.775 -1.575 1.725
-20.775 -1.575 0.975
-23.175 -0.525 0.375
-23.175 -0.525 0.825
-23.175 -0.525 -0.375
-24.975 -0.525 -0.225
-27.225 -1.425 0.375
-27.225 -1.425 -0.075
-27.225 -1.425 0.825
-25.125 -0.525 0.075
-23.025 -0.525 -0.525
-23.025 -0.525 0.975
-26.475 -0.975 0.075
-22.425 -0.675 -0.675
-21.375 -1.125 0.075
-26.775 -1.125 0.675
-21.975 -0.825 -0.375
-21.975 -0.825 -0.075
-27.975 -2.025 0.675
-20.025 -2.175 1.275
-19.875 -2.325 0.675
-22.875 -0.525 0.375
-22.875 -0.525 0.075
-22.875 -0.525 -0.225
-19.875 -2.325 1.275
-27.075 -1.275 0.075
-25.875 -0.675 0.525
-20.625 -1.575 -0.525
-23.775 -0.375 0.375
-22.725 -0.525 0.075
-22.725 -0.525 -0.375
-25.425 -0.525 -0.225
-23.625 -0.375 -0.225
-23.625 -0.375 1.425
-23.625 -0.375 0.375
-21.525 -0.975 -0.075
-26.325 -0.825 -0.375
-26.325 -0.825 0.375
-19.575 -2.625 -4.125
-20.775 -1.425 -0.675
-20.775 -1.425 0.975
-20.775 -1.425 1.125
-21.225 -1.125 0.225
-23.475 -0.375 -0.075
-23.475 -0.375 -0.525
-23.475 -0.375 0.225
-29.625 -5.325 0.375
-22.125 -0.675 1.125
-22.125 -0.675 -0.825
-23.325 -0.375 1.425
-23.325 -0.375 -0.075
-22.125 -0.675 0.525
-26.025 -0.675 0.525
-26.025 -0.675 0.375
-26.025 -0.675 0.975
-20.925 -1.275 1.275
-27.225 -1.275 0.225
-27.225 -1.275 -0.525
-23.175 -0.375 1.275
-23.175 -0.375 0.375
-23.175 -0.375 -0.225
-20.025 -2.025 1.125
-20.025 -2.025 2.925
-20.025 -2.025 1.275
-27.975 -1.875 0.825
-27.825 -1.725 0.675
-19.875 -2.175 1.275
-19.875 -2.175 1.125
-26.475 -0.825 2.025
-21.375 -0.975 0.975
-19.725 -2.325 1.125
-19.725 -2.325 1.575
-22.425 -0.525 0.525
-22.425 -0.525 0.225
-23.025 -0.375 0.375
-25.125 -0.375 0.675
-21.975 -0.675 -0.375
-26.175 -0.675 -0.375
-26.175 -0.675 0.525
-21.075 -1.125 -5.175
-19.575 -2.475 -3.825
-22.875 -0.375 0.825
-22.875 -0.375 0.525
-22.275 -0.525 0.375
-20.775 -1.275 0.375
-23.925 -0.225 -0.225
-21.225 -0.975 1.125
-22.725 -0.375 0.375
-22.725 -0.375 0.825
-25.425 -0.375 -0.225
-26.325 -0.675 -0.375
-25.425 -0.375 0.675
-26.925 -0.975 0.375
-26.925 -0.975 -0.225
-23.625 -0.225 -0.075
-24.525 -0.225 0.075
-24.525 -0.225 0.525
-20.025 -1.875 1.275
-20.025 -1.875 1.125
-19.875 -2.025 1.125
-19.875 -2.025 1.275
-19.875 -2.025 -2.775
-23.475 -0.225 0.525
-27.975 -1.725 0.375
-22.125 -0.525 0.825
-22.125 -0.525 -0.375
-26.025 -0.525 0.675
-27.225 -1.125 0.225
-27.225 -1.125 0.525
-19.725 -2.175 1.125
-22.575 -0.375 0.375
-22.575 -0.375 0.975
-23.325 -0.225 0.225
-23.325 -0.225 0.075
-28.575 -2.325 -0.975
-21.375 -0.825 -0.225
-24.975 -0.225 -0.225
-21.675 -0.675 0.075
-26.475 -0.675 -0.075
-22.425 -0.375 0.225
-22.425 -0.375 -0.225
-22.425 -0.375 0.525
-26.175 -0.525 0.375
-23.025 -0.225 -0.525
-23.025 -0.225 0.375
-22.875 -0.225 1.125
-20.775 -1.125 -0.675
-22.275 -0.375 0.525
-25.875 -0.375 1.425
-22.275 -0.375 0.975
-21.525 -0.675 -0.075
-21.525 -0.675 -0.225
-19.725 -2.025 -2.925
-26.925 -0.825 -0.075
-21.825 -0.525 0.225
-26.325 -0.525 0.225
-26.325 -0.525 -0.225
-24.075 -0.075 0.525
-26.325 -0.525 0.525
-22.725 -0.225 0.375
-20.475 -1.275 -5.175
-20.475 -1.275 -0.375
-26.025 -0.375 -0.375
-22.125 -0.375 0.975
-22.575 -0.225 0.375
-23.325 -0.075 -0.525
-21.675 -0.525 0.075
-26.475 -0.525 -0.225
-26.475 -0.525 -0.525
-27.525 -1.125 -0.075
-19.275 -2.475 1.125
-21.075 -0.825 1.275
-23.175 -0.075 -0.225
-23.175 -0.075 0.225
-21.975 -0.375 -0.675
-22.425 -0.225 0.975
-22.425 -0.225 1.125
-26.175 -0.375 -0.225
-26.175 -0.375 -0.075
-19.875 -1.725 1.125
-19.725 -1.875 4.125
-23.025 -0.075 -0.375
-27.375 -0.975 -0.675
-27.375 -0.975 -0.375
-27.375 -0.975 0.375
-27.375 -0.975 0.525
-27.375 -0.975 -0.225
-19.575 -2.025 1.725
-19.575 -2.025 1.275
-19.575 -2.025 1.125
-22.875 -0.075 0.375
-22.875 -0.075 0.075
-22.875 -0.075 0.225
-21.525 -0.525 -0.375
-22.875 -0.075 1.875
-25.275 -0.075 -0.375
-19.425 -2.175 2.475
-19.425 -2.175 1.275
-21.225 -0.675 0.075
-19.425 -2.175 1.125
-26.925 -0.675 -0.375
-26.925 -0.675 -0.075
-22.275 -0.225 -0.225
-25.875 -0.225 -0.675
-22.275 -0.225 0.525
-26.325 -0.375 1.575
-26.325 -0.375 0.525
-26.325 -0.375 2.175
-26.325 -0.375 -0.375
-21.825 -0.375 0.675
-26.325 -0.375 -0.525
-21.825 -0.375 0.225
-26.325 -0.375 -0.075
-20.925 -0.825 -3.075
-19.275 -2.325 1.125
-19.275 -2.325 1.575
-23.775 0.075 -0.375
-24.375 0.075 0.675
-22.125 -0.225 0.525
-19.125 -2.475 1.275
-21.375 -0.525 0.675
-26.775 -0.525 -0.075
-22.575 -0.075 0.375
-22.575 -0.075 0.975
-22.575 -0.075 1.425
-21.675 -0.375 0.225
-21.675 -0.375 -0.375
-21.675 -0.375 0.675
-21.075 -0.675 0.075
-21.075 -0.675 -0.525
-27.075 -0.675 0.075
-26.475 -0.375 -0.225
-28.125 -1.425 -0.075
-28.575 -1.875 -0.525
-20.025 -1.425 -0.075
-23.175 0.075 0.525
-19.425 -2.025 1.275
-19.425 -2.025 1.875
-18.975 -2.625 2.625
-21.975 -0.225 0.975
-22.425 -0.075 1.425
-22.425 -0.075 -0.525
-27.825 -1.125 -0.225
-19.275 -2.175 1.125
-19.275 -2.175 1.275
-21.225 -0.525 -0.825
-21.225 -0.525 -0.225
-21.225 -0.525 -0.975
-21.225 -0.525 -0.525
-21.525 -0.375 0.975
-21.525 -0.375 1.125
-22.875 0.075 1.425
-22.875 0.075 0.225
-19.125 -2.325 1.125
-22.275 -0.075 0.225
-22.275 -0.075 -0.675
-22.275 -0.075 0.075
-22.275 -0.075 -0.225
-20.925 -0.675 -0.525
-27.225 -0.675 -0.075
-26.325 -0.225 0.525
-26.325 -0.225 -0.075
-21.825 -0.225 -0.225
-21.825 -0.225 -0.375
-21.825 -0.225 0.675
-22.725 0.075 0.225
-19.725 -1.575 1.275
-23.925 0.225 0.075
-24.225 0.225 0.525
-19.575 -1.725 1.425
-19.575 -1.725 1.275
-18.975 -2.475 1.725
-23.775 0.225 -1.425
-24.375 0.225 0.375
-20.625 -0.825 -1.575
-20.625 -0.825 -0.975
-17.925 -5.475 -1.575
-19.425 -1.875 0.975
-22.125 -0.075 -0.075
-22.125 -0.075 0.225
-22.125 -0.075 -0.375
-22.125 -0.075 0.525
-29.625 -3.225 -0.975
-21.075 -0.525 0.675
-23.475 0.225 -1.875
-23.475 0.225 -0.375
-21.675 -0.225 0.075
-21.675 -0.225 -0.675
-21.675 -0.225 -0.375
-21.675 -0.225 0.525
-19.275 -2.025 1.425
-19.275 -2.025 0.975
-26.475 -0.225 0.075
-26.475 -0.225 1.125
-27.825 -0.975 0.825
-19.125 -2.175 1.425
-21.975 -0.075 0.525
-21.975 -0.075 1.575
-21.975 -0.075 -0.825
-26.175 -0.075 -0.525
-22.425 0.075 0.225
-22.425 0.075 0.375
-23.025 0.225 0.525
-26.925 -0.375 -0.075
-26.925 -0.375 -0.225
-18.975 -2.325 1.875
-18.975 -2.325 1.125
-20.475 -0.825 0.225
-27.675 -0.825 0.825
-29.775 -3.375 0.075
-26.625 -0.225 -0.225
-21.525 -0.225 -0.375
-21.525 -0.225 0.525
-20.925 -0.525 -0.675
-19.725 -1.425 1.125
-19.575 -1.575 1.275
-22.275 0.075 1.875
-19.425 -1.725 1.275
-19.425 -1.725 1.425
-19.425 -1.725 1.725
-19.425 -1.725 1.575
-19.425 -1.725 0.225
-22.875 0.225 -0.825
-28.275 -1.275 0.075
-26.325 -0.075 -0.225
-26.325 -0.075 -0.075
-26.325 -0.075 -0.375
-26.325 -0.075 -0.675
-21.825 -0.075 0.225
-18.825 -2.475 1.425
-20.625 -0.675 0.075
-17.925 -7.275 2.175
-27.975 -0.975 0.975
-24.375 0.375 0.075
-21.375 -0.225 1.125
-27.075 -0.375 -0.075
-21.075 -0.375 0.375
-21.075 -0.375 0.825
-22.125 0.075 1.275
-22.125 0.075 -0.975
-24.525 0.375 0.225
-21.675 -0.075 -0.375
-26.475 -0.075 0.525
-26.475 -0.075 0.975
-26.475 -0.075 0.675
-26.475 -0.075 0.375
-24.675 0.375 0.675
-18.975 -2.175 1.575
-20.325 -0.825 -0.375
-21.975 0.075 0.375
-21.975 0.075 0.525
-30.075 -3.825 0.525
-26.175 0.075 -0.375
-23.175 0.375 -0.675
-28.575 -1.425 -1.725
-19.575 -1.425 1.275
-20.475 -0.675 4.425
-18.825 -2.325 0.975
-27.675 -0.675 -1.125
-19.425 -1.575 1.275
-25.725 0.225 -0.375
-21.225 -0.225 5.925
-20.925 -0.375 -0.375
-20.925 -0.375 1.125
-20.925 -0.375 0.675
-26.625 -0.075 0.375
-21.525 -0.075 1.575
-21.525 -0.075 1.725
-18.525 -2.775 1.425
-29.925 -3.375 -0.375
-23.025 0.375 -0.375
-19.125 -1.875 3.825
-28.125 -0.975 0.525
-28.125 -0.975 -0.375
-20.625 -0.525 0.675
-20.625 -0.525 0.375
-22.275 0.225 0.375
-26.325 0.075 0.525
-26.325 0.075 1.875
-26.325 0.075 -0.225
-26.325 0.075 0.225
-21.825 0.075 -0.375
-18.975 -2.025 1.425
-18.975 -2.025 2.175
-27.975 -0.825 -0.525
-27.075 -0.225 0.675
-21.375 -0.075 0.525
-26.025 0.225 -0.225
-26.025 0.225 -0.375
-22.125 0.225 0.075
-18.825 -2.175 0.375
-18.825 -2.175 1.725
-18.825 -2.175 2.025
-20.325 -0.675 -0.375
-17.625 -5.625 -0.525
-27.375 -0.375 1.125
-27.375 -0.375 1.875
-20.775 -0.375 1.125
-18.525 -2.625 1.575
-21.675 0.075 -0.525
-21.675 0.075 0.075
-30.075 -3.525 -0.075
-26.475 0.075 -0.225
-26.475 0.075 0.675
-26.475 0.075 0.375
-19.425 -1.425 1.275
-22.575 0.375 0.825
-22.575 0.375 0.525
-24.675 0.525 0.225
-23.475 0.525 -1.275
-19.275 -1.575 1.425
-19.275 -1.575 0.225
-19.275 -1.575 0.975
-19.275 -1.575 1.275
-20.475 -0.525 1.125
-18.675 -2.325 0.825
-19.125 -1.725 -2.775
-28.275 -0.975 0.075
-19.875 -0.975 -0.675
-23.325 0.525 0.375
-24.825 0.525 0.225
-24.825 0.525 -0.075
-26.175 0.225 -0.375
-26.175 0.225 0.675
-21.225 -0.075 1.425
-26.925 -0.075 -0.225
-18.375 -2.775 0.975
-20.925 -0.225 0.675
-20.025 -0.825 -0.675
-27.225 -0.225 1.275
-30.075 -3.375 -0.975
-26.625 0.075 1.425
-26.625 0.075 0.675
-26.625 0.075 0.375
-21.525 0.075 -0.525
-17.625 -6.975 0.825
-20.625 -0.375 0.825
-20.625 -0.375 1.275
-20.625 -0.375 -0.825
-25.125 0.525 0.375
-18.525 -2.475 2.325
-18.525 -2.475 1.725
-18.825 -2.025 1.125
-18.825 -2.025 0.825
-27.975 -0.675 -0.825
-26.325 0.225 -0.225
-21.825 0.225 0.375
-21.825 0.225 -0.675
-21.825 0.225 1.275
-22.875 0.525 -0.525
-18.675 -2.175 1.275
-18.675 -2.175 1.125
-18.675 -2.175 1.425
-27.075 -0.075 -0.225
-20.325 -0.525 0.375
-19.425 -1.275 1.275
-28.725 -1.275 -0.525
-21.375 0.075 0.675
-21.375 0.075 -0.375
-19.275 -1.425 1.125
-19.275 -1.425 1.425
-19.275 -1.425 1.275
-19.275 -1.425 2.025
-18.375 -2.625 0.975
-20.775 -0.225 0.675
-19.125 -1.575 1.275
-19.125 -1.575 1.425
-28.425 -0.975 0.075
-26.025 0.375 0.675
-17.475 -6.075 0.975
-21.675 0.225 0.075
-21.675 0.225 0.375
-26.475 0.225 0.375
-26.475 0.225 -0.375
-26.475 0.225 0.525
-26.475 0.225 -0.225
-18.975 -1.725 -2.625
-17.475 -5.625 1.125
-17.475 -6.375 1.125
-20.475 -0.375 0.675
-20.475 -0.375 0.225
-20.475 -0.375 -0.225
-20.475 -0.375 1.275
-23.625 0.675 0.975
-18.525 -2.325 2.325
-18.525 -2.325 1.275
-18.525 -2.325 1.125
-27.675 -0.375 -0.075
-30.525 -4.425 -0.675
-30.525 -4.425 0.825
-25.575 0.525 0.075
-28.125 -0.675 -0.075
-20.025 -0.675 -0.225
-24.825 0.675 0.225
-26.925 0.075 0.225
-27.225 -0.075 0.375
-27.225 -0.075 0.975
-25.725 0.525 0.225
-18.675 -2.025 1.575
-18.675 -2.025 0.225
-20.175 -0.525 -0.225
-23.175 0.675 0.225
-27.975 -0.525 -0.075
-18.375 -2.475 0.975
-20.625 -0.225 -0.375
-20.625 -0.225 1.575
-28.725 -1.125 0.075
-21.825 0.375 0.525
-19.125 -1.425 0.975
-28.575 -0.975 0.075
-25.875 0.525 0.675
-22.275 0.525 -0.825
-20.325 -0.375 1.125
-20.325 -0.375 -0.225
-18.525 -2.175 1.125
-18.525 -2.175 3.675
-18.525 -2.175 1.275
-18.975 -1.575 1.125
-18.975 -1.575 1.425
-18.975 -1.575 1.275
-28.425 -0.825 0.225
-25.275 0.675 0.525
-27.075 0.075 1.275
-21.375 0.225 0.525
-26.775 0.225 1.275
-18.825 -1.725 1.575
-18.825 -1.725 0.975
-26.025 0.525 -0.675
-22.125 0.525 0.375
-18.375 -2.325 1.275
-18.375 -2.325 1.125
-18.375 -2.325 1.725
-21.675 0.375 -0.225
-21.675 0.375 0.525
-26.475 0.375 1.575
-26.475 0.375 0.375
-26.475 0.375 0.075
-18.675 -1.875 0.525
-18.675 -1.875 0.825
-20.025 -0.525 -3.075
-20.025 -0.525 0.375
-22.575 0.675 0.225
-30.675 -4.425 -0.675
-24.675 0.825 0.675
-20.175 -0.375 1.125
-26.175 0.525 -0.225
-26.175 0.525 -0.525
-18.525 -2.025 1.575
-27.975 -0.375 0.225
-28.875 -1.125 0.075
-18.225 -2.475 1.425
-18.225 -2.475 1.125
-27.525 -0.075 -0.975
-27.525 -0.075 2.925
-20.625 -0.075 0.675
-19.125 -1.275 1.575
-28.725 -0.975 0.075
-21.525 0.375 0.375
-21.525 0.375 -1.125
-21.525 0.375 1.425
-26.625 0.375 0.525
-28.575 -0.825 0.225
-22.425 0.675 -0.825
-23.175 0.825 -0.225
-18.825 -1.575 1.425
-18.825 -1.575 1.125
-28.425 -0.675 0.225
-18.375 -2.175 1.125
-18.375 -2.175 1.425
-18.375 -2.175 1.575
-20.325 -0.225 0.675
-20.325 -0.225 1.725
-26.325 0.525 -0.675
-19.875 -0.525 0.675
-19.875 -0.525 0.375
-25.875 0.675 -0.375
-22.275 0.675 -0.075
-22.275 0.675 0.375
-21.075 0.225 0.525
-30.075 -2.625 1.125
-18.075 -2.625 1.425
-26.775 0.375 1.125
-30.825 -4.725 0.075
-25.275 0.825 -0.375
-18.225 -2.325 1.275
-18.225 -2.325 1.425
-18.225 -2.325 -0.225
-18.225 -2.325 1.125
-18.225 -2.325 -2.025
-20.475 -0.075 0.075
-20.025 -0.375 0.375
-18.525 -1.875 -2.475
-18.525 -1.875 1.575
-30.525 -3.525 0.225
-21.675 0.525 0.375
-21.675 0.525 0.525
-22.125 0.675 -0.225
-22.125 0.675 0.225
-26.475 0.525 -0.075
-26.475 0.525 1.575
-26.475 0.525 -0.525
-26.475 0.525 0.225
-26.475 0.525 0.525
-22.725 0.825 -0.225
-28.875 -0.975 0.225
-19.425 -0.825 0.075
-19.425 -0.825 0.525
-20.175 -0.225 0.675
-20.175 -0.225 0.375
-18.375 -2.025 1.575
-21.225 0.375 0.525
-18.825 -1.425 1.725
-30.825 -4.425 0.675
-26.925 0.375 -2.025
-30.375 -3.075 0.075
-18.075 -2.475 1.125
-18.075 -2.475 1.275
-18.075 -2.475 1.425
-21.975 0.675 0.075
-21.975 0.675 0.225
-21.975 0.675 0.375
-26.175 0.675 -0.525
-26.175 0.675 -0.375
-19.725 -0.525 -0.225
-19.725 -0.525 0.675
-19.725 -0.525 1.125
-18.675 -1.575 0.825
-18.675 -1.575 1.425
-18.675 -1.575 0.075
-30.525 -3.375 0.525
-21.525 0.525 0.225
-26.625 0.525 1.125
-26.625 0.525 0.525
-26.625 0.525 0.975
-23.325 0.975 -0.225
-18.225 -2.175 1.125
-18.225 -2.175 1.575
-18.225 -2.175 1.425
-22.425 0.825 0.375
-25.725 0.825 -0.525
-23.175 0.975 0.525
-23.175 0.975 -0.375
-19.875 -0.375 0.825
-19.875 -0.375 0.075
-19.875 -0.375 -0.225
-19.875 -0.375 -0.525
-19.875 -0.375 -0.375
-21.825 0.675 0.225
-30.675 -3.675 -0.075
-17.925 -2.625 1.125
-23.025 0.975 -0.225
-23.025 0.975 0.675
-25.125 0.975 0.225
-17.325 -4.125 1.425
-22.275 0.825 0.075
-22.275 0.825 -0.975
-25.875 0.825 -0.375
-21.375 0.525 0.375
-18.375 -1.875 -1.875
-20.025 -0.225 1.725
-20.025 -0.225 -0.225
-20.025 -0.225 0.525
-20.025 -0.225 -3.375
-20.025 -0.225 0.225
-18.075 -2.325 1.275
-18.075 -2.325 5.325
-18.075 -2.325 1.125
-18.075 -2.325 1.425
-27.675 0.075 1.575
-29.025 -0.975 0.075
-19.125 -0.975 1.425
-22.875 0.975 -0.225
-19.275 -0.825 0.075
-19.425 -0.675 0.075
-19.425 -0.675 2.025
-21.675 0.675 0.825
-26.475 0.675 1.125
-26.475 0.675 0.525
-26.475 0.675 -0.975
-30.675 -3.525 0.525
-22.125 0.825 0.075
-30.825 -3.975 0.675
-18.675 -1.425 1.275
-19.575 -0.525 -0.225
-19.575 -0.525 1.275
-18.225 -2.025 1.725
-20.175 -0.075 -0.375
-20.175 -0.075 0.675
-25.425 0.975 0.825
-27.975 -0.075 0.525
-17.775 -2.775 1.575
-19.725 -0.375 -0.225
-19.725 -0.375 0.675
-19.725 -0.375 0.075
-17.925 -2.475 1.275
-21.225 0.525 0.225
-23.925 1.125 -0.225
-26.925 0.525 -0.225
-24.375 1.125 -0.825
-22.575 0.975 -0.375
-22.575 0.975 -0.225
-22.575 0.975 -0.825
-30.975 -4.425 0.225
-24.525 1.125 -0.225
-30.825 -3.825 -0.225
-26.175 0.825 0.975
-26.625 0.675 1.275
-26.625 0.675 0.675
-26.625 0.675 1.125
-20.325 0.075 0.675
-21.525 0.675 0.225
-23.475 1.125 -0.375
-19.875 -0.225 0.375
-23.325 1.125 2.025
-22.425 0.975 -0.825
-29.175 -0.975 0.075
-21.075 0.525 0.525
-21.075 0.525 0.075
-19.275 -0.675 0.675
-26.325 0.825 0.525
-20.025 -0.075 -0.075
-20.475 0.225 4.275
-17.925 -2.325 2.625
-19.425 -0.525 0.225
-19.425 -0.525 1.275
-19.425 -0.525 -2.025
-21.375 0.675 0.075
-22.275 0.975 0.525
-25.875 0.975 -0.075
-19.575 -0.375 0.675
-18.525 -1.425 -0.075
-22.875 1.125 -0.375
-17.025 -7.125 -0.525
-21.675 0.825 0.825
-26.475 0.825 0.525
-26.475 0.825 0.975
-26.475 0.825 0.675
-22.125 0.975 0.525
-22.125 0.975 -0.225
-26.025 0.975 -0.375
-25.425 1.125 -0.525
-17.775 -2.475 2.025
-30.375 -2.475 0.225
-21.225 0.675 -0.075
-21.225 0.675 -0.375
-19.875 -0.075 0.525
-19.875 -0.075 -3.375
-19.875 -0.075 0.375
-19.875 -0.075 -0.225
-17.925 -2.175 3.375
-20.325 0.225 0.675
-20.325 0.225 -1.125
-27.825 0.225 0.075
-23.775 1.275 -0.375
-23.775 1.275 -0.075
-24.375 1.275 -0.075
-18.975 -0.825 -0.375
-21.975 0.975 0.075
-29.175 -0.825 0.075
-19.125 -0.675 0.375
-19.125 -0.675 0.675
-19.125 -0.675 -0.225
-19.125 -0.675 -0.375
-18.825 -0.975 2.325
-29.325 -0.975 -0.075
-21.525 0.825 -0.075
-21.525 0.825 0.225
-21.525 0.825 -0.225
-26.625 0.825 0.675
-26.625 0.825 0.375
-18.675 -1.125 -0.525
-19.275 -0.525 0.825
-24.825 1.275 1.275
-24.825 1.275 -0.675
-20.025 0.075 0.675
-19.425 -0.375 1.575
-19.425 -0.375 -0.225
-31.125 -4.275 0.375
-25.725 1.125 -0.525
-20.775 0.525 -0.375
-24.975 1.275 -0.225
-17.775 -2.325 2.775
-17.775 -2.325 1.575
-17.775 -2.325 1.275
-26.325 0.975 0.525
-26.325 0.975 0.675
-21.825 0.975 -0.375
-19.575 -0.225 0.675
-26.775 0.825 -0.375
-23.025 1.275 -0.675
-25.875 1.125 -0.825
-25.875 1.125 -0.675
-25.875 1.125 -0.225
-22.275 1.125 -0.225
-22.275 1.125 -0.075
-20.175 0.225 -0.825
-19.725 -0.075 -0.075
-19.725 -0.075 0.225
-22.875 1.275 0.375
-21.675 0.975 -0.225
-26.475 0.975 1.125
-26.475 0.975 0.675
-20.925 0.675 0.075
-17.625 -2.475 2.325
-17.625 -2.475 0.975
-17.625 -2.475 2.625
-26.025 1.125 0.375
-26.025 1.125 2.175
-22.125 1.125 -0.225
-18.975 -0.675 1.125
-18.975 -0.675 1.275
-18.975 -0.675 -0.225
-19.875 0.075 -0.075
-19.875 0.075 0.675
-19.875 0.075 0.525
-18.075 -1.725 1.425
-16.875 -7.275 1.725
-18.675 -0.975 -3.075
-25.425 1.275 0.225
-21.225 0.825 -0.375
-21.225 0.825 -0.675
-21.225 0.825 -0.075
-20.325 0.375 0.225
-20.325 0.375 0.675
-20.325 0.375 0.825
-27.825 0.375 0.375
-17.775 -2.175 1.725
-17.775 -2.175 2.625
-17.775 -2.175 -1.125
-17.775 -2.175 2.325
-19.275 -0.375 0.525
-24.225 1.425 0.375
-16.875 -7.425 1.725
-25.575 1.275 -1.275
-22.575 1.275 -0.675
-19.425 -0.225 1.575
-19.425 -0.225 0.675
-19.425 -0.225 1.725
-21.975 1.125 -0.375
-21.975 1.125 -0.075
-24.375 1.425 -0.075
-21.525 0.975 -0.525
-26.625 0.975 -0.375
-18.375 -1.275 -0.225
-26.175 1.125 -0.675
-26.175 1.125 0.225
-23.625 1.425 -0.075
-23.625 1.425 -0.225
-20.025 0.225 -0.225
-20.025 0.225 -0.525
-30.225 -1.875 0.675
-23.475 1.425 -0.225
-18.225 -1.425 1.425
-18.225 -1.425 -0.225
-17.625 -2.325 1.725
-17.625 -2.325 1.275
-17.625 -2.325 2.175
-17.625 -2.325 1.425
-20.475 0.525 -0.225
-22.425 1.275 -0.675
-21.075 0.825 0.075
-25.725 1.275 -0.375
-27.075 0.825 2.175
-17.325 -2.925 0.225
-27.675 0.525 0.675
-23.325 1.425 -0.075
-26.325 1.125 0.525
-26.325 1.125 1.125
-26.325 1.125 0.975
-21.825 1.125 -0.075
-23.175 1.425 -0.375
-20.175 0.375 -0.075
-20.175 0.375 0.825
-21.375 0.975 -0.525
-17.775 -2.025 1.575
-19.725 0.075 -0.075
-19.725 0.075 -0.375
-25.875 1.275 0.375
-25.875 1.275 -0.525
-31.275 -4.125 0.525
-23.025 1.425 0.225
-18.825 -0.675 1.275
-18.975 -0.525 0.675
-19.125 -0.375 0.075
-18.525 -0.975 -0.675
-17.925 -1.725 1.575
-19.875 0.225 0.075
-19.875 0.225 0.675
-19.875 0.225 -0.075
-22.875 1.425 -0.675
-22.875 1.425 -0.225
-27.525 0.675 -0.225
-20.625 0.675 -0.075
-20.625 0.675 0.075
-21.675 1.125 -0.375
-26.475 1.125 0.225
-26.475 1.125 0.675
-20.925 0.825 -0.075
-27.225 0.825 -0.225
-18.375 -1.125 2.175
-26.025 1.275 0.525
-26.025 1.275 0.225
-17.625 -2.175 1.575
-17.625 -2.175 1.425
-17.625 -2.175 2.775
-17.625 -2.175 1.725
-27.825 0.525 0.075
-21.225 0.975 -0.375
-19.425 -0.075 -0.525
-22.725 1.425 0.375
-19.425 -0.075 0.675
-19.425 -0.075 0.225
-20.025 0.375 0.075
-20.025 0.375 -0.375
-20.025 0.375 -0.075
-20.025 0.375 -0.225
-20.025 0.375 0.375
-26.175 1.275 -0.225
-26.175 1.275 0.675
-18.075 -1.425 1.575
-18.075 -1.425 1.425
-24.075 1.575 -0.075
-28.575 0.075 0.375
-16.725 -7.425 0.675
-25.575 1.425 0.375
-24.225 1.575 -0.075
-17.325 -2.625 0.975
-20.775 0.825 -0.225
-20.775 0.825 -0.525
-17.475 -2.325 1.725
-17.475 -2.325 0.975
-17.475 -2.325 1.425
-17.475 -2.325 1.275
-17.475 -2.325 1.575
-27.675 0.675 1.275
-27.675 0.675 0.075
-23.475 1.575 1.125
-23.475 1.575 -0.225
-23.475 1.575 -0.075
-24.675 1.575 -0.525
-30.975 -2.925 0.225
-18.825 -0.525 1.725
-18.825 -0.525 -0.225
-22.425 1.425 -0.075
-22.425 1.425 -0.525
-22.425 1.425 0.225
-25.725 1.425 0.375
-20.175 0.525 1.575
-20.175 0.525 -0.075
-20.175 0.525 -0.225
-30.525 -2.025 0.525
-17.625 -2.025 1.575
-30.525 -2.025 0.375
-23.325 1.575 0.675
-18.525 -0.825 2.175
-27.975 0.525 0.975
-26.325 1.275 0.525
-26.325 1.275 -0.225
-29.025 -0.225 0.075
-21.375 1.125 -0.375
-24.975 1.575 -0.225
-22.275 1.425 -0.075
-25.875 1.425 0.375
-25.875 1.425 -0.225
-28.875 -0.075 -0.075
-19.275 -0.075 0.225
-19.275 -0.075 0.675
-29.925 -1.125 -0.975
-19.875 0.375 0.825
-23.025 1.575 -0.375
-25.125 1.575 0.225
-25.125 1.575 0.375
-17.325 -2.475 0.675
-17.325 -2.475 3.675
-17.325 -2.475 1.575
-17.325 -2.475 0.975
-27.525 0.825 0.075
-27.525 0.825 -0.375
-17.175 -2.775 1.125
-17.175 -2.775 0.675
-20.925 0.975 0.525
-20.925 0.975 -0.675
-20.925 0.975 -0.525
-21.675 1.275 -0.225
-17.475 -2.175 2.475
-17.475 -2.175 1.725
-19.425 0.075 0.225
-27.825 0.675 0.225
-30.075 -1.275 -0.375
-22.125 1.425 -0.225
-22.125 1.425 0.375
-26.025 1.425 1.125
-26.925 1.125 0.825
-26.925 1.125 -0.375
-30.525 -1.875 0.525
-20.025 0.525 -0.075
-20.025 0.525 0.525
-20.025 0.525 -0.375
-17.925 -1.425 1.425
-28.575 0.225 0.075
-30.225 -1.425 -0.075
-18.675 -0.525 0.075
-18.675 -0.525 1.425
-29.475 -0.525 -0.225
-26.625 1.275 -0.075
-18.825 -0.375 0.675
-29.325 -0.375 -0.225
-29.325 -0.375 -0.075
-29.625 -0.675 -0.225
-21.975 1.425 -0.375
-26.175 1.425 -0.225
-26.175 1.425 0.225
-26.175 1.425 0.975
-18.975 -0.225 -0.075
-18.975 -0.225 -0.375
-17.175 -2.625 0.975
-17.175 -2.625 0.675
-18.375 -0.825 -0.075
-20.775 0.975 1.875
-20.775 0.975 -0.225
-27.375 0.975 -0.225
-22.575 1.575 -0.075
-25.575 1.575 0.375
-25.575 1.575 0.675
-25.575 1.575 -0.825
-25.575 1.575 0.525
-29.175 -0.225 0.075
-29.175 -0.225 -0.075
-20.475 0.825 -0.375
-17.325 -2.325 1.425
-17.325 -2.325 1.125
-17.325 -2.325 1.575
-17.325 -2.325 1.275
-27.675 0.825 -0.075
-27.675 0.825 -0.375
-27.675 0.825 -0.825
-27.675 0.825 0.225
-24.225 1.725 -0.075
-16.425 -6.225 1.275
-19.725 0.375 -0.225
-19.725 0.375 -0.075
-21.075 1.125 -0.525
-21.075 1.125 0.075
-21.075 1.125 -0.075
-18.225 -0.975 0.375
-16.425 -6.375 0.225
-18.225 -0.975 0.225
-19.125 -0.075 -1.725
-19.125 -0.075 0.675
-29.025 -0.075 -0.075
-29.025 -0.075 0.075
-23.625 1.725 0.825
-23.625 1.725 0.525
-24.525 1.725 0.075
-17.475 -2.025 1.725
-20.175 0.675 -0.225
-20.175 0.675 -0.075
-27.975 0.675 -0.375
-27.975 0.675 0.375
-22.425 1.575 -0.225
-25.725 1.575 0.525
-25.725 1.575 0.975
-25.725 1.575 0.075
-28.875 0.075 0.075
-26.325 1.425 0.675
-26.325 1.425 -0.075
-23.325 1.725 0.375
-23.325 1.725 -0.375
-21.375 1.275 -0.375
-19.875 0.525 -0.225
-19.875 0.525 0.075
-23.175 1.725 -0.375
-23.175 1.725 0.375
-28.725 0.225 0.075
-22.275 1.575 -0.075
-25.875 1.575 0.225
-25.875 1.575 0.975
-25.875 1.575 -2.625
-25.875 1.575 -0.675
-17.175 -2.475 1.125
-27.525 0.975 -0.375
-20.625 0.975 -0.225
-20.925 1.125 -0.525
-20.325 0.825 -0.375
-20.325 0.825 0.225
-20.325 0.825 -0.075
-17.325 -2.175 1.725
-17.325 -2.175 2.025
-17.325 -2.175 1.875
-27.825 0.825 -0.075
-27.825 0.825 -0.375
-17.025 -2.775 0.975
-23.025 1.725 -0.375
-25.125 1.725 1.425
-21.675 1.425 0.375
-26.475 1.425 -0.075
-19.575 0.375 0.525
-28.575 0.375 0.375
-17.775 -1.425 1.425
-21.225 1.275 -0.075
-21.225 1.275 0.825
-18.675 -0.375 1.725
-18.675 -0.375 0.675
-18.675 -0.375 -0.225
-20.025 0.675 0.225
-20.025 0.675 -0.225
-20.025 0.675 0.675
-25.275 1.725 -0.225
-25.275 1.725 0.375
-22.125 1.575 -0.075
-22.125 1.575 -0.225
-26.025 1.575 -0.075
-29.775 -0.675 -0.225
-18.375 -0.675 0.825
-29.775 -0.675 -0.375
-18.225 -0.825 0.975
-18.225 -0.825 0.675
-18.225 -0.825 -0.225
-29.175 -0.075 0.075
-25.425 1.725 1.425
-25.425 1.725 0.525
-25.425 1.725 0.375
-19.125 0.075 0.675
-21.525 1.425 -0.075
-21.525 1.425 -0.525
-26.625 1.425 0.225
-26.625 1.425 2.025
-20.475 0.975 0.075
-20.475 0.975 -0.375
-17.175 -2.325 0.825
-17.175 -2.325 1.125
-17.175 -2.325 1.575
-17.175 -2.325 0.675
-27.675 0.975 0.075
-27.675 0.975 -0.375
-20.775 1.125 -0.225
-20.775 1.125 0.675
-20.775 1.125 0.525
-20.775 1.125 -0.375
-20.775 1.125 -0.675
-20.775 1.125 -0.525
-21.975 1.575 -0.075
-26.175 1.575 0.225
-17.325 -2.025 1.875
-17.325 -2.025 1.725
-25.575 1.725 0.525
-25.575 1.725 0.975
-25.575 1.725 -0.375
-25.575 1.725 -0.075
-27.975 0.825 -0.525
-27.975 0.825 -0.225
-21.075 1.275 0.225
-21.075 1.275 -0.075
-21.075 1.275 0.375
-23.925 1.875 -0.525
-23.925 1.875 1.125
-24.375 1.875 -0.075
-28.275 0.675 0.225
-23.475 1.875 0.075
-23.475 1.875 0.225
-23.475 1.875 -0.825
-24.675 1.875 0.375
-25.725 1.725 0.225
-25.725 1.725 0.525
-19.425 0.375 1.125
-21.375 1.425 0.675
-21.375 1.425 -0.375
-21.825 1.575 0.225
-17.775 -1.275 -2.625
-28.725 0.375 0.075
-24.825 1.875 0.375
-23.325 1.875 0.075
-23.325 1.875 -0.225
-27.525 1.125 -0.075
-27.525 1.125 -0.675
-20.625 1.125 -0.675
-20.625 1.125 0.225
-17.025 -2.475 -0.075
-17.025 -2.475 2.775
-17.025 -2.475 1.275
-17.025 -2.475 2.175
-17.025 -2.475 2.325
-29.625 -0.375 -0.225
-18.675 -0.225 0.525
-24.975 1.875 0.525
-24.975 1.875 -0.225
-16.275 -6.825 2.325
-29.475 -0.225 0.075
-29.475 -0.225 -0.375
-29.475 -0.225 -0.075
-17.175 -2.175 1.875
-17.175 -2.175 1.725
-20.325 0.975 0.225
-20.325 0.975 -0.525
-27.825 0.975 -0.375
-20.925 1.275 0.375
-20.925 1.275 -0.225
-16.875 -2.775 0.675
-22.275 1.725 -0.075
-29.925 -0.675 0.075
-30.525 -1.425 0.525
-19.575 0.525 -0.075
-28.575 0.525 0.225
-25.125 1.875 0.525
-25.125 1.875 0.075
-25.125 1.875 -0.525
-28.125 0.825 -0.375
-20.025 0.825 0.075
-18.975 0.075 -0.375
-18.975 0.075 0.675
-21.675 1.575 0.375
-21.675 1.575 -0.375
-18.075 -0.825 1.125
-18.075 -0.825 1.275
-26.475 1.575 -0.225
-26.475 1.575 -0.525
-26.475 1.575 0.075
-29.175 0.075 -0.225
-22.875 1.875 -0.225
-25.275 1.875 0.375
-25.275 1.875 0.975
-16.425 -3.975 1.125
-29.025 0.225 -0.075
-22.125 1.725 0.975
-26.025 1.725 0.075
-28.425 0.675 -0.375
-30.675 -1.575 0.525
-20.475 1.125 -0.225
-20.475 1.125 0.225
-20.475 1.125 -0.075
-20.475 1.125 -0.525
-25.425 1.875 0.525
-25.425 1.875 0.225
-25.425 1.875 0.975
-25.425 1.875 1.125
-17.025 -2.325 1.425
-17.025 -2.325 1.575
-17.025 -2.325 1.725
-27.675 1.125 -0.675
-27.675 1.125 1.575
-20.775 1.275 -0.375
-16.875 -2.625 1.875
-16.875 -2.625 2.325
-28.875 0.375 -0.225
-21.525 1.575 0.375
-21.525 1.575 -0.075
-21.525 1.575 -0.375
-26.625 1.575 -0.225
-20.175 0.975 -0.375
-20.175 0.975 0.075
-27.975 0.975 -0.675
-27.975 0.975 -0.375
-21.975 1.725 0.375
-21.975 1.725 -0.075
-26.175 1.725 -0.375
-22.575 1.875 0.225
-22.575 1.875 -0.075
-25.575 1.875 -0.375
-30.525 -1.275 0.675
-28.725 0.525 -0.225
-23.775 2.025 -0.375
-24.375 2.025 0.525
-23.775 2.025 0.225
-24.375 2.025 0.375
-18.375 -0.375 0.075
-18.525 -0.225 0.225
-18.525 -0.225 0.525
-24.525 2.025 0.375
-23.625 2.025 -0.225
-21.375 1.575 -0.375
-21.375 1.575 -0.075
-21.375 1.575 0.525
-24.675 2.025 0.375
-24.675 2.025 0.825
-22.425 1.875 0.075
-25.725 1.875 -0.225
-18.075 -0.675 0.675
-26.325 1.725 1.425
-26.325 1.725 -0.375
-20.625 1.275 0.975
-16.875 -2.475 1.275
-16.875 -2.475 1.575
-20.625 1.275 -0.525
-24.825 2.025 -0.225
-24.825 2.025 0.975
-23.325 2.025 -0.375
-20.325 1.125 0.825
-27.825 1.125 -0.525
-20.325 1.125 -0.225
-17.025 -2.175 1.875
-28.575 0.675 0.225
-28.575 0.675 -0.375
-19.575 0.675 0.225
-29.175 0.225 0.375
-16.725 -2.775 -2.325
-16.725 -2.775 -3.075
-16.725 -2.775 0.375
-16.725 -2.775 0.825
-16.725 -2.775 0.975
-20.925 1.425 0.375
-20.925 1.425 -0.825
-24.975 2.025 0.525
-24.975 2.025 0.225
-28.125 0.975 0.675
-20.025 0.975 -0.675
-20.025 0.975 -0.075
-25.875 1.875 -0.675
-25.875 1.875 -0.375
-16.275 -4.125 1.125
-29.025 0.375 0.075
-17.775 -0.975 0.375
-17.775 -0.975 0.675
-21.675 1.725 -0.075
-23.025 2.025 0.075
-25.125 2.025 0.975
-25.125 2.025 0.075
-21.225 1.575 0.075
-21.225 1.575 -0.225
-22.875 2.025 0.225
-22.875 2.025 0.075
-26.025 1.875 -0.075
-26.025 1.875 -0.675
-22.125 1.875 -0.075
-22.125 1.875 -0.525
-20.475 1.275 0.225
-20.475 1.275 -0.225
-16.875 -2.325 1.425
-16.875 -2.325 1.575
-16.875 -2.325 1.875
-16.725 -2.625 1.875
-16.725 -2.625 -1.575
-16.725 -2.625 1.725
-16.725 -2.625 0.825
-16.725 -2.625 0.975
-20.175 1.125 0.525
-20.175 1.125 -0.225
-20.775 1.425 -0.225
-27.375 1.425 -0.525
-20.775 1.425 2.025
-20.775 1.425 0.975
-20.775 1.425 0.225
-17.025 -2.025 1.725
-22.725 2.025 0.075
-18.225 -0.375 1.575
-25.425 2.025 -0.375
-25.425 2.025 -0.225
-16.125 -4.575 1.275
-29.625 -0.075 0.525
-21.525 1.725 -0.225
-18.525 -0.075 0.525
-21.525 1.725 -0.525
-26.625 1.725 -0.375
-29.925 -0.375 0.225
-17.475 -1.275 -3.525
-17.475 -1.275 -1.875
-21.975 1.875 -0.075
-21.975 1.875 -0.375
-21.975 1.875 0.825
-21.075 1.575 -0.075
-17.925 -0.675 1.275
-29.325 0.225 -0.375
-22.575 2.025 0.075
-24.075 2.175 0.525
-24.075 2.175 0.375
-23.925 2.175 -0.075
-24.225 2.175 -0.825
-23.925 2.175 0.525
-24.225 2.175 0.225
-24.225 2.175 0.825
-24.225 2.175 0.975
-24.225 2.175 0.375
-24.375 2.175 0.975
-24.375 2.175 0.525
