# .PCD v0.7 - Point Cloud Data file format
VERSION 0.7
FIELDS x y z
SIZE 4 4 4
TYPE F F F
COUNT 1 1 1
WIDTH 2048
HEIGHT 1
VIEWPOINT 0 0 0 1 0 0 0
POINTS 2048
DATA ascii
0.075 -27.075 1.725
0.075 -27.075 1.425
0.225 -26.925 1.725
0.225 -26.925 0.975
-0.075 -27.075 1.125
0.225 -26.775 1.275
0.225 -26.775 2.325
0.375 -26.925 2.175
0.075 -26.625 1.575
0.075 -27.225 2.325
0.375 -27.075 2.175
-0.225 -27.075 0.825
0.225 -27.225 1.875
0.225 -27.225 1.425
0.225 -26.625 2.025
-0.225 -26.775 0.675
-0.225 -27.225 0.675
0.075 -26.475 2.175
0.525 -26.925 2.625
0.525 -26.925 1.575
-0.075 -26.475 0.375
0.525 -27.075 1.875
0.375 -27.375 2.025
-0.225 -26.475 0.375
0.525 -26.625 2.025
0.525 -26.625 2.175
0.225 -27.525 1.575
0.375 -26.325 1.875
-0.375 -27.525 0.975
0.075 -26.175 0.675
0.225 -26.175 1.875
0.225 -27.675 1.875
0.225 -27.675 1.275
0.375 -27.675 2.775
0.375 -26.175 1.575
0.375 -26.175 2.325
0.075 -27.825 2.625
0.225 -27.825 0.675
0.975 -26.775 0.525
0.225 -26.025 1.575
0.675 -27.675 3.525
-0.375 -27.825 0.225
0.525 -26.025 1.425
0.075 -27.975 2.625
0.075 -27.975 0.675
0.225 -27.975 1.125
0.225 -27.975 3.075
-0.075 -27.975 1.125
0.225 -27.975 2.775
-0.225 -27.975 -0.075
0.975 -27.675 0.675
0.825 -26.025 3.075
-0.075 -28.125 -1.875
-0.075 -28.125 0.975
-0.075 -28.125 1.875
-0.075 -28.125 1.575
0.225 -28.125 0.525
1.275 -27.075 0.675
0.375 -28.125 2.025
-0.225 -28.125 1.425
0.075 -28.275 0.075
0.075 -25.575 1.875
0.225 -28.275 0.075
-0.075 -28.275 0.675
0.225 -25.575 1.875
-0.225 -28.275 0.675
0.375 -28.275 0.675
-0.225 -28.275 1.575
0.975 -25.875 0.675
-0.375 -28.275 0.225
0.525 -25.575 0.525
1.125 -25.875 0.375
1.125 -27.975 0.975
1.575 -27.075 -0.375
-0.075 -28.425 0.225
0.225 -28.425 2.775
0.225 -28.425 -0.075
-0.075 -28.425 0.375
0.375 -28.425 0.075
0.375 -25.425 1.875
-0.225 -28.425 0.675
-0.525 -28.425 -0.525
0.675 -25.425 2.925
0.075 -28.575 -0.075
0.075 -28.575 0.825
0.075 -28.575 1.425
1.725 -26.925 0.075
-0.075 -28.575 0.825
0.225 -28.575 0.075
1.725 -27.075 0.525
-0.375 -28.575 -0.675
-0.375 -28.575 0.375
1.725 -26.475 -0.075
0.525 -25.275 1.125
0.525 -25.275 1.875
1.725 -27.525 0.075
0.675 -25.275 1.725
0.075 -28.725 -0.075
1.875 -27.075 0.375
1.875 -27.075 0.825
1.875 -26.775 0.375
1.875 -26.775 0.975
0.225 -28.725 -0.075
0.225 -25.125 1.575
-0.675 -28.575 1.725
-0.225 -28.725 -0.225
-0.225 -28.725 0.525
0.375 -28.725 -0.375
0.375 -25.125 2.025
1.575 -25.875 3.075
1.875 -26.475 -0.225
-0.375 -28.725 0.525
-0.375 -28.725 0.075
0.525 -28.725 -0.675
-0.375 -28.725 0.975
0.525 -25.125 1.575
0.975 -25.275 0.225
1.875 -26.325 -0.375
1.875 -26.325 0.225
-0.525 -28.725 1.125
1.575 -25.725 0.225
0.825 -25.125 -0.075
0.825 -28.725 -0.225
-0.075 -28.875 0.525
-0.225 -28.875 1.125
0.525 -28.875 -0.525
2.025 -26.475 0.375
2.025 -26.475 -0.375
1.875 -27.825 0.075
0.975 -25.125 1.425
0.975 -25.125 -0.075
1.425 -25.425 -0.225
1.575 -25.575 0.375
1.575 -25.575 -0.225
-0.525 -28.875 0.525
-0.525 -28.875 0.975
1.725 -28.125 0.375
1.875 -27.975 0.525
-0.675 -28.875 0.225
-0.675 -28.875 -0.225
-0.675 -28.875 0.825
-0.075 -29.025 -0.075
-0.075 -29.025 -0.375
2.175 -27.075 0.075
-0.225 -29.025 0.975
-0.225 -29.025 0.525
-0.225 -29.025 -0.075
-0.225 -29.025 0.375
0.375 -29.025 -0.225
2.175 -26.625 0.075
0.375 -24.825 1.125
-0.375 -29.025 0.975
-0.375 -29.025 0.525
0.525 -29.025 -0.225
0.975 -24.975 3.525
2.175 -26.475 -0.225
1.275 -28.725 0.375
-0.525 -29.025 0.525
-0.975 -28.875 -0.225
2.025 -27.975 -0.075
1.725 -25.425 -0.375
0.075 -29.175 0.075
0.075 -29.175 1.275
0.225 -29.175 1.425
-0.075 -29.175 0.225
0.225 -24.675 1.275
-0.075 -29.175 0.675
-0.075 -29.175 1.125
-0.075 -29.175 0.975
2.325 -26.775 0.075
-0.225 -29.175 1.425
-0.225 -29.175 -0.225
-0.225 -29.175 0.975
2.325 -26.625 0.225
2.175 -27.825 0.675
1.275 -24.975 0.225
2.025 -28.125 -0.375
2.325 -26.475 -0.375
-0.375 -29.175 1.875
-0.525 -29.175 0.975
1.725 -25.275 -0.225
1.875 -25.425 -0.375
1.575 -25.125 1.125
-0.675 -29.175 0.975
2.025 -25.575 -0.375
-0.225 -29.325 -0.075
2.175 -28.125 0.375
2.475 -27.225 0.975
2.475 -26.625 -0.525
0.375 -24.525 1.425
-0.375 -29.325 0.675
1.875 -25.275 -0.225
0.525 -24.525 1.125
1.575 -28.875 0.075
1.575 -24.975 0.225
-0.525 -29.325 0.675
2.175 -28.275 0.675
2.175 -28.275 -0.225
2.475 -27.675 0.975
2.475 -27.675 1.425
1.875 -28.725 -5.175
2.325 -28.125 -0.075
2.025 -25.275 -0.075
2.475 -27.825 -0.075
2.475 -27.825 0.225
0.375 -29.475 -0.375
1.575 -29.025 -0.075
2.175 -25.425 -0.225
0.525 -29.475 -0.525
0.525 -29.475 -0.825
2.475 -27.975 -0.375
2.475 -27.975 0.375
1.875 -28.875 0.225
1.875 -28.875 -0.075
1.875 -28.875 -0.375
1.875 -28.875 -0.525
2.025 -25.125 -0.075
2.625 -27.675 0.225
2.625 -27.675 -0.525
1.725 -29.025 -0.075
1.725 -29.025 -0.675
2.175 -25.275 -0.225
1.725 -24.825 0.075
2.475 -28.125 0.375
1.275 -24.525 0.075
2.775 -26.925 0.375
1.575 -29.175 0.375
-0.225 -29.625 0.675
2.475 -28.275 0.675
2.475 -28.275 0.225
2.025 -28.875 0.075
2.025 -28.875 -0.225
2.025 -24.975 -0.075
2.625 -27.975 0.225
2.625 -27.975 -5.775
2.625 -27.975 0.075
1.875 -29.025 0.075
2.775 -26.325 -0.225
2.775 -26.325 -0.075
1.875 -24.825 -0.075
2.325 -28.575 -0.075
1.725 -29.175 -0.525
2.325 -25.275 -0.225
2.775 -27.675 0.375
2.775 -27.675 0.525
2.625 -28.125 0.075
1.275 -29.475 -0.225
1.575 -29.325 0.225
2.475 -28.425 0.375
2.475 -28.425 0.525
1.575 -24.525 0.075
2.775 -27.825 0.375
2.925 -26.925 0.825
2.925 -26.925 0.225
2.925 -27.075 -0.075
2.925 -26.775 0.675
2.025 -29.025 0.675
2.175 -28.875 -0.675
2.925 -26.625 0.525
1.875 -24.675 -0.525
1.875 -29.175 0.075
1.875 -29.175 0.375
2.325 -28.725 0.375
2.325 -25.125 -0.075
2.625 -28.275 0.525
2.775 -27.975 0.975
2.775 -25.875 -0.375
2.775 -27.975 0.375
2.775 -27.975 -0.075
2.475 -28.575 0.675
2.475 -28.575 -0.225
2.475 -28.575 0.375
2.475 -28.575 0.525
2.925 -27.525 0.525
2.925 -26.325 -0.375
2.925 -26.325 0.075
2.475 -25.275 -0.675
2.925 -27.675 0.375
2.925 -27.675 0.675
2.775 -28.125 -0.075
-1.125 -29.625 -0.675
2.625 -28.425 0.375
2.625 -28.425 0.225
1.575 -24.375 0.075
2.175 -29.025 0.825
2.325 -28.875 0.525
2.325 -28.875 -0.225
2.325 -28.875 -1.275
2.025 -29.175 -0.075
2.025 -29.175 0.375
2.925 -27.825 -0.075
2.925 -26.025 -0.525
3.075 -26.925 0.075
2.475 -28.725 0.525
2.475 -25.125 -0.375
2.475 -28.725 0.825
2.475 -25.125 -0.225
1.875 -24.525 0.075
3.075 -26.625 0.525
2.775 -28.275 -0.525
2.775 -28.275 -0.375
2.775 -28.275 0.225
1.425 -29.625 0.975
3.075 -27.375 0.675
0.525 -23.925 0.975
2.625 -28.575 1.125
2.925 -27.975 0.675
2.925 -27.975 0.825
2.925 -27.975 -0.225
1.725 -29.475 0.375
3.075 -27.525 0.675
3.075 -27.525 0.375
0.675 -23.925 1.125
-0.525 -29.925 0.225
3.075 -26.325 -0.525
2.325 -29.025 0.675
2.325 -29.025 0.075
2.175 -29.175 0.225
2.175 -29.175 -0.375
2.175 -24.675 -0.525
2.175 -29.175 0.375
1.575 -24.225 -0.225
1.575 -24.225 0.075
2.775 -28.425 -0.075
2.775 -28.425 0.075
2.025 -29.325 0.375
2.025 -29.325 0.825
2.025 -29.325 0.525
2.925 -25.725 -0.375
2.925 -25.725 -0.525
2.475 -28.875 0.825
2.925 -25.725 -0.225
3.075 -27.675 -0.525
3.075 -26.175 -0.525
3.075 -26.175 0.075
2.025 -24.525 -0.375
2.625 -25.125 -0.375
2.625 -28.725 0.525
3.075 -27.825 0.975
3.075 -27.825 0.225
0.975 -23.925 2.625
3.225 -26.925 0.675
3.225 -26.925 0.375
1.425 -29.775 0.075
2.775 -28.575 0.225
2.775 -28.575 -0.225
2.775 -28.575 0.675
1.725 -29.625 -0.525
1.725 -29.625 -4.875
3.225 -27.225 -0.075
-0.975 -29.925 0.525
3.075 -27.975 -0.225
3.225 -26.475 0.075
3.225 -27.375 0.525
3.225 -27.375 -0.075
2.175 -29.325 0.075
2.475 -29.025 -0.075
0.675 -23.775 0.975
2.625 -28.875 0.375
2.025 -29.475 -0.225
2.025 -29.475 -0.075
1.575 -29.775 0.225
3.225 -27.675 0.525
3.225 -27.675 0.975
0.825 -23.775 0.975
2.775 -28.725 0.225
2.775 -28.725 0.375
3.075 -28.275 0.975
2.325 -29.325 -0.525
2.325 -29.325 -0.075
3.075 -28.275 0.525
2.475 -29.175 -0.225
2.475 -29.175 0.375
3.075 -25.575 -0.525
2.925 -28.575 0.525
2.925 -28.575 0.675
2.925 -25.275 -0.075
3.375 -27.075 0.225
3.375 -27.075 -0.075
3.375 -26.775 0.075
2.175 -29.475 0.525
2.175 -29.475 -0.075
2.175 -29.475 0.225
2.175 -29.475 -0.975
3.375 -27.225 0.225
3.225 -27.975 -0.075
3.225 -25.875 -0.675
2.025 -29.625 0.375
3.375 -27.375 0.375
0.525 -23.625 0.975
-0.375 -30.225 0.525
3.375 -27.525 0.825
3.375 -27.525 0.375
1.575 -29.925 0.075
1.575 -29.925 -0.675
3.075 -28.425 0.375
2.925 -28.725 0.525
2.925 -28.725 0.225
3.375 -26.175 0.075
2.475 -29.325 0.825
2.475 -29.325 0.525
2.625 -29.175 0.675
2.625 -29.175 0.225
2.325 -29.475 0.825
2.325 -29.475 0.675
2.325 -29.475 0.225
2.775 -29.025 0.075
2.175 -29.625 -0.075
3.375 -27.825 0.825
1.725 -29.925 -0.075
1.425 -30.075 -0.375
3.525 -26.925 0.075
2.025 -29.775 0.525
2.025 -29.775 -0.225
2.025 -29.775 -0.075
2.025 -29.775 0.225
2.925 -24.975 -0.075
2.925 -28.875 0.525
3.525 -26.775 -0.075
3.525 -26.625 0.225
3.375 -27.975 0.075
3.375 -27.975 -0.525
3.375 -27.975 0.975
3.375 -25.875 -0.675
-0.375 -30.375 0.825
3.525 -27.375 0.075
1.575 -30.075 0.375
3.225 -28.425 0.375
3.225 -28.425 0.675
3.225 -28.425 0.525
3.075 -28.725 0.825
3.075 -28.725 0.375
2.625 -29.325 0.075
2.625 -29.325 1.575
0.675 -23.475 1.425
3.525 -26.325 -0.375
2.475 -24.375 -0.675
2.475 -29.475 1.425
2.625 -24.525 -0.075
3.375 -28.125 0.675
3.375 -28.125 0.375
1.275 -23.625 -0.375
2.325 -29.625 -0.075
2.325 -29.625 0.675
2.325 -24.225 -1.125
2.775 -29.175 0.375
3.525 -26.175 0.525
2.175 -29.775 -0.375
2.175 -29.775 -0.075
2.925 -29.025 -0.075
2.925 -29.025 0.375
3.225 -28.575 1.275
3.225 -28.575 0.375
3.225 -25.275 -0.075
3.525 -27.825 0.975
3.525 -27.825 -0.375
3.075 -28.875 0.375
3.075 -24.975 -0.225
2.025 -29.925 -0.075
3.675 -26.925 -0.075
3.675 -26.925 0.975
1.125 -23.475 0.375
3.525 -27.975 -0.375
2.625 -24.375 -0.375
2.625 -29.475 -0.075
2.625 -29.475 0.675
2.475 -29.625 0.675
2.475 -29.625 0.075
3.675 -27.225 0.075
1.575 -30.225 -0.375
-1.725 -30.075 1.125
3.225 -25.125 -0.225
2.925 -29.175 0.375
-0.525 -30.525 -0.075
3.675 -27.525 0.525
3.675 -26.325 -0.075
3.075 -29.025 0.525
2.175 -29.925 -0.675
2.175 -29.925 -0.525
2.175 -29.925 0.825
3.675 -27.675 0.825
3.375 -28.575 0.375
3.375 -28.575 0.525
1.725 -30.225 -0.375
1.725 -23.625 0.675
2.025 -30.075 -0.225
3.225 -28.875 0.375
3.225 -28.875 0.525
3.525 -25.575 0.225
3.675 -27.825 0.825
2.625 -29.625 0.375
2.625 -29.625 0.675
2.625 -24.225 0.225
2.775 -29.475 0.375
2.925 -29.325 0.675
2.925 -29.325 0.375
0.075 -30.675 0.525
2.325 -29.925 -0.225
2.325 -29.925 0.975
3.075 -29.175 0.525
2.325 -29.925 0.675
3.825 -26.775 0.675
3.825 -26.775 0.825
1.875 -30.225 -0.975
3.525 -28.425 0.525
3.825 -26.475 0.225
-0.375 -30.675 0.825
2.175 -30.075 -0.075
3.225 -29.025 0.375
3.225 -29.025 0.075
3.825 -26.325 0.975
2.775 -29.625 0.675
2.775 -29.625 0.075
3.525 -28.575 0.525
-1.575 -30.375 1.275
3.825 -27.675 -0.525
3.825 -26.175 0.075
2.925 -29.475 0.975
2.925 -29.475 0.525
3.375 -28.875 0.225
3.375 -28.875 1.125
3.375 -28.875 0.075
3.375 -28.875 0.675
2.025 -30.225 -0.225
-1.875 -30.225 1.575
2.025 -23.625 0.675
3.075 -29.325 -0.225
3.075 -29.325 0.675
3.075 -29.325 0.525
3.075 -29.325 0.075
2.475 -23.925 -0.075
2.475 -23.925 0.225
2.475 -29.925 -0.375
2.475 -29.925 0.075
0.975 -23.175 0.525
2.325 -30.075 -1.125
2.325 -30.075 -0.225
2.325 -30.075 0.525
3.225 -29.175 0.075
3.225 -29.175 -0.075
1.875 -30.375 0.075
1.875 -23.475 0.225
3.525 -28.725 0.525
3.525 -28.725 0.225
-0.075 -30.825 0.675
3.375 -29.025 0.675
3.375 -29.025 0.375
2.175 -30.225 -0.825
2.175 -30.225 -0.975
2.775 -29.775 -0.675
2.775 -29.775 -0.375
2.775 -29.775 0.225
2.775 -29.775 0.825
2.925 -29.625 0.675
2.925 -29.625 0.975
2.925 -29.625 0.375
3.975 -26.475 -0.525
3.075 -29.475 0.525
2.475 -30.075 -0.525
3.675 -28.575 0.525
3.225 -29.325 0.075
3.225 -29.325 0.225
2.475 -23.775 0.075
3.525 -28.875 0.675
2.025 -30.375 0.075
3.525 -28.875 0.225
-0.675 -30.825 0.525
3.975 -27.675 -0.375
3.975 -27.675 0.075
3.375 -29.175 0.525
-2.175 -30.225 1.425
2.325 -30.225 0.075
3.975 -27.825 0.525
2.925 -29.775 -0.375
2.925 -29.775 -0.075
3.075 -29.625 0.825
3.075 -29.625 0.225
3.075 -29.625 0.675
3.075 -29.625 -0.075
3.075 -29.625 0.075
2.775 -29.925 -0.225
2.775 -29.925 0.075
3.525 -29.025 0.825
2.175 -30.375 -0.075
2.175 -30.375 -0.525
2.175 -30.375 0.075
2.175 -30.375 0.225
3.975 -25.875 0.675
3.825 -28.425 -0.075
2.625 -30.075 -0.525
4.125 -26.775 -0.375
3.225 -29.475 0.225
-0.075 -30.975 0.675
4.125 -26.625 -0.075
4.125 -26.475 -0.375
4.125 -26.475 0.075
3.375 -29.325 -0.075
3.375 -29.325 -5.325
3.375 -29.325 0.375
3.375 -29.325 -0.975
2.475 -30.225 -0.525
-1.875 -30.525 1.275
2.025 -30.525 -0.825
3.675 -28.875 0.075
4.125 -26.325 -0.225
-0.525 -30.975 0.525
3.825 -28.575 0.375
2.325 -30.375 -0.675
4.125 -26.175 0.675
3.975 -28.275 -0.225
3.075 -29.775 0.525
3.075 -29.775 -0.075
3.075 -29.775 0.375
2.925 -29.925 -0.375
2.775 -30.075 -0.075
3.225 -29.625 0.525
3.225 -29.625 0.825
3.225 -29.625 0.375
3.225 -29.625 0.675
3.225 -24.225 -0.225
1.875 -30.675 -0.225
3.825 -25.125 -0.375
-1.725 -30.675 0.525
2.175 -30.525 -0.675
2.175 -30.525 -0.375
2.175 -30.525 -0.825
-2.025 -30.525 1.275
2.175 -23.325 0.525
3.375 -29.475 0.675
3.375 -29.475 -0.075
3.375 -29.475 0.375
2.625 -30.225 -0.675
3.975 -28.425 -0.225
3.525 -29.325 -0.225
2.475 -30.375 -0.675
0.225 -31.125 1.875
4.275 -26.775 -0.825
4.275 -26.775 -0.525
3.525 -24.525 -0.075
-0.225 -31.125 0.525
-0.375 -31.125 0.525
4.125 -28.125 0.975
4.275 -26.475 -0.525
4.275 -26.475 -0.225
4.275 -26.475 0.825
3.825 -24.975 0.075
2.025 -30.675 -0.375
2.025 -30.675 -0.825
3.975 -28.575 -0.375
3.975 -25.275 -0.375
-0.525 -31.125 0.375
3.075 -29.925 0.075
3.075 -29.925 -0.075
3.075 -29.925 -0.375
3.075 -29.925 0.375
2.325 -30.525 -0.675
2.325 -23.325 0.525
3.225 -29.775 -0.225
3.375 -29.625 -0.525
3.375 -29.625 0.225
3.375 -29.625 0.375
-0.675 -31.125 0.675
4.275 -26.175 -0.075
4.125 -28.275 -0.375
4.125 -28.275 -0.225
2.625 -30.375 -0.525
3.525 -29.475 -0.075
3.525 -29.475 0.525
4.275 -26.025 -0.075
3.975 -28.725 0.075
2.175 -30.675 -0.825
2.175 -30.675 -0.975
-2.025 -30.675 0.825
-2.025 -30.675 0.675
3.825 -24.825 -0.525
2.475 -30.525 -0.975
2.475 -30.525 -0.525
2.475 -30.525 0.975
3.675 -29.325 0.225
3.075 -30.075 -1.275
3.075 -30.075 -0.075
4.425 -26.925 -0.225
4.425 -26.925 0.525
4.425 -26.925 -1.125
3.225 -29.925 0.075
3.225 -29.925 0.525
3.075 -23.775 0.075
-0.075 -31.275 0.825
-0.075 -31.275 0.375
-0.075 -31.275 1.125
-0.075 -31.275 0.675
4.425 -26.775 -0.225
4.425 -27.075 -0.375
4.425 -27.075 0.525
4.425 -27.075 0.375
-0.225 -31.275 0.975
3.375 -29.775 0.375
3.375 -29.775 1.575
-1.875 -30.825 0.825
-1.875 -30.825 0.675
3.975 -24.975 0.375
4.425 -26.625 -0.225
4.425 -26.625 -0.525
4.425 -26.625 -0.375
3.975 -28.875 0.075
2.925 -30.225 -1.275
2.925 -30.225 -0.975
2.925 -30.225 0.075
2.925 -30.225 -0.075
4.275 -28.125 -0.375
-0.375 -31.275 0.675
0.525 -31.275 2.025
4.425 -26.475 0.825
4.125 -28.575 -0.075
4.425 -27.375 0.675
3.825 -24.675 0.075
2.325 -30.675 -0.375
2.325 -30.675 -0.525
3.825 -29.175 -0.075
2.775 -30.375 -0.075
3.525 -29.625 -0.075
3.525 -29.625 0.675
-0.525 -31.275 0.525
-0.525 -31.275 0.675
2.625 -30.525 -0.675
3.675 -24.375 -0.075
-2.025 -30.825 0.825
-2.025 -30.825 0.675
3.975 -29.025 -0.225
4.125 -28.725 -0.075
4.125 -28.725 0.375
4.125 -28.725 -0.225
4.425 -27.825 -0.375
4.425 -27.825 -0.525
3.825 -29.325 0.225
3.825 -24.525 -0.375
3.225 -30.075 -0.075
3.225 -23.775 -0.525
3.375 -29.925 0.825
3.375 -29.925 0.225
4.275 -28.425 -0.525
4.275 -28.425 -0.375
3.375 -29.925 0.675
4.275 -28.425 0.825
4.275 -25.425 -0.075
3.075 -30.225 -0.375
3.075 -30.225 0.075
3.525 -29.775 0.825
3.525 -29.775 0.225
3.525 -29.775 0.075
3.525 -29.775 0.675
3.525 -29.775 0.525
2.925 -30.375 -0.225
4.125 -24.975 -0.525
4.125 -24.975 -0.075
4.125 -28.875 0.075
3.675 -29.625 0.075
3.675 -24.225 -0.075
0.075 -31.425 0.675
4.575 -26.925 0.375
3.975 -24.675 -0.675
3.975 -24.675 -0.075
4.575 -27.075 0.375
4.575 -26.775 0.225
4.575 -27.075 -0.375
4.575 -26.625 -0.375
-0.225 -31.425 0.525
-0.225 -31.425 0.675
4.425 -28.125 -0.375
4.275 -28.575 -0.075
3.825 -24.375 -0.225
3.825 -29.475 0.525
3.825 -29.475 0.675
3.825 -29.475 -0.375
3.825 -24.375 -0.075
3.375 -30.075 0.075
3.375 -30.075 0.225
4.125 -29.025 0.225
4.575 -27.675 -0.675
3.225 -30.225 -0.075
3.225 -30.225 0.225
3.225 -30.225 -0.675
3.225 -30.225 -0.375
4.125 -24.825 -0.975
-1.725 -31.125 0.525
4.275 -28.725 0.225
4.275 -28.725 -0.075
4.275 -28.725 0.375
3.525 -29.925 0.825
3.525 -29.925 0.225
3.075 -30.375 0.525
3.075 -30.375 -0.225
-2.325 -30.825 0.825
3.975 -24.525 -0.225
2.925 -30.525 -0.075
3.675 -29.775 1.275
4.575 -27.975 -0.525
4.575 -27.975 -0.825
-1.875 -31.125 0.525
4.275 -28.875 -0.075
4.275 -24.975 -0.075
4.125 -29.175 -0.225
4.125 -29.175 0.075
4.125 -24.675 -0.525
-2.175 -30.975 0.675
0.075 -31.575 1.125
4.725 -26.925 -0.825
4.725 -26.925 -1.275
-0.075 -31.575 0.525
-0.075 -31.575 0.675
4.425 -28.575 0.225
4.425 -28.575 -0.075
4.725 -26.775 0.675
4.725 -26.775 0.525
4.725 -26.775 -0.225
4.575 -28.125 -0.225
4.575 -28.125 -0.075
4.725 -26.625 0.075
4.725 -26.625 -0.225
4.725 -26.625 -0.375
4.725 -27.225 -0.675
3.975 -24.375 -0.225
3.375 -30.225 -0.225
3.375 -30.225 0.675
3.375 -30.225 0.225
3.375 -30.225 0.975
3.525 -30.075 0.525
3.525 -30.075 0.075
3.525 -30.075 1.125
3.225 -30.375 -0.225
4.725 -26.475 0.225
4.725 -26.475 -0.525
3.075 -30.525 -0.375
3.075 -30.525 -0.075
3.675 -29.925 0.675
3.675 -29.925 -0.075
3.675 -29.925 1.125
4.275 -29.025 0.375
2.175 -31.125 0.675
-2.025 -31.125 0.675
-2.025 -31.125 0.525
4.125 -29.325 -0.225
4.125 -29.325 0.225
4.425 -28.725 0.075
4.425 -28.725 -0.225
4.125 -24.525 -0.375
-0.675 -31.575 0.075
3.825 -29.775 0.075
3.825 -29.775 0.225
4.725 -27.675 -0.675
4.725 -27.675 0.075
2.925 -23.175 1.125
2.925 -30.675 -0.525
-0.825 -31.575 0.375
-0.825 -31.575 0.525
4.725 -27.825 -0.975
3.975 -29.625 0.525
3.975 -29.625 0.075
3.975 -29.625 0.675
4.575 -28.425 -0.225
4.275 -24.675 -0.375
4.275 -24.675 -0.075
4.275 -29.175 0.075
4.275 -29.175 0.225
-1.875 -31.275 0.825
-0.975 -31.575 -0.375
4.425 -28.875 -0.525
4.425 -28.875 0.375
4.425 -28.875 0.225
4.725 -27.975 -0.075
3.375 -30.375 0.075
3.525 -30.225 0.075
3.525 -30.225 0.375
3.525 -30.225 -0.075
3.525 -30.225 0.225
3.675 -30.075 0.075
3.675 -30.075 0.375
3.225 -30.525 -0.225
4.125 -29.475 0.375
4.125 -29.475 0.675
4.125 -29.475 0.075
4.575 -28.575 0.225
4.575 -28.575 -0.225
4.575 -28.575 -0.525
4.575 -25.275 0.075
4.875 -26.925 -0.375
4.875 -27.075 -0.075
3.825 -29.925 0.375
4.875 -27.075 -0.675
3.825 -29.925 0.075
3.825 -29.925 0.225
4.875 -27.075 -0.525
-0.075 -31.725 0.975
-0.075 -31.725 1.125
-0.075 -31.725 0.825
4.875 -26.625 -0.225
4.875 -26.625 -0.375
4.875 -26.625 0.225
4.875 -26.625 0.525
-0.225 -31.725 0.975
-0.375 -31.725 0.825
4.425 -29.025 0.375
4.425 -29.025 0.225
3.975 -29.775 0.825
3.975 -29.775 0.525
4.425 -24.825 -0.225
4.875 -27.525 -0.675
4.875 -27.525 -0.525
4.875 -27.525 -0.075
4.275 -29.325 0.075
4.875 -27.525 -1.425
4.275 -29.325 -0.225
4.875 -27.525 -1.125
4.875 -26.325 -0.675
-0.525 -31.725 0.225
4.275 -24.525 -0.075
4.275 -24.525 -0.225
4.725 -28.275 -0.375
4.725 -28.275 -0.525
4.725 -28.275 -0.675
4.725 -25.575 -0.825
4.575 -28.725 -0.225
4.875 -27.675 0.375
-0.675 -31.725 0.225
4.125 -24.225 -0.075
4.125 -29.625 -0.075
4.125 -29.625 0.675
3.525 -30.375 0.075
3.525 -23.475 1.725
3.375 -30.525 0.075
4.875 -27.825 -0.075
3.675 -30.225 -0.075
3.675 -30.225 0.375
3.675 -23.625 0.525
-0.825 -31.725 0.975
-0.825 -31.725 0.225
3.375 -23.325 1.125
4.725 -28.425 -0.225
3.825 -30.075 -0.075
3.825 -30.075 0.075
4.425 -29.175 0.075
4.425 -29.175 0.525
4.425 -24.675 -0.225
3.225 -23.175 0.975
3.825 -23.775 0.075
3.825 -23.775 2.025
4.575 -28.875 0.525
4.575 -28.875 -0.075
4.575 -28.875 0.225
4.575 -24.975 -0.225
2.625 -22.725 0.525
4.875 -27.975 -0.375
4.275 -24.375 0.225
4.275 -29.475 -0.375
4.275 -29.475 1.275
4.275 -29.475 0.675
3.075 -30.825 -0.525
3.975 -29.925 0.075
3.975 -29.925 -0.225
3.975 -29.925 0.975
4.725 -28.575 -0.675
4.725 -28.575 -0.225
4.875 -28.125 -0.825
4.875 -28.125 -0.675
5.025 -26.925 -1.125
5.025 -26.925 -0.375
-0.075 -31.875 1.275
-0.075 -31.875 0.525
5.025 -27.075 -0.375
5.025 -27.075 -0.525
5.025 -27.075 -0.675
2.925 -22.875 0.675
-0.225 -31.875 -0.975
-0.225 -31.875 1.125
5.025 -27.225 -0.525
5.025 -27.225 -0.675
5.025 -26.625 -0.375
4.575 -29.025 -0.075
4.575 -29.025 -0.225
4.575 -29.025 0.225
4.425 -29.325 -0.225
4.425 -29.325 -0.525
4.425 -29.325 0.225
4.425 -24.525 0.675
-0.375 -31.875 0.675
-0.375 -31.875 0.975
5.025 -26.475 0.075
5.025 -26.475 -0.525
5.025 -27.375 1.575
5.025 -27.375 -0.675
3.525 -30.525 0.375
3.525 -30.525 -0.375
3.525 -30.525 0.225
3.525 -30.525 -0.225
3.675 -23.475 0.975
3.675 -30.375 -0.075
3.675 -30.375 0.675
3.675 -30.375 -0.225
3.675 -30.375 0.075
3.675 -30.375 -0.825
-0.525 -31.875 0.675
4.875 -28.275 -0.975
4.875 -28.275 -0.525
4.725 -28.725 -0.225
4.725 -28.725 0.225
4.725 -28.725 0.375
5.025 -26.325 -0.525
5.025 -26.325 -0.675
4.275 -29.625 -0.225
4.275 -29.625 0.525
4.275 -29.625 0.825
4.275 -29.625 0.075
3.825 -30.225 0.525
3.825 -30.225 0.075
-0.675 -31.875 0.825
-0.675 -31.875 0.675
3.975 -30.075 0.825
3.975 -30.075 0.375
3.975 -30.075 0.075
4.875 -25.425 -0.225
-0.825 -31.875 0.975
4.575 -29.175 -0.225
4.575 -29.175 0.375
5.025 -27.825 0.075
5.025 -26.025 -0.225
4.125 -23.925 2.325
4.125 -29.925 0.375
4.125 -29.925 -0.525
4.125 -29.925 -0.375
4.125 -29.925 -0.225
-2.475 -31.275 0.525
4.725 -28.875 -0.075
4.725 -28.875 0.075
4.725 -28.875 0.825
4.425 -29.475 0.375
4.425 -29.475 0.675
4.425 -29.475 -0.075
4.425 -24.375 -0.375
4.275 -29.775 0.375
4.275 -29.775 0.675
4.875 -28.575 -0.075
4.875 -25.275 -0.675
4.275 -24.075 0.825
3.675 -30.525 0.075
3.675 -30.525 -0.225
1.275 -31.875 -0.675
5.025 -28.125 -0.225
3.825 -30.375 0.375
3.825 -30.375 0.075
0.075 -32.025 1.125
0.075 -32.025 1.275
4.575 -29.325 0.375
4.575 -29.325 0.225
4.575 -29.325 -0.075
5.175 -26.925 -0.375
5.175 -26.925 0.375
4.575 -24.525 -0.225
-0.075 -32.025 -0.375
4.725 -29.025 0.075
4.725 -29.025 -0.225
5.175 -27.075 -0.525
-0.225 -32.025 0.675
5.175 -26.625 0.675
5.175 -27.225 -0.525
5.175 -27.225 -0.675
5.175 -26.625 0.525
3.975 -30.225 0.375
3.975 -30.225 0.225
3.975 -30.225 -0.075
3.975 -23.625 2.025
-0.375 -32.025 0.525
-0.375 -32.025 0.375
-0.375 -32.025 -0.375
4.425 -29.625 0.225
4.425 -29.625 -0.225
4.425 -29.625 0.075
4.425 -29.625 -0.375
4.425 -29.625 -0.075
5.175 -26.475 -0.525
5.175 -26.475 -0.375
5.175 -27.375 -0.675
5.175 -27.375 -0.975
4.875 -28.725 -0.075
4.875 -25.125 0.375
1.875 -31.725 -1.425
4.125 -30.075 0.825
4.125 -30.075 0.225
4.125 -30.075 -0.675
4.125 -30.075 0.375
5.025 -28.275 -0.375
5.025 -28.275 -0.225
5.025 -28.275 -0.675
5.025 -28.275 -0.825
4.125 -23.775 0.975
4.125 -23.775 -0.825
-0.525 -32.025 -3.525
-0.525 -32.025 -0.225
-0.525 -32.025 0.675
-0.525 -32.025 0.075
5.175 -27.525 -0.525
5.175 -27.525 -0.825
5.175 -27.525 -0.675
5.175 -26.325 -0.375
5.175 -26.325 -0.675
5.175 -26.325 -0.225
5.175 -26.325 -0.525
-0.675 -32.025 0.825
-0.675 -32.025 0.375
-0.675 -32.025 0.075
5.175 -27.675 -0.375
5.175 -27.675 -1.275
5.175 -26.175 -0.225
5.175 -26.175 -0.675
4.275 -29.925 0.375
4.275 -29.925 -0.225
4.725 -29.175 0.525
4.725 -29.175 0.375
4.725 -29.175 2.925
4.725 -29.175 0.225
4.725 -24.675 -0.075
5.025 -25.425 0.225
-0.825 -32.025 1.425
5.175 -27.825 -0.375
5.175 -26.025 -0.075
5.175 -26.025 -0.675
4.875 -28.875 -0.075
2.025 -31.725 -1.275
3.825 -30.525 -1.275
3.825 -30.525 0.225
3.825 -30.525 0.075
4.425 -29.775 0.075
4.425 -29.775 0.225
4.425 -29.775 0.375
3.975 -23.475 2.025
3.975 -23.475 0.825
3.975 -30.375 0.075
3.975 -30.375 -0.375
5.175 -27.975 -0.225
5.175 -27.975 -0.675
5.175 -27.975 -0.375
5.025 -28.575 0.075
4.125 -30.225 0.375
4.125 -30.225 0.225
4.125 -30.225 -0.075
2.475 -31.575 -4.725
4.725 -29.325 0.525
4.725 -29.325 1.125
4.875 -29.025 0.975
4.875 -29.025 0.375
4.875 -29.025 -0.375
4.875 -29.025 0.075
5.175 -28.125 -0.375
5.175 -28.125 -0.525
4.575 -29.625 0.225
4.575 -29.625 -0.525
4.575 -29.625 -0.225
4.575 -29.625 0.075
4.575 -29.625 0.375
4.575 -29.625 0.675
4.575 -29.625 1.125
4.575 -29.625 -0.075
2.775 -31.425 2.775
0.075 -32.175 1.125
3.225 -22.725 2.025
4.275 -30.075 0.075
4.275 -30.075 0.225
4.275 -30.075 0.375
4.275 -30.075 -0.075
5.325 -26.925 -0.225
5.325 -26.925 0.375
5.325 -26.925 -0.675
5.325 -26.925 0.075
4.275 -23.775 0.525
-0.075 -32.175 1.125
-0.075 -32.175 0.675
5.325 -26.775 -0.225
5.325 -26.775 0.075
-0.225 -32.175 0.525
-0.225 -32.175 1.125
5.325 -27.225 -0.225
5.325 -26.625 -1.125
5.325 -26.625 -0.375
5.325 -26.625 -0.525
5.325 -26.625 -0.225
5.025 -25.125 -0.675
5.025 -25.125 -0.375
5.025 -25.125 -0.225
5.025 -25.125 0.375
5.025 -28.725 -0.075
0.525 -32.175 0.675
0.525 -32.175 0.975
0.525 -32.175 1.575
-0.375 -32.175 1.125
5.325 -27.375 -0.075
5.325 -27.375 0.075
5.325 -26.475 -0.225
5.175 -28.275 -0.375
5.175 -28.275 -0.225
5.175 -25.575 -0.675
0.675 -32.175 1.575
-0.525 -32.175 1.425
-0.525 -32.175 0.375
-0.525 -32.175 1.575
5.325 -27.525 -0.675
5.325 -27.525 -0.525
4.425 -29.925 -0.375
4.425 -29.925 -0.075
5.325 -26.325 -0.675
5.325 -26.325 -0.525
5.325 -26.325 -0.375
4.875 -29.175 0.375
4.875 -29.175 -0.075
4.875 -29.175 -0.975
4.875 -29.175 0.075
4.725 -29.475 0.075
4.725 -29.475 0.525
4.725 -29.475 0.375
4.725 -29.475 -0.225
5.325 -27.675 -0.825
5.325 -27.675 -0.525
5.325 -27.675 -0.975
3.825 -30.675 0.225
3.825 -30.675 0.075
5.325 -26.175 -0.525
5.325 -26.175 -0.675
5.325 -26.175 -0.375
3.975 -30.525 -0.075
3.975 -30.525 0.075
3.975 -30.525 0.225
5.175 -25.425 -0.375
2.025 -31.875 -0.825
4.125 -30.375 -0.375
4.125 -30.375 1.125
4.125 -30.375 -0.075
4.125 -30.375 0.075
4.125 -30.375 -0.525
5.025 -28.875 -0.225
5.025 -28.875 0.375
5.025 -28.875 -0.825
5.025 -28.875 0.075
5.025 -28.875 -0.075
5.025 -28.875 0.225
3.525 -30.975 0.225
-0.825 -32.175 0.975
5.325 -27.825 -0.975
5.325 -26.025 -0.975
5.325 -26.025 -0.675
4.275 -30.225 -0.675
4.275 -30.225 -0.225
4.275 -30.225 0.075
5.175 -28.575 -0.375
4.875 -29.325 -0.825
4.875 -29.325 -0.375
4.875 -29.325 0.375
4.875 -29.325 0.225
4.875 -29.325 0.075
4.875 -24.525 0.525
4.425 -30.075 -0.225
4.425 -30.075 0.975
4.425 -30.075 1.275
4.425 -30.075 0.525
4.425 -30.075 0.825
4.725 -29.625 1.575
4.725 -29.625 1.125
4.725 -29.625 0.075
5.025 -29.025 -0.825
5.025 -29.025 -0.225
5.025 -29.025 0.075
5.025 -29.025 0.225
5.325 -28.125 0.375
5.325 -28.125 -1.125
5.325 -28.125 -0.225
5.325 -28.125 -1.275
5.475 -26.925 -0.975
5.475 -26.925 0.075
5.475 -26.925 -0.075
5.475 -26.925 -0.375
0.075 -32.325 0.525
0.075 -32.325 0.225
5.475 -26.775 -0.825
5.475 -27.075 -0.375
5.475 -27.075 -0.075
5.475 -27.075 -0.225
0.225 -32.325 0.525
0.225 -32.325 0.375
0.225 -32.325 0.825
-0.075 -32.325 0.225
-0.075 -32.325 0.375
5.475 -27.225 0.075
5.475 -27.225 -0.075
5.475 -27.225 -0.525
5.175 -28.725 0.075
5.175 -28.725 -0.225
5.175 -28.725 -0.075
5.175 -28.725 0.375
4.575 -29.925 0.225
4.575 -29.925 0.525
4.575 -29.925 -0.225
4.575 -29.925 0.825
0.375 -32.325 0.675
0.375 -32.325 0.375
0.375 -32.325 0.525
0.375 -32.325 0.225
-0.225 -32.325 0.375
-0.225 -32.325 0.225
3.975 -30.675 0.075
3.825 -23.025 0.675
4.125 -30.525 -0.075
4.125 -30.525 -0.225
5.475 -26.475 -0.225
5.475 -27.375 -0.825
5.475 -27.375 -0.675
0.525 -32.325 0.375
0.525 -32.325 0.525
0.525 -32.325 0.225
-0.375 -32.325 0.525
5.325 -28.275 -0.975
5.325 -25.575 -0.675
5.325 -25.575 -0.525
5.475 -27.525 -0.525
5.475 -27.525 -0.825
5.475 -27.525 -0.975
5.475 -26.325 -0.825
5.475 -26.325 -0.525
5.475 -26.325 -0.225
0.675 -32.325 0.825
0.675 -32.325 -0.675
-0.525 -32.325 0.675
4.275 -30.375 -0.375
4.275 -30.375 -0.225
4.275 -30.375 0.675
4.275 -23.475 0.975
2.625 -22.125 0.675
4.875 -29.475 0.075
4.875 -29.475 0.675
4.875 -29.475 0.975
4.875 -24.375 -0.225
5.025 -24.675 0.075
5.475 -27.675 -0.825
5.475 -27.675 -0.975
4.725 -29.775 0.375
4.725 -29.775 0.225
4.725 -29.775 -0.825
2.025 -32.025 -0.075
2.025 -32.025 -1.125
5.175 -28.875 -0.225
5.175 -28.875 0.225
5.175 -28.875 0.075
5.175 -28.875 -0.075
5.325 -25.425 0.225
5.325 -25.425 0.375
5.325 -25.425 -0.525
4.425 -30.225 0.525
4.425 -30.225 -0.825
5.325 -28.425 0.075
4.425 -30.225 0.375
4.425 -30.225 -0.225
4.425 -23.625 1.875
5.475 -27.825 -0.825
5.475 -26.025 -0.975
5.475 -26.025 -0.375
-0.825 -32.325 0.975
-0.825 -32.325 0.825
4.575 -30.075 -0.525
4.575 -30.075 -0.075
4.575 -30.075 0.075
4.575 -30.075 0.525
5.475 -25.875 -0.825
5.025 -29.325 0.375
5.025 -29.325 -0.075
5.025 -29.325 0.075
5.475 -27.975 -0.525
-0.975 -32.325 1.125
1.725 -32.175 -1.125
5.325 -28.575 -0.525
5.325 -25.275 -0.375
4.875 -29.625 -0.525
4.875 -29.625 0.375
4.875 -29.625 0.975
5.175 -29.025 -0.075
5.175 -29.025 0.525
3.975 -30.825 0.075
5.175 -24.825 -0.525
5.175 -24.825 -0.225
4.125 -30.675 0.075
4.125 -23.175 1.425
3.825 -22.875 1.275
5.475 -28.125 -0.225
5.475 -28.125 -1.125
5.475 -25.725 -0.975
5.475 -28.125 -0.975
4.725 -23.925 1.275
4.725 -29.925 -0.225
4.725 -29.925 -0.525
5.325 -28.725 -0.525
5.325 -28.725 -0.375
5.325 -28.725 -0.225
5.325 -28.725 -0.675
5.325 -28.725 0.225
0.075 -32.475 0.525
0.075 -32.475 0.225
4.425 -30.375 1.125
5.625 -26.775 0.075
5.625 -26.775 -0.375
5.625 -27.075 -0.825
-0.075 -32.475 0.675
0.225 -32.475 0.525
0.225 -32.475 0.225
5.625 -27.225 -0.825
5.625 -26.625 -0.075
5.625 -26.625 -0.975
5.625 -26.625 -0.225
5.625 -26.625 -1.125
5.625 -27.225 -0.675
0.375 -32.475 0.525
5.475 -28.275 -0.525
-1.275 -32.325 0.675
5.625 -26.475 -0.075
5.625 -26.475 -0.525
5.625 -27.375 -0.675
5.025 -29.475 -0.375
5.025 -29.475 -0.075
5.025 -29.475 0.525
0.525 -32.475 0.675
0.525 -32.475 0.375
-0.375 -32.475 0.375
-0.375 -32.475 0.525
5.175 -29.175 -0.525
5.175 -29.175 0.225
5.175 -29.175 0.075
4.575 -30.225 0.075
4.575 -30.225 0.225
4.575 -30.225 0.825
4.575 -30.225 -0.075
4.575 -23.625 1.275
4.875 -29.775 0.675
4.875 -29.775 0.075
5.625 -26.325 -0.375
5.625 -26.325 -0.825
5.625 -26.325 -0.525
-0.525 -32.475 0.375
-0.525 -32.475 0.075
5.325 -28.875 -0.525
5.625 -26.175 -0.825
5.625 -26.175 -0.975
5.625 -27.675 -0.525
0.825 -32.475 0.825
-0.675 -32.475 0.375
-0.675 -32.475 0.675
5.475 -25.425 -0.825
5.475 -25.425 -0.525
5.475 -28.425 -0.225
4.725 -30.075 -0.975
4.725 -30.075 0.225
4.725 -30.075 0.825
4.125 -30.825 -5.925
5.625 -27.825 -0.975
5.625 -27.825 -0.825
5.625 -27.825 -0.525
4.275 -30.675 -0.975
4.275 -23.175 1.275
5.175 -29.325 0.075
5.175 -29.325 0.225
5.175 -29.325 0.375
5.175 -29.325 -0.225
5.025 -24.225 -0.225
5.025 -29.625 0.975
5.025 -29.625 0.075
5.025 -29.625 0.675
4.425 -30.525 -0.075
4.425 -30.525 -0.525
5.475 -28.575 -0.375
5.475 -28.575 -0.075
5.475 -28.575 -0.525
5.475 -28.575 -0.675
5.475 -28.575 1.575
5.475 -25.275 0.225
5.475 -25.275 -0.525
5.625 -25.875 -0.975
5.625 -27.975 -0.525
5.625 -27.975 -0.675
-0.975 -32.475 0.975
2.175 -32.175 -0.675
5.325 -29.025 0.225
5.325 -29.025 -0.825
5.325 -29.025 0.075
5.325 -29.025 -0.075
5.325 -24.825 -0.375
5.325 -24.825 0.075
4.875 -29.925 -0.075
4.875 -29.925 0.075
4.875 -29.925 0.525
4.875 -29.925 0.825
4.875 -29.925 -0.225
4.575 -30.375 1.125
4.575 -30.375 0.375
4.575 -30.375 -0.075
4.575 -30.375 -0.225
4.575 -30.375 0.075
5.625 -28.125 -0.525
5.625 -28.125 -0.375
5.625 -28.125 -0.675
5.625 -25.725 -0.675
5.475 -28.725 -0.075
5.475 -28.725 0.375
5.475 -28.725 -0.225
1.875 -32.325 -1.275
0.075 -32.625 0.675
5.775 -26.925 -0.825
5.775 -26.925 -0.225
-0.075 -32.625 0.675
0.225 -32.625 0.375
-0.075 -32.625 -0.825
-0.075 -32.625 0.075
4.725 -30.225 0.975
5.775 -26.775 -0.225
5.775 -26.775 -0.375
4.725 -30.225 0.225
4.725 -30.225 0.375
4.725 -30.225 0.075
5.175 -24.375 -0.225
5.175 -29.475 0.975
5.175 -29.475 -0.825
5.175 -29.475 0.825
5.175 -29.475 0.075
5.175 -29.475 -1.425
5.175 -29.475 -1.275
5.775 -27.075 -0.375
5.775 -27.075 -0.975
5.775 -27.075 -0.675
5.775 -27.075 -0.825
4.725 -23.625 1.125
4.725 -23.625 0.975
0.375 -32.625 -0.075
0.375 -32.625 0.225
0.375 -32.625 0.525
0.375 -32.625 0.825
-0.225 -32.625 0.675
0.375 -32.625 0.075
5.775 -27.225 -0.525
5.775 -27.225 -0.075
5.775 -26.625 0.525
5.775 -26.625 0.075
5.775 -26.625 -0.075
5.025 -29.775 0.225
5.025 -29.775 0.375
5.025 -29.775 0.825
5.025 -29.775 0.975
5.625 -28.275 -0.525
5.625 -28.275 -0.675
5.625 -28.275 -0.075
5.325 -29.175 0.225
5.325 -29.175 0.075
5.325 -29.175 1.425
5.325 -29.175 0.375
5.325 -29.175 -0.075
5.625 -25.575 -0.975
5.025 -24.075 0.225
5.025 -24.075 -0.225
5.025 -24.075 1.125
-1.275 -32.475 0.375
0.525 -32.625 0.675
5.775 -27.375 -0.525
5.775 -26.475 0.675
5.775 -26.475 -0.225
5.775 -27.375 -0.825
0.675 -32.625 -0.525
-0.525 -32.625 0.225
3.975 -22.725 1.125
5.775 -26.325 -0.825
5.775 -26.325 -0.375
5.775 -27.525 -0.525
5.775 -27.525 -0.975
4.275 -23.025 0.975
4.875 -30.075 0.975
4.875 -30.075 -0.075
5.475 -28.875 -0.225
5.475 -28.875 -0.525
5.475 -28.875 0.075
5.475 -28.875 0.825
5.475 -28.875 0.525
4.875 -23.775 1.425
4.875 -23.775 -0.075
4.425 -30.675 0.075
4.425 -23.175 1.575
5.625 -25.425 -0.975
5.625 -25.425 -0.525
0.825 -32.625 0.825
5.625 -28.425 -0.075
5.625 -28.425 -0.825
-0.675 -32.625 0.375
-0.675 -32.625 1.125
5.775 -27.675 -0.525
1.575 -32.475 -0.975
4.575 -30.525 0.075
4.575 -30.525 0.975
3.675 -31.425 -1.425
4.575 -23.325 1.275
4.575 -23.325 1.725
5.775 -27.825 -0.075
5.775 -27.825 -0.675
5.175 -29.625 -0.225
5.175 -29.625 0.075
5.175 -29.625 0.525
5.175 -29.625 0.225
5.175 -29.625 -0.375
-0.825 -32.625 0.525
5.775 -26.025 -0.975
5.325 -29.325 0.825
5.325 -29.325 0.375
5.325 -29.325 -0.075
5.025 -23.925 2.025
5.025 -29.925 -0.075
5.625 -28.575 -0.075
5.625 -28.575 -0.675
5.625 -25.275 -0.375
5.475 -29.025 0.375
5.475 -29.025 -0.975
5.475 -29.025 0.525
5.475 -24.825 0.075
-0.975 -32.625 -0.075
5.775 -25.875 -0.675
5.775 -25.875 -0.375
5.775 -27.975 -0.525
5.775 -27.975 -0.675
-1.125 -32.625 0.675
5.775 -28.125 1.725
5.775 -25.725 -0.375
5.775 -25.725 -1.125
5.775 -28.125 -0.975
4.875 -30.225 -1.275
4.875 -30.225 0.075
4.875 -30.225 -0.225
5.625 -28.725 0.225
5.625 -28.725 0.825
5.625 -28.725 0.375
5.625 -28.725 0.075
5.625 -28.725 -0.225
4.275 -22.875 1.425
5.625 -25.125 -0.075
5.625 -25.125 0.075
2.625 -32.175 -0.975
5.325 -29.475 -0.075
5.325 -29.475 0.225
5.325 -29.475 0.675
5.325 -24.375 -0.375
5.175 -29.775 0.075
5.175 -29.775 1.425
5.175 -29.775 -0.075
5.175 -29.775 -0.225
5.175 -29.775 -0.675
5.175 -24.075 -0.225
3.975 -22.575 2.025
5.475 -24.675 -0.375
5.475 -29.175 0.225
5.925 -26.925 -1.125
-0.075 -32.775 0.225
-0.075 -32.775 0.675
5.925 -26.775 -0.375
5.925 -27.075 -0.525
5.925 -26.775 -0.525
0.375 -32.775 -0.075
0.375 -32.775 -0.975
5.775 -28.275 -0.975
5.775 -28.275 -0.375
-1.275 -32.625 0.375
4.575 -23.175 0.975
4.575 -23.175 1.275
4.575 -23.175 1.575
5.925 -27.225 -0.525
5.925 -27.225 -0.825
5.925 -26.625 -0.525
5.925 -26.625 -0.375
5.925 -26.625 0.225
5.775 -25.575 -0.525
0.525 -32.775 0.225
0.525 -32.775 -0.075
5.025 -30.075 -0.075
5.025 -30.075 -0.225
5.025 -30.075 0.075
5.925 -26.475 -0.225
5.925 -26.475 0.525
5.925 -27.375 -0.825
5.925 -27.375 -0.225
3.225 -31.875 -0.525
0.675 -32.775 0.375
0.675 -32.775 -1.125
-0.525 -32.775 0.225
-0.525 -32.775 3.075
3.675 -31.575 -1.875
4.725 -30.525 0.075
5.925 -26.325 -0.525
5.925 -26.325 -0.225
5.625 -28.875 0.525
5.625 -28.875 -0.375
5.625 -28.875 -0.225
5.625 -28.875 0.825
5.625 -24.975 -0.375
2.025 -32.475 -1.125
2.025 -32.475 -1.275
-1.425 -32.625 0.525
5.775 -28.425 -0.225
5.775 -25.425 -0.675
5.775 -25.425 -0.825
5.775 -25.425 0.075
5.775 -25.425 -1.575
5.775 -28.425 -1.125
5.775 -28.425 -0.375
0.825 -32.775 1.725
0.825 -32.775 0.375
0.825 -32.775 -1.125
-0.675 -32.775 0.375
-0.675 -32.775 0.225
-0.675 -32.775 -0.075
5.925 -27.675 -0.975
5.925 -27.675 -0.675
5.925 -27.675 -0.375
5.925 -26.175 0.225
2.775 -32.175 -0.375
5.325 -29.625 0.075
5.325 -29.625 0.225
5.325 -29.625 1.275
5.325 -29.625 -0.675
5.325 -29.625 -0.375
5.325 -29.625 0.375
5.475 -29.325 0.075
5.475 -29.325 -0.075
5.475 -29.325 0.225
2.475 -32.325 -0.975
2.475 -32.325 -1.575
4.875 -23.475 1.575
3.525 -31.725 3.375
5.175 -29.925 0.825
5.175 -29.925 0.075
5.175 -29.925 -0.225
5.175 -29.925 -0.075
5.175 -29.925 0.225
5.175 -29.925 0.375
-0.825 -32.775 0.375
0.975 -32.775 -0.075
0.975 -32.775 -0.975
5.925 -27.825 -0.825
5.625 -29.025 0.975
5.625 -29.025 -0.525
5.625 -29.025 -0.075
5.625 -29.025 0.075
5.775 -28.575 0.075
5.775 -28.575 -0.675
1.725 -32.625 -1.125
5.775 -25.275 -0.675
5.775 -25.275 0.225
5.625 -24.825 -0.525
5.625 -24.825 -0.075
-0.975 -32.775 0.825
1.125 -32.775 -0.675
5.925 -25.875 -0.975
5.925 -27.975 -0.375
4.425 -22.875 1.425
4.125 -22.575 1.725
4.125 -22.575 1.275
5.025 -23.625 0.975
5.025 -30.225 -0.225
4.575 -23.025 1.125
5.925 -28.125 -0.075
5.925 -28.125 -0.525
5.925 -25.725 -0.075
5.475 -29.475 0.225
5.475 -29.475 1.275
5.475 -29.475 0.825
5.475 -24.375 -0.375
5.325 -29.775 0.225
5.325 -29.775 0.675
5.325 -29.775 0.075
5.325 -29.775 1.125
5.325 -29.775 -0.525
5.325 -29.775 0.525
3.825 -31.575 -1.275
4.725 -23.175 1.425
5.325 -24.075 1.875
1.875 -32.625 -1.125
5.775 -28.725 -0.075
5.775 -25.125 -0.975
5.775 -25.125 -0.525
5.775 -28.725 0.225
5.775 -28.725 -0.375
5.625 -29.175 0.225
5.625 -29.175 0.675
5.625 -24.675 -0.075
5.625 -24.675 -0.375
5.175 -30.075 -0.075
5.175 -30.075 0.075
5.175 -23.775 1.275
0.075 -32.925 0.825
6.075 -26.925 -0.975
3.675 -31.725 -0.075
4.875 -23.325 1.425
6.075 -27.075 -0.375
6.075 -26.775 -0.375
6.075 -27.075 -0.225
6.075 -27.075 -0.525
6.075 -27.075 -0.675
5.925 -28.275 -1.125
5.925 -28.275 -0.975
5.925 -25.575 -0.675
0.375 -32.925 -0.675
6.075 -26.625 -0.225
6.075 -27.225 -0.675
6.075 -27.225 -0.525
6.075 -26.625 -0.375
0.525 -32.925 -0.525
0.525 -32.925 -1.125
6.075 -26.475 -0.225
6.075 -26.475 -0.075
6.075 -27.375 -0.825
5.775 -24.975 -0.825
5.775 -24.975 -0.375
5.775 -24.975 -0.975
5.775 -28.875 0.075
5.775 -28.875 -0.375
5.775 -28.875 -0.075
2.025 -32.625 -0.975
6.075 -26.325 -0.075
6.075 -26.325 -0.225
6.075 -27.525 -0.825
6.075 -27.525 -0.375
6.075 -26.325 -0.375
5.025 -23.475 0.525
5.025 -23.475 2.325
5.025 -30.375 -0.075
5.475 -29.625 0.825
5.475 -24.225 -0.075
5.475 -24.225 -0.375
2.775 -32.325 -0.825
2.775 -32.325 -1.125
2.775 -32.325 -0.975
5.925 -28.425 -0.225
5.925 -28.425 -0.375
5.925 -28.425 -0.675
5.925 -25.425 -0.825
5.925 -25.425 -0.675
0.825 -32.925 -1.275
0.825 -32.925 -0.525
5.625 -29.325 0.375
5.625 -29.325 0.975
6.075 -27.675 -1.125
5.325 -29.925 1.125
5.325 -29.925 0.525
5.325 -29.925 -0.375
5.325 -29.925 0.075
6.075 -26.175 -0.375
5.625 -24.525 -0.225
4.275 -22.575 1.275
4.575 -22.875 1.275
4.575 -22.875 1.125
0.975 -32.925 0.225
0.975 -32.925 -0.525
0.975 -32.925 0.825
6.075 -27.825 -0.825
4.725 -30.825 0.525
3.975 -31.575 0.225
4.725 -23.025 1.275
5.775 -29.025 0.225
5.775 -29.025 1.275
2.175 -32.625 -1.275
5.775 -24.825 -0.675
5.175 -30.225 -0.225
5.175 -30.225 -0.075
5.175 -30.225 0.075
5.175 -30.225 -0.375
5.175 -30.225 -0.525
5.775 -24.825 -0.075
1.725 -32.775 -0.975
5.925 -28.575 -1.125
5.925 -28.575 -0.525
5.925 -28.575 0.225
5.925 -28.575 -0.075
5.925 -28.575 -0.225
5.925 -28.575 -0.675
5.925 -28.575 0.075
5.925 -25.275 -1.125
5.925 -25.275 -0.675
5.925 -25.275 -0.975
5.925 -25.275 -1.425
5.925 -25.275 -0.825
1.125 -32.925 -0.825
1.125 -32.925 -0.525
1.125 -32.925 -0.375
-0.975 -32.925 0.675
6.075 -27.975 -0.525
6.075 -25.875 -0.975
6.075 -25.875 -0.825
5.475 -29.775 0.075
5.475 -29.775 0.375
5.475 -29.775 0.675
5.625 -29.475 0.375
5.625 -29.475 0.675
5.625 -24.375 -0.225
5.625 -29.475 1.125
2.625 -32.475 -1.125
1.275 -32.925 -0.525
-1.125 -32.925 0.525
6.075 -28.125 -0.975
6.075 -28.125 -0.525
6.075 -28.125 -0.675
6.075 -28.125 0.075
6.075 -25.725 -0.975
1.875 -32.775 -0.975
1.875 -32.775 -0.075
5.025 -30.525 -0.825
3.675 -31.875 -0.225
5.925 -25.125 -0.075
5.925 -25.125 -0.975
5.925 -25.125 -0.675
5.925 -28.725 -0.375
5.925 -28.725 0.975
5.925 -28.725 -0.225
5.025 -23.325 1.275
5.025 -23.325 2.175
5.025 -23.325 0.975
5.325 -30.075 0.525
5.325 -30.075 0.075
5.325 -30.075 -0.075
5.775 -24.675 -0.525
5.775 -24.675 -0.675
5.775 -29.175 1.125
5.775 -29.175 0.525
1.425 -32.925 -0.225
1.425 -32.925 -0.675
-1.275 -32.925 0.225
6.225 -26.925 -0.675
6.225 -26.925 -0.825
6.225 -26.925 -0.975
6.225 -26.925 -0.525
6.075 -28.275 -0.375
6.225 -26.925 -0.075
6.075 -25.575 -0.825
6.075 -25.575 -0.375
6.225 -27.075 -0.375
6.225 -26.775 -0.825
6.225 -26.775 -0.375
6.225 -26.775 -0.675
6.225 -27.075 -0.675
6.225 -27.225 0.525
6.225 -26.625 -0.075
6.225 -27.225 -0.675
6.225 -26.625 -0.675
5.175 -23.475 1.275
5.175 -23.475 0.675
5.175 -23.475 0.825
2.025 -32.775 -0.675
5.925 -24.975 -0.075
5.925 -24.975 -0.525
5.925 -24.975 0.075
5.925 -24.975 -0.675
5.925 -24.975 -0.825
6.225 -27.375 -0.375
6.225 -27.375 -0.825
6.225 -26.475 -0.525
6.225 -26.475 -0.375
6.225 -26.475 -0.225
5.925 -28.875 0.225
5.925 -28.875 0.075
4.125 -22.275 1.425
5.625 -29.625 0.375
5.475 -29.925 -0.075
5.475 -29.925 0.075
5.475 -29.925 0.675
5.475 -29.925 -1.125
3.075 -32.325 -1.125
6.225 -26.325 0.075
6.225 -26.325 -0.225
6.225 -26.325 -0.075
-0.525 -33.075 -0.525
-0.525 -33.075 0.525
1.575 -32.925 -0.375
-1.425 -32.925 -0.675
5.775 -29.325 0.675
5.775 -29.325 0.975
5.775 -29.325 0.375
6.075 -28.425 -0.675
6.075 -28.425 0.525
6.075 -25.425 -0.525
6.075 -25.425 -0.675
3.975 -31.725 -0.075
5.775 -24.525 -0.525
5.775 -24.525 -0.075
4.875 -23.025 0.375
6.225 -26.175 -0.075
6.225 -26.175 -0.225
6.225 -27.675 -0.825
6.225 -27.675 0.525
6.225 -27.675 -0.975
6.225 -26.175 -0.375
-0.675 -33.075 0.675
0.825 -33.075 0.525
5.325 -30.225 0.675
5.325 -30.225 -0.225
5.325 -30.225 0.075
5.325 -30.225 -0.075
5.325 -30.225 -0.525
3.825 -21.975 1.125
3.825 -31.875 -0.525
3.825 -31.875 -0.375
6.225 -27.825 -0.975
6.225 -27.825 -0.375
6.225 -27.825 -0.675
5.925 -29.025 1.275
6.225 -26.025 -0.825
6.225 -26.025 0.075
6.225 -26.025 -0.075
5.925 -24.825 0.375
5.925 -24.825 -0.075
0.975 -33.075 -0.825
0.975 -33.075 -0.525
-0.825 -33.075 0.675
6.075 -25.275 -0.675
6.075 -25.275 -0.825
5.625 -29.775 0.675
6.225 -27.975 -0.375
6.225 -27.975 -0.825
5.625 -24.075 -0.075
5.625 -24.075 -0.375
1.125 -33.075 -1.425
1.125 -33.075 -1.575
-0.975 -33.075 -0.675
-0.975 -33.075 0.675
3.675 -32.025 -0.525
3.675 -32.025 -0.375
3.675 -32.025 -0.675
5.175 -23.325 0.525
2.625 -32.625 -0.975
2.625 -32.625 -0.675
5.775 -24.375 -0.075
5.475 -30.075 1.725
5.475 -30.075 0.075
5.475 -30.075 -0.075
5.475 -23.775 0.525
3.225 -32.325 -0.375
4.425 -31.425 -0.075
6.075 -25.125 -0.675
6.075 -25.125 -0.825
6.075 -25.125 -0.225
6.075 -28.725 -0.075
6.225 -28.125 -0.075
6.225 -28.125 -0.375
6.225 -28.125 -0.975
6.225 -25.725 -0.675
6.225 -25.725 -1.425
