# .PCD v0.7 - Point Cloud Data file format
VERSION 0.7
FIELDS x y z
SIZE 4 4 4
TYPE F F F
COUNT 1 1 1
WIDTH 2048
HEIGHT 1
VIEWPOINT 0 0 0 1 0 0 0
POINTS 2048
DATA ascii
37.725 22.575 3.075
38.025 22.425 2.325
37.725 22.425 -0.825
37.575 22.725 2.175
37.725 22.275 2.025
37.725 22.875 2.475
37.425 22.425 2.325
37.425 22.725 2.775
37.425 22.875 1.875
37.275 22.575 3.675
37.275 22.575 2.625
37.275 22.575 2.475
37.275 22.575 2.325
37.275 22.425 3.675
37.275 22.275 4.125
37.275 22.275 1.725
37.125 22.575 2.325
37.275 22.125 3.225
37.125 22.425 2.775
37.575 21.825 4.575
37.125 22.275 3.525
38.625 22.125 3.525
37.875 21.675 4.275
36.975 22.725 3.225
36.825 22.575 2.625
36.975 21.975 4.425
36.825 22.125 2.925
36.675 22.575 2.475
36.825 21.975 4.275
37.725 23.775 0.225
36.675 22.125 4.425
36.525 22.575 4.125
36.525 22.575 2.475
36.525 22.425 4.275
36.825 21.675 -2.625
37.425 20.925 5.025
36.375 21.675 -0.225
37.275 24.225 0.825
36.075 22.425 2.175
36.075 22.275 2.925
36.075 22.275 2.475
36.525 21.225 5.625
36.075 21.825 -0.375
35.925 22.575 2.325
35.925 22.425 2.025
35.925 22.425 3.225
35.925 22.125 -0.075
37.275 24.525 -0.375
35.775 22.575 2.325
35.775 22.425 3.975
36.225 21.225 1.275
35.925 21.675 0.225
37.425 24.675 1.125
36.075 21.375 1.425
36.075 21.375 0.975
35.775 21.975 -0.375
36.825 20.625 0.075
35.925 21.525 4.275
35.925 21.525 1.425
35.775 21.825 0.825
36.075 21.225 0.975
35.625 22.575 2.625
35.625 22.425 2.475
35.625 22.725 2.775
37.575 20.325 5.175
35.775 21.675 0.525
35.775 21.525 0.525
35.625 21.825 -0.225
35.475 22.425 3.375
35.475 22.275 3.375
35.475 22.125 2.025
35.475 22.125 0.525
36.225 20.775 0.075
35.475 21.975 0.675
35.475 21.825 0.225
35.325 22.425 1.575
35.475 21.675 5.025
35.325 22.275 1.575
35.475 21.525 -0.075
36.525 20.325 2.625
36.525 20.325 -0.075
35.325 21.825 0.975
35.325 21.825 0.075
35.625 21.075 0.075
36.975 20.025 2.925
35.175 22.275 2.025
35.175 22.275 0.525
35.175 22.875 -0.825
35.175 22.275 1.575
35.175 22.125 1.725
36.825 20.025 1.125
35.625 20.925 3.075
35.175 21.675 -1.425
35.175 21.675 0.075
35.025 22.575 0.825
35.025 22.575 1.725
35.025 22.575 1.875
35.025 22.425 0.975
35.025 22.425 1.725
35.025 22.725 1.725
35.025 22.275 1.875
35.025 22.875 1.275
35.025 22.275 0.975
35.475 20.925 -0.075
35.025 21.975 -0.525
35.025 21.975 -1.125
36.675 19.875 0.975
35.025 21.675 0.375
34.875 22.575 1.875
34.875 22.575 1.575
34.875 22.425 1.875
34.875 22.275 1.875
34.875 22.275 1.725
34.875 22.275 3.525
34.875 22.125 4.125
34.875 22.125 3.975
34.875 22.125 0.825
35.625 20.475 1.575
34.875 21.825 -0.525
34.725 22.575 0.525
34.725 22.575 1.875
34.725 22.425 3.075
34.725 22.425 1.875
34.725 22.425 0.975
34.725 22.725 1.875
34.725 22.275 3.225
34.725 22.275 3.525
34.725 21.975 -0.825
34.875 21.375 1.125
35.175 20.775 1.125
34.575 22.575 1.725
34.575 22.575 1.575
34.575 22.575 1.875
34.575 22.425 1.875
34.575 22.425 1.725
34.575 22.425 1.575
34.575 22.725 2.025
34.575 22.725 1.575
34.575 22.875 1.425
34.575 22.125 3.525
34.575 22.125 2.325
34.575 21.825 -0.225
35.175 24.675 0.525
34.425 22.575 2.325
34.425 22.575 1.575
34.425 22.425 1.575
34.425 22.725 1.575
34.425 22.725 1.425
34.425 22.725 0.075
34.425 22.275 1.725
34.425 22.275 1.425
34.425 22.125 2.025
36.375 19.425 0.675
34.425 21.975 2.325
34.425 21.975 -0.075
34.875 20.625 1.425
35.925 19.575 0.525
34.275 22.575 2.325
34.275 22.425 3.075
34.275 22.725 3.375
34.275 22.875 0.825
36.075 19.425 1.125
34.275 22.125 3.225
34.275 21.975 4.275
34.275 21.975 -0.225
34.875 20.475 1.875
34.875 20.475 -2.325
34.275 21.825 -0.225
34.275 21.675 -1.875
34.275 21.675 -0.375
34.125 22.575 1.725
34.125 22.575 1.575
34.275 21.525 -1.275
34.275 21.525 2.025
34.125 22.425 3.975
34.125 22.425 4.125
34.125 22.725 1.425
34.125 22.275 3.675
34.125 22.275 1.575
34.125 22.275 3.075
34.125 22.125 -0.225
34.125 22.125 0.825
34.275 21.375 -0.975
35.325 19.725 -0.375
35.325 19.725 -3.075
34.125 21.825 -0.075
34.125 21.675 -0.675
33.975 22.575 0.675
33.975 22.575 1.425
33.975 22.575 1.875
33.975 22.425 3.075
33.975 22.425 1.275
33.975 22.275 3.375
33.975 22.125 0.675
33.975 21.975 1.275
33.975 21.975 0.675
33.975 21.975 0.075
34.425 20.625 -0.075
33.975 21.825 0.975
33.975 21.675 -1.575
33.975 21.675 1.125
35.775 19.125 2.925
33.825 22.575 1.275
33.825 22.575 3.375
33.825 22.575 0.675
33.825 22.425 3.225
33.825 22.425 1.125
33.825 22.425 2.475
33.825 22.425 1.575
33.825 22.725 1.725
33.825 22.725 1.875
33.825 22.425 1.725
33.825 22.275 2.475
33.825 22.125 0.825
33.825 22.125 -0.825
33.825 21.975 0.075
33.825 23.325 1.275
33.825 21.825 0.075
34.425 20.325 0.975
33.975 21.225 -1.275
33.825 23.475 0.525
35.175 19.425 -0.225
36.075 18.825 -0.075
34.275 20.475 0.375
33.675 22.575 1.575
33.675 22.575 0.675
34.425 20.175 -0.675
33.675 22.425 3.225
33.675 22.425 3.375
33.675 22.425 3.525
33.675 22.425 2.475
33.675 22.425 0.675
33.675 22.875 1.575
33.825 21.375 -1.125
33.975 20.925 0.525
34.275 20.325 -0.375
34.575 19.875 3.075
35.175 19.275 -0.375
35.175 19.275 0.225
33.675 21.825 -0.225
33.675 21.825 -0.675
33.675 23.325 -2.175
33.675 21.675 0.075
35.775 18.825 0.375
34.275 20.175 -0.225
34.725 19.575 0.075
33.525 22.575 1.425
33.525 22.575 0.825
33.525 22.575 1.275
33.525 22.425 2.925
33.525 22.725 1.575
33.525 22.425 0.975
33.525 22.425 4.275
33.525 22.725 1.425
33.525 22.425 1.125
34.575 19.725 -0.525
33.525 22.275 2.325
33.525 22.275 4.575
33.525 22.275 0.525
34.125 20.325 0.225
34.125 20.325 -0.375
33.525 22.125 -0.375
33.525 22.125 3.675
34.425 19.875 0.075
33.525 21.975 0.375
33.525 23.175 0.825
35.325 18.975 -0.375
34.275 20.025 0.075
33.675 21.225 -1.275
33.675 21.225 0.225
33.675 21.225 1.125
33.525 21.825 0.075
33.525 23.325 1.575
33.975 20.475 0.225
34.125 20.175 -0.375
34.725 19.425 1.725
34.575 19.575 0.975
36.375 18.375 0.975
34.875 19.275 -0.675
34.875 19.275 0.225
35.025 19.125 0.975
34.425 19.725 -0.375
33.375 22.575 3.075
35.175 18.975 -0.825
33.375 22.575 1.875
33.375 22.575 1.575
34.275 19.875 -0.225
34.275 19.875 0.375
34.275 19.875 -0.825
37.575 18.075 -0.075
37.575 18.075 -0.525
33.375 22.275 0.825
36.225 18.375 1.275
33.525 21.375 6.525
33.375 22.125 -3.525
34.125 20.025 0.075
33.375 21.975 -0.225
33.375 21.975 3.525
34.575 19.425 0.825
34.575 19.425 -0.525
34.725 19.275 0.225
33.375 23.325 -3.075
36.075 18.375 1.125
36.075 18.375 -0.075
34.875 19.125 -0.375
34.875 19.125 -0.525
34.425 19.575 -0.225
34.425 19.575 -0.525
33.975 20.175 -0.375
34.275 19.725 -0.225
34.275 19.725 0.675
34.125 19.875 2.625
34.125 19.875 -0.375
33.375 21.525 1.425
33.375 21.525 2.325
35.175 18.825 0.825
35.925 18.375 -0.225
35.925 18.375 0.375
33.825 20.325 2.625
35.625 18.525 -1.125
33.225 22.575 1.425
33.225 22.425 1.125
33.225 22.425 3.075
33.225 22.425 2.925
33.225 22.425 2.775
33.225 22.425 1.725
36.675 18.075 1.275
35.325 18.675 -0.375
33.225 22.275 0.825
34.725 19.125 -0.375
33.225 22.125 3.825
33.225 22.125 4.275
33.225 23.025 0.675
34.875 18.975 -0.675
34.875 18.975 -0.825
34.875 18.975 -0.525
34.875 18.975 2.925
34.275 19.575 -0.225
34.275 19.575 -0.375
33.225 21.975 0.975
33.225 21.975 3.525
33.375 21.225 -1.275
33.375 21.225 0.825
35.475 18.525 -0.675
33.525 20.775 -0.525
33.225 21.825 -0.225
33.225 21.825 0.225
33.225 21.825 1.125
34.125 19.725 2.025
34.125 19.725 -0.075
34.125 19.725 -0.375
35.025 18.825 0.525
33.225 21.675 1.425
33.225 21.525 2.475
34.725 18.975 1.275
34.725 18.975 -0.075
34.275 19.425 2.475
35.325 18.525 3.225
33.075 22.575 2.775
33.075 22.425 2.625
34.875 18.825 0.225
34.875 18.825 -1.275
34.125 19.575 0.975
34.125 19.575 0.075
33.075 22.875 0.225
33.975 19.725 -0.225
33.975 19.725 0.075
33.975 19.725 -0.825
35.025 18.675 -1.725
35.475 18.375 -0.825
33.225 21.225 -1.275
33.375 20.775 0.225
33.825 19.875 0.225
34.575 18.975 -0.225
33.075 21.675 -0.975
33.075 21.675 0.375
33.075 21.675 -0.525
35.625 18.225 -0.675
34.725 18.825 -0.525
34.125 19.425 -0.375
34.725 18.825 0.075
33.525 20.325 -0.075
33.375 20.625 0.375
33.375 20.625 -0.375
35.325 18.375 -1.125
33.075 21.525 0.075
35.325 18.375 -1.275
34.875 18.675 0.375
33.975 19.575 0.225
32.925 22.575 0.825
32.925 22.575 2.625
32.925 22.575 1.875
32.925 22.575 -0.225
32.925 22.575 1.125
32.925 22.575 0.975
32.925 22.575 1.575
32.925 22.575 2.775
37.725 17.625 0.525
35.025 18.525 1.125
35.025 18.525 -1.275
35.025 18.525 -0.375
32.925 22.425 2.475
32.925 22.725 2.175
32.925 22.275 -0.375
32.925 22.275 3.525
32.925 22.275 2.775
32.925 22.275 3.375
33.375 20.475 -0.225
35.775 18.075 0.825
35.775 18.075 -0.675
35.475 18.225 -0.675
35.475 18.225 -0.225
33.525 20.175 -0.525
33.525 20.175 0.225
33.225 20.775 -0.075
34.425 18.975 -0.225
35.175 18.375 -0.825
35.175 18.375 -1.125
33.675 19.875 -0.375
33.675 19.875 0.375
33.675 19.875 0.825
33.675 19.875 -0.075
32.925 21.825 0.075
32.925 21.825 0.225
34.725 18.675 -0.825
34.725 18.675 0.375
32.925 21.675 -0.375
32.925 21.675 1.725
32.925 23.475 2.475
33.825 19.575 -0.525
33.825 19.575 0.375
33.825 19.575 -0.375
34.875 18.525 1.725
33.225 20.625 0.075
33.525 20.025 -0.675
33.525 20.025 0.375
33.075 20.925 -0.975
35.025 18.375 -0.825
35.025 18.375 -0.375
35.025 18.375 1.875
35.025 18.375 2.025
36.225 17.775 3.975
33.675 19.725 -0.525
34.275 18.975 -0.075
34.275 18.975 0.525
34.125 19.125 -0.225
34.125 19.125 -0.525
34.425 18.825 -0.525
34.425 18.825 -1.425
34.425 18.825 -0.075
32.775 22.575 0.975
32.775 22.575 2.475
32.775 22.575 2.175
32.775 22.575 1.425
33.225 20.475 -0.075
33.225 20.475 0.825
32.775 22.425 0.975
32.775 22.425 2.475
32.775 22.725 1.125
32.775 22.275 1.425
33.525 19.875 -1.125
32.775 22.125 3.075
32.775 22.125 1.875
36.525 17.625 4.575
32.775 21.975 3.675
32.775 21.975 4.425
32.775 21.825 0.825
32.775 21.825 0.375
33.675 19.575 -0.375
35.625 17.925 -0.825
35.325 18.075 -0.075
33.375 20.025 -1.125
33.375 20.025 -1.275
32.925 21.075 1.125
33.075 20.625 -1.275
34.125 18.975 0.675
34.125 18.975 -0.375
34.275 18.825 -1.125
33.525 19.725 -0.225
33.975 19.125 -0.375
33.975 19.125 0.825
32.925 20.925 -1.425
32.925 20.925 -1.275
33.825 19.275 2.025
33.825 19.275 -0.525
33.825 19.275 -0.225
33.825 19.275 1.725
34.575 18.525 -0.675
35.475 17.925 -0.225
33.225 20.175 -0.525
35.775 17.775 -0.225
34.725 18.375 -0.675
32.625 22.575 2.625
32.625 22.575 2.475
32.625 22.575 2.025
32.625 22.575 3.075
33.675 19.425 -0.075
33.675 19.425 1.125
33.675 19.425 -1.125
33.675 19.425 -0.525
33.675 19.425 1.575
32.625 22.725 2.175
32.625 22.425 3.075
32.625 22.725 0.825
32.625 22.725 1.575
32.625 22.425 2.475
32.625 22.275 0.675
32.625 22.875 2.175
32.625 22.125 3.975
32.625 22.125 0.975
33.525 19.575 -0.075
33.075 20.325 0.525
35.625 17.775 -0.675
32.625 21.825 0.075
33.975 18.975 -0.075
33.975 18.975 0.525
36.375 17.475 -0.075
33.825 19.125 -0.375
33.825 19.125 1.875
35.925 17.625 -0.075
35.925 17.625 -1.125
34.425 18.525 0.825
34.425 18.525 0.675
34.425 18.525 0.525
34.575 18.375 -0.525
34.575 18.375 -0.375
34.575 18.375 -0.825
33.675 19.275 0.225
33.675 19.275 -1.275
33.675 19.275 -0.525
36.825 17.325 0.975
36.225 17.475 -0.225
33.075 20.175 -0.675
33.075 20.175 1.125
35.475 17.775 -0.375
34.725 18.225 0.075
34.725 18.225 -1.125
34.725 18.225 -0.375
34.725 18.225 -0.975
34.725 18.225 2.925
33.525 19.425 1.125
33.525 19.425 -0.075
33.225 19.875 -0.525
32.475 22.575 1.575
32.475 22.425 3.525
32.475 22.425 1.425
32.475 22.725 1.275
32.475 22.425 1.575
32.475 22.425 2.625
32.475 22.425 0.975
33.375 19.575 4.725
33.375 19.575 -0.225
33.375 19.575 0.075
34.875 18.075 -0.525
34.125 18.675 -0.525
33.975 18.825 -1.875
33.975 18.825 0.525
34.125 18.675 0.525
34.125 18.675 0.225
34.125 18.675 2.025
33.825 18.975 -0.375
33.825 18.975 0.075
33.825 18.975 0.375
32.475 22.125 3.675
34.275 18.525 -1.125
34.275 18.525 0.825
34.275 18.525 -0.675
34.275 18.525 1.425
34.275 18.525 1.275
34.425 18.375 -0.525
34.425 18.375 0.675
34.425 18.375 0.975
33.675 19.125 0.075
33.675 19.125 -0.225
33.675 19.125 -0.075
33.675 19.125 0.525
33.675 19.125 -1.425
33.675 19.125 0.375
32.925 20.325 -0.975
32.925 20.325 0.375
32.925 20.325 0.525
32.925 20.325 -0.225
32.475 21.825 0.375
33.225 19.725 -0.525
35.025 17.925 0.075
35.925 17.475 -0.225
35.925 17.475 0.075
36.375 17.325 0.525
33.525 19.275 -0.675
36.975 17.175 -0.075
33.375 19.425 0.075
33.375 19.425 0.525
33.375 19.425 0.375
34.725 18.075 0.075
36.825 17.175 0.075
32.925 20.175 0.825
32.925 20.175 -1.875
33.075 19.875 -0.525
35.175 17.775 -1.125
33.975 18.675 -0.675
33.975 18.675 -0.075
33.975 18.675 0.525
33.975 18.675 0.975
35.775 17.475 0.075
35.775 17.475 -0.525
33.825 18.825 0.525
33.825 18.825 -0.075
33.825 18.825 -0.375
34.125 18.525 0.225
34.125 18.525 0.525
34.125 18.525 1.425
34.125 18.525 1.575
36.675 17.175 1.425
36.675 17.175 0.225
34.275 18.375 0.825
34.275 18.375 1.425
34.275 18.375 0.975
33.675 18.975 0.525
33.675 18.975 0.075
33.675 18.975 -0.075
33.225 19.575 0.075
33.225 19.575 -0.825
32.325 22.575 0.975
32.325 22.575 1.575
36.075 17.325 -0.675
32.625 20.775 -0.825
37.875 17.025 1.275
32.325 22.425 1.875
32.325 22.425 2.625
32.325 22.425 2.475
32.325 22.425 1.125
32.325 22.425 2.925
32.325 22.425 1.575
32.325 22.425 2.775
32.325 22.725 1.425
32.325 22.725 2.625
32.325 22.725 1.725
34.425 18.225 0.975
34.425 18.225 0.525
33.525 19.125 -0.375
33.525 19.125 0.825
33.525 19.125 -0.675
33.525 19.125 0.975
33.525 19.125 -0.825
32.325 22.275 1.425
32.325 22.275 1.275
32.325 22.275 0.975
32.325 22.275 1.875
32.325 22.875 3.075
32.475 21.225 -1.425
32.475 21.225 -4.425
32.325 22.125 1.425
32.325 22.125 2.925
32.325 22.125 3.825
35.325 17.625 -0.375
32.925 20.025 0.825
32.925 20.025 3.225
32.925 20.025 1.275
32.775 20.325 0.225
33.375 19.275 0.525
33.375 19.275 1.125
33.375 19.275 -0.675
33.075 19.725 -0.675
32.325 21.825 0.375
32.625 20.625 -1.125
35.925 17.325 -1.275
35.925 17.325 -0.225
35.925 17.325 0.075
36.375 17.175 -0.825
36.375 17.175 -0.375
36.375 17.175 0.075
33.225 19.425 0.375
33.225 19.425 -0.525
33.225 19.425 0.825
32.325 21.675 -0.075
32.325 21.675 0.375
33.825 18.675 -1.125
33.825 18.675 -1.575
33.825 18.675 0.975
33.975 18.525 1.575
33.975 18.525 1.425
33.975 18.525 0.975
33.975 18.525 0.525
33.975 18.525 -0.075
33.975 18.525 -0.375
33.975 18.525 1.125
34.125 18.375 0.675
34.125 18.375 0.825
34.125 18.375 0.975
34.125 18.375 -0.375
33.675 18.825 0.825
33.675 18.825 0.375
33.675 18.825 0.975
35.475 17.475 -1.875
35.175 17.625 0.075
32.925 19.875 -0.675
36.225 17.175 -0.225
34.275 18.225 0.975
33.525 18.975 0.225
33.525 18.975 -0.225
33.525 18.975 -0.525
33.525 18.975 0.375
32.325 21.525 -0.975
32.625 20.475 -0.825
35.775 17.325 -0.075
35.775 17.325 -0.225
33.375 19.125 -0.225
33.375 19.125 -1.125
33.375 19.125 -0.525
33.375 19.125 1.275
34.425 18.075 0.975
36.675 17.025 0.075
37.875 16.875 1.575
32.175 22.575 3.225
32.175 22.575 0.675
32.175 22.575 1.425
35.325 17.475 -0.375
34.575 17.925 -1.125
33.225 19.275 -0.225
33.225 19.275 0.375
33.225 19.275 0.075
32.775 20.025 -0.525
32.175 22.425 3.075
32.175 22.425 1.425
32.175 22.425 1.725
32.175 22.425 2.175
32.175 22.425 1.875
32.175 22.725 2.775
32.175 22.275 2.325
32.175 22.875 1.575
35.025 17.625 2.775
35.025 17.625 -0.825
35.025 17.625 -0.975
36.525 17.025 -0.075
32.175 22.125 0.825
33.825 18.525 0.525
33.825 18.525 -1.425
33.825 18.525 1.575
33.825 18.525 1.275
33.975 18.375 0.825
33.975 18.375 1.875
33.975 18.375 0.975
33.675 18.675 -1.575
33.675 18.675 1.125
33.675 18.675 0.975
33.075 19.425 1.125
33.075 19.425 0.975
33.075 19.425 -0.525
33.075 19.425 1.575
32.475 20.625 -1.125
35.925 17.175 -0.075
34.125 18.225 0.825
34.125 18.225 1.425
33.525 18.825 -0.075
33.525 18.825 1.425
33.525 18.825 0.075
33.525 18.825 1.125
33.525 18.825 -0.825
33.525 18.825 0.975
32.325 21.075 -1.125
36.375 17.025 -0.075
33.375 18.975 0.375
34.275 18.075 -1.725
34.275 18.075 1.275
36.975 16.875 -0.225
36.975 16.875 0.075
36.975 16.875 -0.075
32.775 19.875 1.875
32.775 19.875 -0.675
32.175 21.675 0.075
32.625 20.175 -0.675
35.475 17.325 -0.225
34.875 17.625 0.525
32.925 19.575 -0.375
33.225 19.125 0.975
33.225 19.125 0.225
33.225 19.125 -0.675
33.225 19.125 -0.975
33.225 19.125 -0.075
36.225 17.025 -0.225
34.425 17.925 0.825
34.425 17.925 0.375
34.425 17.925 0.075
36.825 16.875 0.675
33.075 19.275 0.375
33.075 19.275 0.225
33.075 19.275 -1.125
33.075 19.275 -0.225
36.675 16.875 0.675
32.175 21.375 -0.525
33.825 18.375 0.975
33.825 18.375 -0.525
33.825 18.375 0.825
33.825 18.375 1.875
32.325 20.775 -0.225
32.325 20.775 -0.375
32.325 20.775 2.625
36.075 17.025 0.075
36.075 17.025 -0.525
33.675 18.525 -0.375
33.675 18.525 1.575
33.675 18.525 0.525
33.675 18.525 0.825
33.675 18.525 -0.225
35.325 17.325 -0.675
35.325 17.325 -1.725
35.325 17.325 0.075
32.625 20.025 -0.375
33.975 18.225 -0.375
33.975 18.225 0.825
33.975 18.225 1.875
35.025 17.475 0.075
35.025 17.475 -1.125
33.525 18.675 1.575
33.525 18.675 -0.375
33.525 18.675 0.375
33.525 18.675 -0.075
32.775 19.725 -0.375
32.775 19.725 0.375
32.775 19.725 0.075
35.625 17.175 -0.075
35.625 17.175 -0.375
32.475 20.325 -1.275
32.025 22.575 1.125
32.025 22.575 2.325
32.025 22.575 3.075
32.025 22.725 0.825
32.025 22.425 4.125
32.025 22.725 2.325
32.025 22.425 2.475
32.025 22.425 2.325
33.375 18.825 1.125
33.375 18.825 -0.525
33.375 18.825 0.075
34.125 18.075 0.825
34.125 18.075 1.275
34.125 18.075 1.575
36.525 16.875 0.375
32.025 22.275 1.275
32.025 22.275 1.125
32.175 21.225 1.425
34.725 17.625 0.525
34.725 17.625 1.125
32.025 22.125 4.425
32.925 19.425 -0.525
32.925 19.425 0.975
33.225 18.975 0.675
33.225 18.975 0.525
33.225 18.975 2.025
33.225 18.975 0.375
33.225 18.975 -0.375
34.275 17.925 1.275
34.275 17.925 1.125
34.275 17.925 0.825
35.925 17.025 -0.375
35.925 17.025 -0.225
36.375 16.875 -0.075
36.375 16.875 0.375
35.175 17.325 -0.375
35.475 17.175 -0.525
33.075 19.125 -0.375
33.075 19.125 -0.675
33.075 19.125 -0.825
33.075 19.125 -1.125
34.875 17.475 -0.225
32.775 19.575 -0.975
32.775 19.575 0.525
32.025 21.675 1.275
36.225 16.875 1.125
36.225 16.875 -0.225
35.775 17.025 0.375
32.175 20.925 -0.975
33.675 18.375 0.525
33.675 18.375 0.825
33.675 18.375 1.725
33.675 18.375 0.075
33.825 18.225 0.975
33.525 18.525 1.275
33.525 18.525 1.875
33.525 18.525 0.525
32.025 21.525 0.675
32.925 19.275 0.375
32.925 19.275 2.325
33.375 18.675 -0.375
33.375 18.675 -0.675
33.375 18.675 1.425
33.375 18.675 0.375
33.375 18.675 -0.075
33.975 18.075 -0.375
33.975 18.075 1.125
35.325 17.175 0.975
35.325 17.175 1.875
35.325 17.175 -0.525
36.675 16.725 -0.375
32.475 20.025 -0.525
32.025 21.375 -1.125
34.125 17.925 1.725
34.125 17.925 1.125
33.225 18.825 0.375
34.125 17.925 0.825
33.225 18.825 -0.075
35.025 17.325 -0.525
40.725 17.325 -0.075
36.075 16.875 0.075
36.075 16.875 -0.975
32.325 20.325 -0.375
35.625 17.025 0.225
32.775 19.425 0.975
33.075 18.975 0.375
31.875 22.575 2.025
31.875 22.575 1.875
31.875 22.575 0.975
31.875 22.575 2.325
34.275 17.775 1.125
34.275 17.775 -0.225
34.275 17.775 1.725
34.275 17.775 0.825
31.875 22.725 0.825
31.875 22.725 2.325
31.875 22.425 3.675
31.875 22.425 1.875
31.875 22.425 0.825
36.525 16.725 0.675
36.525 16.725 1.125
31.875 22.125 4.125
37.275 16.575 0.375
34.425 17.625 -0.225
34.425 17.625 1.125
34.425 17.625 0.375
34.425 17.625 -0.675
34.425 17.625 0.675
32.925 19.125 -2.325
32.925 19.125 0.075
32.925 19.125 0.375
32.925 19.125 -0.375
32.925 19.125 1.425
32.475 19.875 -0.525
35.175 17.175 -0.675
36.375 16.725 -0.225
36.375 16.725 -0.375
31.875 21.825 -0.675
35.475 17.025 -0.375
32.625 19.575 0.375
32.625 19.575 0.825
34.875 17.325 -0.375
33.525 18.375 0.525
33.525 18.375 0.825
33.525 18.375 -0.225
33.675 18.225 0.375
33.675 18.225 -0.225
33.675 18.225 0.675
33.825 18.075 -0.375
33.825 18.075 0.225
33.825 18.075 0.375
33.375 18.525 1.425
33.375 18.525 -0.375
31.875 21.675 0.225
33.225 18.675 -0.375
33.225 18.675 -0.525
33.975 17.925 -0.225
33.975 17.925 0.825
33.975 17.925 -0.675
33.975 17.925 -0.075
33.975 17.925 -0.375
34.575 17.475 1.125
34.575 17.475 0.675
34.575 17.475 -0.675
34.575 17.475 0.225
32.175 20.475 0.525
32.175 20.475 0.225
36.225 16.725 -0.675
33.075 18.825 0.825
33.075 18.825 -0.075
33.075 18.825 -0.675
33.075 18.825 -0.525
31.875 21.525 0.375
31.875 21.525 -0.825
34.125 17.775 1.725
34.125 17.775 1.575
34.125 17.775 -0.375
34.125 17.775 -0.225
35.025 17.175 -0.375
32.325 20.025 -0.675
35.325 17.025 -0.375
35.325 17.025 -0.675
31.875 21.375 0.075
34.275 17.625 0.225
34.275 17.625 -0.375
34.275 17.625 0.675
34.275 17.625 1.125
32.925 18.975 -0.375
34.725 17.325 -0.525
34.725 17.325 0.075
34.725 17.325 -0.225
35.625 16.875 0.375
35.625 16.875 -0.225
31.725 22.575 1.575
31.725 22.575 1.725
31.725 22.575 0.975
31.875 23.925 0.075
33.525 18.225 -0.825
33.525 18.225 -0.525
33.525 18.225 0.975
33.525 18.225 -0.075
33.375 18.375 0.675
33.375 18.375 0.525
33.375 18.375 0.375
33.675 18.075 -0.525
33.675 18.075 0.375
31.725 22.275 1.275
31.725 22.275 4.425
34.425 17.475 0.675
34.425 17.475 0.975
34.425 17.475 0.375
34.425 17.475 1.125
34.425 17.475 0.525
34.425 17.475 -0.525
32.775 19.125 1.425
32.775 19.125 -1.725
32.775 19.125 0.075
32.775 19.125 -0.525
32.775 19.125 0.375
33.825 17.925 0.825
33.825 17.925 -0.075
33.825 17.925 0.225
33.825 17.925 -0.525
31.725 22.125 1.275
31.725 22.125 4.275
31.725 22.125 4.725
35.925 16.725 1.725
32.025 20.625 -0.225
32.025 20.625 -1.125
32.025 20.625 -0.675
32.325 19.875 -0.225
32.325 19.875 -0.675
35.175 17.025 -0.825
35.175 17.025 0.825
35.175 17.025 -0.075
35.175 17.025 -0.975
32.475 19.575 0.375
32.475 19.575 0.975
33.075 18.675 0.375
35.475 16.875 -0.525
35.475 16.875 0.375
33.975 17.775 -0.225
33.975 17.775 1.725
34.575 17.325 0.225
34.575 17.325 0.525
34.575 17.325 0.675
34.125 17.625 0.225
34.125 17.625 -0.675
34.125 17.625 -1.425
34.125 17.625 1.425
34.125 17.625 -0.375
34.125 17.625 0.675
34.125 17.625 1.275
32.925 18.825 0.225
32.925 18.825 0.075
32.925 18.825 0.375
31.725 21.675 4.275
36.975 16.425 0.675
32.025 20.475 -0.225
32.325 19.725 -0.225
35.025 17.025 0.525
35.025 17.025 -0.375
35.025 17.025 0.825
35.025 17.025 -0.675
34.275 17.475 1.425
34.275 17.475 0.675
34.275 17.475 0.525
34.275 17.475 2.025
34.275 17.475 0.375
32.775 18.975 -0.225
32.775 18.975 -0.075
32.775 18.975 1.725
32.775 18.975 -0.525
35.325 16.875 0.825
35.325 16.875 0.375
35.325 16.875 -0.825
32.475 19.425 0.375
32.475 19.425 1.425
34.725 17.175 -0.525
34.725 17.175 0.675
34.725 17.175 -0.225
33.375 18.225 -0.375
33.375 18.225 0.825
33.375 18.225 0.975
33.375 18.225 0.675
33.375 18.225 0.525
36.075 16.575 2.775
31.875 20.775 -0.825
33.225 18.375 -0.675
33.225 18.375 0.525
33.225 18.375 0.375
31.725 21.375 -0.075
33.675 17.925 -0.075
33.675 17.925 0.075
35.625 16.725 -0.375
35.625 16.725 0.675
35.625 16.725 0.525
32.025 20.325 0.075
33.825 17.775 0.675
33.825 17.775 0.525
33.825 17.775 -5.625
33.075 18.525 -0.225
33.075 18.525 0.375
32.625 19.125 -0.075
32.625 19.125 -0.675
34.425 17.325 -0.525
34.425 17.325 0.525
34.425 17.325 0.675
34.425 17.325 -0.075
34.425 17.325 1.125
34.425 17.325 1.275
34.425 17.325 0.975
34.425 17.325 0.825
36.525 16.425 -0.375
31.575 22.575 2.175
33.975 17.625 -0.525
33.975 17.625 -0.075
33.975 17.625 0.675
31.575 22.725 3.825
31.575 22.725 1.725
31.575 22.425 1.425
32.925 18.675 0.375
35.175 16.875 -0.525
31.575 22.275 1.575
31.575 22.275 2.025
31.575 22.275 0.975
32.175 19.875 2.775
32.175 19.875 -0.375
32.325 19.575 -0.825
32.325 19.575 0.975
35.925 16.575 -0.675
35.925 16.575 0.675
34.875 17.025 1.125
34.875 17.025 -0.375
31.575 23.025 2.175
31.575 22.125 1.575
31.575 22.125 1.875
34.575 17.175 1.125
34.575 17.175 0.075
34.575 17.175 0.975
34.575 17.175 0.525
32.475 19.275 -1.125
32.475 19.275 -0.675
34.125 17.475 1.725
34.125 17.475 1.425
34.125 17.475 -0.375
34.125 17.475 0.525
34.125 17.475 -0.225
34.125 17.475 0.675
32.775 18.825 -1.125
32.775 18.825 0.375
31.575 21.825 3.975
31.875 20.475 -0.525
31.875 20.475 -1.725
33.375 18.075 0.075
33.375 18.075 -0.225
33.375 18.075 -0.075
36.975 16.275 0.525
32.625 18.975 -0.225
32.625 18.975 -0.075
32.625 18.975 0.225
32.625 18.975 0.675
34.275 17.325 -0.375
34.275 17.325 -0.675
34.275 17.325 0.525
34.275 17.325 1.575
34.275 17.325 -0.225
33.525 17.925 0.825
33.525 17.925 -0.375
33.525 17.925 -0.825
35.025 16.875 0.975
35.025 16.875 1.125
32.175 19.725 0.525
32.175 19.725 0.075
33.075 18.375 0.375
33.675 17.775 0.075
33.675 17.775 0.675
33.675 17.775 -0.675
33.675 17.775 -0.225
35.325 16.725 2.475
32.325 19.425 1.425
32.325 19.425 0.375
34.725 17.025 0.825
34.725 17.025 0.525
32.025 20.025 -0.225
33.825 17.625 0.675
33.825 17.625 0.525
33.825 17.625 -1.425
32.925 18.525 -0.375
32.475 19.125 2.925
32.475 19.125 -1.125
31.875 20.325 2.175
35.625 16.575 0.675
34.425 17.175 -0.225
34.425 17.175 1.125
34.425 17.175 0.675
34.425 17.175 0.525
33.975 17.475 0.825
33.975 17.475 0.525
32.775 18.675 -0.225
34.875 16.875 -0.225
34.875 16.875 0.225
32.175 19.575 0.525
35.175 16.725 0.675
31.575 21.225 0.375
32.025 19.875 0.075
32.025 19.875 0.525
32.025 19.875 -0.075
31.425 22.575 1.875
31.425 22.575 2.175
31.425 22.575 1.275
31.725 20.625 -0.675
31.725 20.625 -1.125
31.425 22.725 2.175
31.425 22.725 1.425
31.425 22.425 1.725
31.425 22.425 2.025
31.425 22.425 1.575
31.425 22.425 1.425
34.125 17.325 0.675
34.125 17.325 0.525
34.125 17.325 0.375
32.325 19.275 -0.525
32.325 19.275 -0.675
34.575 17.025 0.225
34.575 17.025 -0.075
34.575 17.025 0.975
34.575 17.025 0.675
34.575 17.025 0.525
31.425 22.275 1.425
31.425 22.275 4.275
31.425 22.275 1.275
31.425 22.275 1.725
31.425 22.275 1.125
31.875 20.175 2.325
35.475 16.575 2.175
33.225 18.075 0.975
33.375 17.925 -0.225
33.375 17.925 -0.525
33.375 17.925 -0.375
33.375 17.925 0.675
33.075 18.225 0.525
31.425 21.975 3.675
33.525 17.775 0.675
33.525 17.775 -0.225
33.525 17.775 -0.075
33.525 17.775 0.525
32.475 18.975 0.225
32.475 18.975 -0.675
34.275 17.175 -0.525
34.275 17.175 0.525
34.275 17.175 0.375
34.275 17.175 -0.075
34.275 17.175 -0.375
34.275 17.175 1.725
33.675 17.625 0.675
33.675 17.625 0.375
33.675 17.625 0.525
33.675 17.625 2.025
32.925 18.375 0.375
32.925 18.375 -0.525
31.725 20.475 -0.375
35.775 16.425 -0.675
35.775 16.425 2.175
35.025 16.725 -0.525
32.025 19.725 0.525
32.025 19.725 0.975
32.025 19.725 -0.675
32.025 19.725 -3.075
32.025 19.725 0.675
32.025 19.725 0.825
33.825 17.475 -0.225
33.825 17.475 0.075
33.825 17.475 0.525
33.825 17.475 0.675
34.725 16.875 1.125
32.775 18.525 0.375
32.775 18.525 0.675
32.775 18.525 0.075
32.775 18.525 -0.075
32.175 19.425 -0.075
32.175 19.425 0.375
35.325 16.575 -1.125
32.325 19.125 0.375
34.425 17.025 -0.225
34.425 17.025 0.525
34.425 17.025 0.075
33.975 17.325 0.525
31.725 20.325 -0.975
31.725 20.325 -1.275
31.725 20.325 -0.825
31.575 20.775 -0.975
31.575 20.775 -0.825
31.425 23.775 1.125
34.875 16.725 -0.225
34.125 17.175 0.675
34.125 17.175 0.825
34.125 17.175 0.975
32.475 18.825 0.225
32.475 18.825 -0.825
32.025 19.575 0.375
32.025 19.575 0.525
32.025 19.575 -0.525
33.225 17.925 0.075
33.225 17.925 0.375
33.225 17.925 0.975
33.075 18.075 0.525
33.075 18.075 0.375
33.075 18.075 0.675
31.875 19.875 -0.075
33.375 17.775 0.825
33.375 17.775 -0.075
35.175 16.575 -0.675
34.575 16.875 0.675
34.575 16.875 -0.225
34.575 16.875 0.075
32.175 19.275 -0.075
31.425 21.225 0.075
31.425 21.225 -3.225
33.525 17.625 0.075
33.525 17.625 0.525
31.575 20.625 -0.975
31.575 20.625 -0.675
31.275 22.575 0.975
31.275 22.575 1.875
31.725 20.175 -0.525
31.725 20.175 -0.375
31.725 20.175 -0.075
31.275 22.425 3.075
31.275 22.425 2.175
31.275 22.425 1.275
33.675 17.475 0.675
33.675 17.475 0.225
33.675 17.475 0.375
33.675 17.475 0.525
32.775 18.375 0.375
31.275 22.275 2.175
31.275 22.275 0.975
31.275 22.275 2.625
31.275 22.275 -1.275
32.325 18.975 0.225
31.275 23.025 0.525
31.275 22.125 3.375
34.275 17.025 2.025
34.275 17.025 -0.075
33.825 17.325 0.525
32.625 18.525 -0.225
35.775 16.275 -0.675
31.875 19.725 0.525
31.875 19.725 0.825
31.875 19.725 0.975
31.875 19.725 -0.075
31.275 21.825 0.525
34.725 16.725 1.125
34.725 16.725 1.275
34.725 16.725 -0.375
34.725 16.725 -0.075
35.325 16.425 -0.225
36.225 16.125 -0.075
31.425 20.925 -0.825
31.425 20.925 -0.525
31.725 20.025 -0.375
33.975 17.175 0.675
33.975 17.175 0.225
33.975 17.175 1.275
31.275 21.675 -0.975
34.425 16.875 0.075
34.425 16.875 0.675
34.425 16.875 1.725
32.175 19.125 -0.375
32.175 19.125 -0.825
33.075 17.925 0.825
33.075 17.925 0.225
33.225 17.775 -0.525
33.225 17.775 -0.825
33.225 17.775 0.075
31.275 21.525 -0.975
31.275 21.525 0.975
33.375 17.625 0.825
33.375 17.625 0.975
33.375 17.625 -0.375
31.575 20.325 -0.975
35.625 16.275 -0.525
32.925 18.075 0.825
36.075 16.125 -0.825
36.075 16.125 -0.075
32.325 18.825 0.225
34.125 17.025 0.825
34.125 17.025 -0.225
34.125 17.025 0.675
33.525 17.475 0.375
33.525 17.475 1.125
32.775 18.225 0.375
31.875 19.575 0.375
31.875 19.575 -0.375
31.875 19.575 -0.525
34.875 16.575 -0.525
34.875 16.575 -0.075
34.875 16.575 0.675
36.675 15.975 0.225
31.275 21.375 0.675
34.575 16.725 0.675
34.575 16.725 1.575
34.575 16.725 0.525
35.175 16.425 -0.975
32.025 19.275 0.375
33.675 17.325 0.375
33.675 17.325 1.575
33.675 17.325 -0.675
31.275 21.225 0.375
35.925 16.125 -0.225
35.925 16.125 0.075
34.275 16.875 0.675
31.575 20.175 -1.725
31.575 20.175 0.075
33.825 17.175 -0.675
33.825 17.175 0.525
33.825 17.175 -0.525
33.825 17.175 0.975
33.825 17.175 0.225
31.125 22.425 2.175
31.125 22.425 3.525
31.125 22.425 2.475
31.125 22.425 3.675
31.125 22.425 3.075
31.125 22.425 2.925
31.125 22.725 2.175
31.125 22.875 0.525
31.125 22.275 3.225
31.125 22.275 1.725
31.125 22.125 3.075
34.725 16.575 0.975
34.725 16.575 -0.075
34.725 16.575 1.125
34.725 16.575 0.225
34.725 16.575 0.675
31.875 19.425 -0.525
31.125 23.175 0.225
35.025 16.425 -1.125
33.975 17.025 0.825
33.975 17.025 0.675
33.975 17.025 -0.075
33.075 17.775 -0.825
33.075 17.775 0.075
33.225 17.625 -0.675
33.225 17.625 -0.375
33.225 17.625 0.675
34.425 16.725 0.525
34.425 16.725 -0.375
34.425 16.725 0.675
34.425 16.725 -0.075
34.425 16.725 0.375
32.025 19.125 0.375
32.025 19.125 -0.375
35.325 16.275 0.825
33.375 17.475 0.675
36.225 15.975 -0.525
36.225 15.975 -0.375
31.275 20.925 -0.675
31.125 23.475 0.975
31.125 23.475 1.425
33.525 17.325 0.825
33.525 17.325 -0.675
34.125 16.875 -0.675
34.125 16.875 0.675
32.175 18.825 2.025
31.125 21.525 -0.975
36.075 15.975 -0.225
36.075 15.975 -0.675
36.075 15.975 -0.525
33.675 17.175 -0.675
33.675 17.175 -0.225
33.675 17.175 2.025
31.275 20.775 -0.975
31.725 19.575 0.375
31.725 19.575 0.975
34.875 16.425 0.675
34.575 16.575 0.075
34.575 16.575 0.225
34.575 16.575 0.675
31.875 19.275 -0.825
31.875 19.275 -0.525
31.875 19.275 -0.675
31.575 19.875 -0.375
31.575 19.875 0.525
35.175 16.275 -0.525
35.175 16.275 1.875
34.275 16.725 0.975
34.275 16.725 -0.075
32.025 18.975 -0.975
33.825 17.025 -0.375
33.825 17.025 0.825
31.425 20.175 0.225
35.475 16.125 1.575
31.125 21.225 0.525
32.925 17.775 -0.225
32.925 17.775 0.075
30.975 22.575 3.075
30.975 22.575 2.025
33.225 17.475 1.275
30.975 22.425 0.975
30.975 22.425 3.225
30.975 22.425 3.975
30.975 22.275 2.325
30.975 22.275 2.775
30.975 22.275 1.575
33.975 16.875 -0.375
34.725 16.425 -0.525
34.725 16.425 0.675
31.725 19.425 1.425
31.725 19.425 0.375
31.725 19.425 1.275
30.975 23.025 1.125
30.975 22.125 3.975
31.575 19.725 0.525
32.625 18.075 0.375
33.375 17.325 -0.225
33.375 17.325 0.075
33.375 17.325 -0.825
33.375 17.325 -0.975
31.875 19.125 -0.675
31.875 19.125 0.375
34.425 16.575 -0.225
31.275 20.475 -0.975
33.525 17.175 -0.075
35.325 16.125 0.225
34.125 16.725 -0.225
36.225 15.825 0.525
30.975 21.675 -0.825
33.675 17.025 -0.675
33.675 17.025 -0.225
33.675 17.025 0.525
31.275 20.325 1.875
34.875 16.275 -0.675
34.875 16.275 1.275
34.875 16.275 1.425
34.575 16.425 0.075
34.575 16.425 -0.225
31.725 19.275 -0.675
31.125 20.775 -0.525
31.125 20.775 -0.225
33.825 16.875 -0.825
33.825 16.875 -0.675
31.425 19.875 0.075
35.175 16.125 -0.525
31.875 18.975 0.375
34.275 16.575 1.725
32.925 17.625 -0.675
33.075 17.475 -0.525
32.775 17.775 -0.525
33.225 17.325 -0.675
33.225 17.325 -0.225
33.225 17.325 0.075
33.225 17.325 0.975
33.225 17.325 -0.375
33.225 17.325 0.375
33.225 17.325 0.225
32.625 17.925 -0.225
35.475 15.975 -0.525
31.125 20.625 -0.975
35.925 15.825 -0.375
33.375 17.175 -0.375
33.375 17.175 -1.575
33.975 16.725 0.825
34.725 16.275 1.575
31.575 19.425 -0.825
31.575 19.425 0.375
30.825 22.575 4.125
30.825 22.575 2.775
31.725 19.125 2.025
31.425 19.725 0.825
31.425 19.725 0.525
31.425 19.725 -0.525
34.425 16.425 -0.225
34.425 16.425 2.325
34.425 16.425 1.725
30.825 22.425 1.725
30.825 22.425 2.325
30.825 22.425 0.975
33.525 17.025 -0.075
33.525 17.025 -0.525
30.825 22.275 1.875
30.825 22.275 0.675
36.375 15.675 0.375
30.825 23.025 0.075
30.825 22.125 1.875
35.775 15.825 -0.075
35.325 15.975 -0.375
35.325 15.975 0.375
35.325 15.975 1.875
34.125 16.575 0.375
31.275 25.125 -0.375
31.275 20.025 2.025
31.275 20.025 -0.225
36.225 15.675 -1.875
30.975 24.225 0.525
32.925 17.475 0.225
32.925 17.475 -0.525
32.925 17.475 0.075
34.575 16.275 0.675
34.575 16.275 0.825
34.575 16.275 2.925
31.575 19.275 1.425
31.575 19.275 0.225
31.575 19.275 0.375
33.075 17.325 1.575
33.075 17.325 -0.225
31.425 19.575 0.375
31.425 19.575 -0.225
33.825 16.725 -0.675
31.125 20.325 -0.675
32.025 18.525 1.425
33.225 17.175 -0.375
33.225 17.175 0.525
33.225 17.175 0.225
34.275 16.425 0.075
34.275 16.425 0.675
30.825 21.525 1.575
36.075 15.675 -0.525
36.075 15.675 -0.075
35.175 15.975 -0.825
31.275 19.875 -0.675
33.375 17.025 -0.225
33.375 17.025 -3.675
33.375 17.025 0.075
33.975 16.575 0.675
35.475 15.825 -0.525
35.475 15.825 -0.375
30.975 20.625 -0.525
35.925 15.675 -0.225
35.925 15.675 -0.375
33.525 16.875 0.375
34.725 16.125 0.675
34.725 16.125 1.725
34.725 16.125 1.425
31.425 19.425 0.375
31.425 19.425 1.425
30.825 21.225 -2.025
34.425 16.275 0.675
34.425 16.275 0.825
35.025 15.975 1.275
35.025 15.975 -0.075
35.025 15.975 1.125
35.025 15.975 0.375
35.025 15.975 -0.525
35.025 15.975 0.675
31.275 19.725 -0.375
31.275 19.725 0.975
31.275 19.725 0.525
31.275 19.725 -0.525
31.275 19.725 -0.825
31.275 19.725 0.225
30.675 22.575 2.475
30.675 22.575 1.275
30.675 22.425 0.825
30.675 22.425 2.025
30.675 22.425 3.375
30.675 22.425 2.175
30.675 22.425 2.325
30.675 22.725 2.475
30.675 22.725 0.975
30.675 22.725 1.875
34.125 16.425 0.675
31.725 18.825 -2.325
30.675 22.275 1.575
30.675 22.275 2.025
30.975 20.475 1.575
35.775 15.675 -0.075
35.775 15.675 0.825
35.775 15.675 0.225
32.775 17.475 0.525
30.675 22.125 4.425
30.675 22.125 3.225
30.675 22.125 1.425
30.675 22.125 2.025
35.325 15.825 0.375
35.325 15.825 -0.225
35.325 15.825 0.075
35.325 15.825 0.225
32.625 17.625 5.625
32.625 17.625 0.525
32.625 17.625 -0.525
31.125 20.025 -0.675
32.925 17.325 0.075
32.925 17.325 -0.375
32.925 17.325 -0.825
30.675 21.975 0.825
30.675 21.825 4.275
31.875 18.525 0.675
36.225 15.525 0.075
33.225 17.025 0.375
33.225 17.025 -0.825
33.225 17.025 0.675
33.225 17.025 -0.225
34.575 16.125 0.075
34.575 16.125 2.175
34.575 16.125 -0.375
34.575 16.125 0.675
34.575 16.125 0.825
34.575 16.125 -0.075
31.425 19.275 0.375
34.875 15.975 0.675
34.875 15.975 1.275
31.275 19.575 0.525
31.275 19.575 1.275
31.275 19.575 0.375
30.675 21.675 1.125
30.675 21.675 -0.675
31.575 18.975 1.575
34.275 16.275 -0.225
34.275 16.275 0.825
33.375 16.875 0.375
33.375 16.875 -0.675
33.375 16.875 0.675
31.125 19.875 -0.675
31.125 19.875 -0.525
35.175 15.825 -0.375
36.075 15.525 0.675
33.975 16.425 0.225
35.475 15.675 1.575
35.475 15.675 -0.525
35.475 15.675 0.375
34.725 15.975 -0.075
34.725 15.975 0.675
31.275 19.425 1.425
31.425 19.125 -0.675
31.425 19.125 0.375
35.925 15.525 -0.375
34.425 16.125 0.675
34.425 16.125 -1.275
34.425 16.125 -0.675
32.625 17.475 0.675
32.625 17.475 -0.075
32.775 17.325 0.375
33.675 16.575 -0.675
32.475 17.625 -0.975
32.925 17.175 -0.075
31.125 19.725 0.825
31.125 19.725 0.525
35.025 15.825 1.125
35.025 15.825 0.675
34.125 16.275 0.825
31.575 18.825 1.275
33.075 17.025 -0.375
33.075 17.025 0.225
30.525 22.575 0.825
30.525 22.575 1.725
30.525 22.575 2.925
30.525 22.575 1.125
30.525 22.575 2.625
30.525 22.425 1.875
30.525 22.425 2.475
30.525 22.425 1.725
30.525 22.725 2.475
30.525 22.725 1.125
36.375 15.375 0.975
35.325 15.675 -0.525
35.325 15.675 0.225
33.225 16.875 -0.675
33.225 16.875 -0.525
35.775 15.525 -0.375
35.775 15.525 2.175
30.525 22.275 0.975
30.525 22.275 3.075
30.525 22.275 1.275
30.525 22.875 0.975
30.525 22.875 2.475
33.825 16.425 -0.375
30.525 22.125 3.075
30.525 22.125 2.625
30.525 22.125 1.725
30.525 21.975 3.825
30.525 21.975 0.375
34.575 15.975 0.825
34.575 15.975 0.225
34.575 15.975 -0.075
34.575 15.975 0.675
34.575 15.975 1.425
31.275 19.275 -0.225
31.275 19.275 0.375
33.375 16.725 0.375
31.425 18.975 0.525
36.225 15.375 0.375
34.275 16.125 -0.225
34.275 16.125 -0.825
31.125 19.575 1.125
31.125 19.575 -0.375
31.125 19.575 0.375
31.125 19.575 1.575
34.875 15.825 0.675
34.875 15.825 1.725
35.625 15.525 -0.225
30.525 21.675 1.125
30.525 21.675 -0.525
30.975 19.875 -0.675
30.975 19.875 -0.975
33.975 16.275 0.525
33.525 16.575 -0.975
33.525 16.575 -1.125
33.525 16.575 -0.375
36.075 15.375 -0.675
30.675 20.775 -0.825
30.675 20.775 -0.675
30.675 20.775 0.225
30.675 20.775 -0.375
32.625 17.325 -0.225
32.625 17.325 -0.375
32.775 17.175 0.225
32.775 17.175 0.375
32.775 17.175 -0.525
35.475 15.525 -0.675
35.475 15.525 0.375
33.675 16.425 0.225
33.675 16.425 0.075
33.675 16.425 -0.075
34.425 15.975 -0.525
34.425 15.975 -0.075
34.425 15.975 0.825
31.275 19.125 1.725
31.275 19.125 5.325
31.275 19.125 0.375
31.125 19.425 0.525
31.125 19.425 1.725
31.125 19.425 1.575
31.125 19.425 -0.525
31.125 19.425 0.375
34.725 15.825 3.075
34.725 15.825 2.175
34.725 15.825 1.425
33.075 16.875 -1.125
33.075 16.875 -0.525
32.175 17.775 -0.825
30.675 20.625 -0.075
30.675 20.625 -0.675
35.925 15.375 -0.825
35.925 15.375 0.075
34.125 16.125 0.225
34.125 16.125 1.125
30.975 19.725 -1.275
35.025 15.675 -0.075
35.025 15.675 -0.675
35.025 15.675 -0.375
35.025 15.675 0.675
35.025 15.675 1.275
30.525 21.225 5.325
33.825 16.275 -0.525
33.825 16.275 -0.675
33.825 16.275 -0.225
35.325 15.525 0.225
35.325 15.525 0.075
35.325 15.525 -0.225
35.775 15.375 -0.225
35.775 15.375 -0.375
35.775 15.375 0.525
35.775 15.375 -0.075
35.775 15.375 2.175
30.375 22.575 1.275
33.375 16.575 -0.525
33.375 16.575 -0.375
30.375 22.425 1.275
30.375 22.425 0.525
30.375 22.425 2.025
30.375 22.425 2.625
30.375 22.725 1.425
30.375 22.275 1.275
30.375 22.275 1.875
34.575 15.825 -0.525
34.575 15.825 0.675
34.275 15.975 -0.525
34.875 15.675 0.075
34.875 15.675 -0.075
34.875 15.675 1.725
34.875 15.675 0.975
34.875 15.675 1.125
30.975 19.575 0.375
30.975 19.575 -1.275
30.975 19.575 0.975
30.375 21.975 0.525
32.625 17.175 0.525
32.475 17.325 -0.525
36.225 15.225 0.375
36.225 15.225 2.625
30.525 20.925 -0.225
32.325 17.475 -0.525
31.425 18.675 0.075
30.375 21.825 5.175
30.375 21.825 1.275
32.775 17.025 0.075
35.625 15.375 -0.225
35.625 15.375 -0.075
35.175 15.525 -0.375
35.175 15.525 -0.525
35.175 15.525 0.975
35.175 15.525 0.375
35.175 15.525 -0.675
35.175 15.525 0.525
30.825 19.875 -0.375
32.175 17.625 0.525
32.925 16.875 -0.225
32.925 16.875 -0.375
33.075 16.725 -0.825
36.075 15.225 -0.075
36.075 15.225 -0.525
32.025 17.775 -0.075
33.675 16.275 0.225
33.675 16.275 -0.825
33.675 16.275 -0.075
31.125 19.125 0.375
31.125 19.125 2.625
34.425 15.825 0.675
34.725 15.675 -0.075
34.725 15.675 1.575
34.725 15.675 -0.225
34.725 15.675 0.825
30.975 19.425 0.225
30.975 19.425 0.375
35.475 15.375 -0.225
35.475 15.375 0.375
35.475 15.375 -0.075
34.125 15.975 -0.675
35.025 15.525 -0.225
35.025 15.525 0.375
35.025 15.525 -0.075
35.025 15.525 1.275
35.025 15.525 1.125
30.825 19.725 -0.225
35.025 15.525 -0.825
35.025 15.525 0.675
35.925 15.225 -0.675
30.525 20.625 -0.825
33.825 16.125 -0.075
36.525 15.075 -0.675
36.525 15.075 -0.825
36.525 15.075 0.225
32.475 17.175 -0.225
35.325 15.375 0.975
35.325 15.375 0.375
35.325 15.375 -0.075
35.325 15.375 -0.525
30.675 20.025 -0.825
32.625 17.025 -0.225
32.625 17.025 -0.975
35.775 15.225 0.825
35.775 15.225 1.125
35.775 15.225 -0.375
35.775 15.225 0.675
34.575 15.675 0.825
30.975 19.275 0.525
36.375 15.075 0.975
32.175 17.475 0.075
32.175 17.475 0.225
32.775 16.875 -0.525
30.225 22.575 2.475
30.225 22.575 0.975
30.225 22.575 1.875
34.275 15.825 0.675
34.275 15.825 -0.225
30.225 22.425 0.525
30.225 22.425 2.025
30.225 22.725 1.125
30.225 22.275 2.625
31.575 18.225 3.225
33.525 16.275 -0.375
34.875 15.525 0.075
34.875 15.525 1.425
34.875 15.525 -0.675
34.875 15.525 2.175
34.875 15.525 0.675
30.825 19.575 0.975
30.225 22.125 1.575
32.925 16.725 -0.375
32.925 16.725 -0.675
36.225 15.075 -0.525
33.075 16.575 -0.825
33.075 16.575 -0.675
33.075 16.575 -0.375
31.875 17.775 0.375
35.625 15.225 -0.075
35.625 15.225 0.525
35.625 15.225 0.075
30.525 20.325 -0.675
30.675 19.875 -0.825
35.175 15.375 -1.275
35.175 15.375 0.675
35.175 15.375 -0.225
36.075 15.075 1.125
36.075 15.075 0.225
36.075 15.075 -0.075
30.375 20.775 -0.675
30.375 20.775 -0.525
30.975 19.125 -0.225
34.425 15.675 0.525
34.425 15.675 -0.225
34.425 15.675 0.825
36.825 14.925 0.525
36.825 14.925 0.225
36.825 14.925 0.675
34.725 15.525 0.825
34.725 15.525 -0.825
34.725 15.525 0.975
34.725 15.525 -0.075
30.825 19.425 1.425
30.825 19.425 0.525
30.825 19.425 -0.825
30.825 19.425 1.275
34.125 15.825 0.675
35.475 15.225 0.525
35.475 15.225 0.675
32.325 17.175 -0.075
32.325 17.175 0.075
33.825 15.975 1.875
30.675 19.725 -0.375
30.675 19.725 0.225
30.675 19.725 0.525
30.675 19.725 -0.525
30.675 19.725 -0.225
30.675 19.725 -0.975
32.475 17.025 0.075
32.475 17.025 0.375
32.475 17.025 0.675
35.025 15.375 0.525
35.025 15.375 0.825
35.025 15.375 1.275
32.625 16.875 -0.375
30.375 20.625 -0.225
35.925 15.075 -0.225
32.175 17.325 0.375
32.175 17.325 -0.525
32.175 17.325 -0.225
32.175 17.325 0.075
36.525 14.925 0.975
36.525 14.925 -0.675
31.875 17.625 0.225
31.425 18.225 0.525
35.325 15.225 0.825
35.325 15.225 0.525
35.325 15.225 -0.075
30.525 20.025 -0.525
30.525 20.025 -0.075
30.525 20.025 0.825
34.275 15.675 0.825
34.275 15.675 0.225
34.275 15.675 0.075
30.825 19.275 -0.525
30.825 19.275 0.375
