# .PCD v0.7 - Point Cloud Data file format
VERSION 0.7
FIELDS x y z
SIZE 4 4 4
TYPE F F F
COUNT 1 1 1
WIDTH 2048
HEIGHT 1
VIEWPOINT 0 0 0 1 0 0 0
POINTS 2048
DATA ascii
12.375 -43.425 -1.275
12.075 -43.575 -1.725
12.075 -43.725 -2.925
12.225 -43.275 0.375
12.375 -43.275 0.375
12.525 -43.425 -1.275
12.075 -43.275 -0.075
11.925 -43.725 -1.275
11.925 -43.725 -0.825
12.525 -43.275 0.675
12.225 -43.125 -0.075
11.925 -43.275 -0.375
11.925 -43.275 -0.075
12.375 -43.125 -0.075
12.075 -43.125 -0.075
12.075 -43.125 0.375
12.525 -43.875 -0.975
12.525 -43.125 -0.225
12.525 -43.125 -0.075
12.675 -43.275 0.675
11.925 -43.125 -0.075
11.925 -43.125 0.225
12.675 -43.875 -1.125
12.225 -42.975 -0.225
12.375 -42.975 -0.225
12.375 -42.975 0.825
11.775 -43.875 -2.625
12.825 -43.575 -0.375
12.825 -43.575 -0.075
12.075 -42.975 -0.225
12.825 -43.425 0.075
12.675 -43.125 -0.225
12.675 -43.125 0.825
11.775 -43.125 -0.525
11.775 -43.125 -0.075
12.525 -42.975 -0.225
11.925 -42.975 -3.825
11.925 -42.975 -0.225
12.675 -44.025 -1.125
12.675 -44.025 -1.275
11.625 -43.275 -1.575
12.675 -42.975 -0.225
11.925 -44.175 -1.125
12.375 -42.825 -0.975
12.075 -42.825 0.975
11.775 -42.975 -0.075
12.975 -43.575 0.375
12.975 -43.575 -0.075
12.975 -43.425 0.225
12.825 -44.025 -0.825
12.525 -42.825 -0.225
11.925 -42.825 0.675
11.625 -44.025 0.975
11.625 -44.025 1.425
12.825 -42.975 -0.375
12.675 -42.825 -0.225
11.625 -42.975 4.125
11.625 -42.975 -0.975
11.775 -42.825 0.675
12.225 -42.675 -1.125
12.225 -42.675 -0.225
12.825 -44.175 -1.125
13.125 -43.575 -0.075
13.125 -43.575 0.525
13.125 -43.425 -0.075
11.625 -44.175 1.275
11.625 -44.175 1.425
13.125 -43.725 -0.975
11.475 -44.025 1.275
11.925 -42.675 0.825
13.125 -43.275 -0.075
13.125 -43.275 0.975
12.975 -42.975 -0.375
11.625 -42.825 0.375
11.775 -42.675 -0.225
11.775 -42.675 0.975
12.825 -44.325 -1.125
12.525 -44.475 -2.325
11.325 -43.125 -1.125
12.375 -42.525 -0.225
12.375 -42.525 0.075
12.975 -42.825 -0.075
12.075 -42.525 -0.225
12.075 -42.525 -1.125
12.075 -42.525 -0.375
13.275 -43.575 0.525
13.275 -43.575 0.075
12.675 -44.475 -2.175
12.825 -42.675 -0.075
13.275 -43.425 -0.075
11.325 -44.025 -1.875
11.325 -44.025 1.275
11.475 -42.825 0.375
13.275 -43.725 -0.075
13.275 -43.725 -0.375
11.775 -44.475 1.425
11.775 -44.475 1.125
11.925 -42.525 -0.225
11.625 -42.675 -0.225
11.625 -42.675 0.675
11.775 -42.525 -0.225
11.775 -42.525 -1.125
11.325 -44.175 1.425
11.625 -44.475 0.675
11.475 -42.675 -0.075
11.475 -42.675 0.225
11.325 -42.825 -0.825
12.675 -44.625 -0.375
11.175 -44.025 1.425
13.425 -43.575 0.525
13.425 -43.575 0.675
13.425 -43.575 -0.075
11.625 -42.525 0.825
11.625 -42.525 -0.225
13.125 -44.325 -0.525
13.125 -44.325 -1.125
13.425 -43.425 -0.075
11.775 -44.625 1.575
13.425 -43.725 0.375
11.175 -42.975 -0.525
11.325 -44.325 1.275
13.275 -44.175 1.275
11.475 -44.475 1.275
12.375 -44.775 1.425
11.775 -42.375 -0.525
11.775 -42.375 -0.075
12.075 -44.775 -0.825
11.325 -42.675 -0.075
11.475 -42.525 -0.225
12.525 -44.775 -0.075
11.175 -42.825 -0.375
13.125 -44.475 -1.425
13.275 -44.325 -0.675
11.025 -44.025 -1.575
12.375 -42.225 -0.675
11.325 -44.475 1.425
13.575 -43.575 -0.075
13.575 -43.575 -1.125
13.575 -43.575 -1.275
13.575 -43.425 -0.225
13.575 -43.725 0.525
13.575 -43.275 -0.525
13.575 -43.275 -0.825
13.575 -43.275 -0.225
11.325 -42.525 -0.075
11.325 -42.525 -0.225
11.175 -42.675 -0.075
11.625 -44.775 0.675
11.625 -44.775 1.125
13.575 -43.125 -0.525
12.525 -44.925 0.225
11.325 -44.625 1.425
11.325 -44.625 1.575
11.925 -44.925 -0.075
11.925 -44.925 0.375
13.575 -42.975 0.075
12.675 -44.925 -0.375
12.675 -44.925 -0.975
12.225 -42.075 -1.275
11.475 -44.775 1.275
11.775 -44.925 0.675
11.775 -44.925 0.225
11.775 -44.925 -0.975
11.175 -42.525 0.375
11.175 -42.525 -0.075
11.325 -42.375 -0.225
13.725 -43.575 -0.075
11.025 -42.675 3.075
13.725 -43.725 0.075
13.725 -43.725 0.525
13.275 -44.625 -0.525
13.725 -43.275 -0.525
13.725 -43.275 -0.225
12.825 -44.925 -0.825
10.725 -43.575 -1.275
13.725 -43.875 0.075
13.725 -43.875 -0.375
11.625 -44.925 -0.525
11.775 -42.075 -1.275
11.325 -44.775 0.225
13.575 -44.325 0.075
12.075 -45.075 -0.075
12.525 -45.075 -0.675
10.725 -43.125 -0.975
11.925 -45.075 -0.075
11.925 -45.075 -0.675
11.925 -45.075 -0.825
11.175 -42.375 0.825
11.175 -42.375 -0.825
11.025 -42.525 -0.075
13.725 -42.975 -0.525
11.625 -42.075 0.075
11.475 -44.925 0.525
12.675 -45.075 -0.675
11.775 -45.075 0.075
11.775 -45.075 -0.675
13.875 -43.575 -0.075
11.175 -44.775 -0.525
11.925 -41.925 -1.125
13.875 -43.725 0.825
13.875 -43.725 0.675
13.875 -43.725 -0.075
12.825 -45.075 -0.675
11.475 -42.075 -0.075
10.725 -44.175 1.125
13.875 -43.275 -0.525
13.875 -43.275 -0.225
13.875 -43.875 0.375
13.875 -43.875 0.075
13.875 -43.875 0.225
11.325 -44.925 -0.525
11.325 -44.925 -0.225
11.325 -44.925 -0.375
10.575 -43.575 -0.675
10.575 -43.425 -1.425
11.025 -42.375 -0.075
11.175 -42.225 -0.225
12.225 -45.225 -0.675
12.225 -45.225 -0.075
12.225 -45.225 -0.225
12.375 -45.225 -0.675
12.375 -45.225 -0.825
10.875 -42.525 -0.075
10.875 -42.525 -0.375
13.875 -44.025 -0.525
12.525 -45.225 -0.375
12.525 -45.225 -0.675
10.575 -43.125 -1.275
11.925 -45.225 -0.075
11.925 -45.225 -0.825
11.025 -44.775 0.825
12.675 -45.225 -0.525
10.875 -44.625 -0.075
13.875 -44.175 -0.825
13.725 -44.475 0.075
11.175 -44.925 1.875
11.175 -44.925 0.675
11.175 -44.925 -0.225
13.125 -45.075 -1.125
13.125 -45.075 -0.975
13.125 -45.075 -1.275
14.025 -43.575 -1.275
14.025 -43.425 -0.075
11.025 -42.225 -0.225
12.825 -45.225 -0.975
12.825 -45.225 -1.125
12.825 -45.225 -0.225
14.025 -43.725 -1.275
14.025 -43.725 -0.075
14.025 -43.725 0.075
11.325 -45.075 0.075
11.325 -45.075 0.675
11.625 -45.225 -0.225
11.625 -45.225 -1.275
11.625 -45.225 -0.375
14.025 -43.875 -0.375
14.025 -43.875 0.525
14.025 -43.875 0.075
10.425 -43.425 -0.825
14.025 -43.125 0.075
12.225 -45.375 0.225
12.225 -45.375 0.075
12.225 -45.375 -0.375
12.225 -45.375 -0.825
12.975 -45.225 -0.675
12.975 -45.225 -0.375
14.025 -44.025 -1.275
11.025 -44.925 -0.375
11.025 -44.925 -0.075
11.325 -41.925 -1.275
13.275 -45.075 -0.375
13.275 -45.075 -0.075
11.475 -45.225 -0.225
12.525 -45.375 -0.825
13.575 -42.225 0.225
11.925 -45.375 -0.675
11.925 -45.375 0.075
11.925 -45.375 -0.375
10.725 -44.625 0.075
11.175 -45.075 -0.075
12.675 -45.375 0.075
12.675 -45.375 -0.225
14.025 -44.175 -0.525
10.875 -42.225 -0.075
10.875 -42.225 -0.225
11.025 -42.075 -0.075
10.725 -42.375 0.675
11.325 -45.225 0.075
12.825 -45.375 0.225
12.825 -45.375 0.375
12.825 -45.375 -0.675
12.825 -45.375 -0.525
14.175 -43.575 1.125
14.175 -43.575 -0.075
14.175 -43.725 -0.075
14.175 -43.275 -3.225
14.175 -43.275 -0.075
14.025 -44.325 -0.825
14.025 -44.325 -0.525
10.575 -42.525 -0.975
10.575 -42.525 -1.125
10.875 -44.925 -0.525
10.875 -44.925 -0.225
10.875 -44.925 -0.675
10.875 -44.925 0.225
14.175 -43.875 1.425
14.175 -43.875 0.075
14.175 -43.875 0.525
14.175 -43.875 0.375
10.725 -44.775 -0.225
13.575 -42.075 -0.675
10.275 -43.725 -0.825
13.275 -45.225 -0.075
13.275 -45.225 -1.125
13.275 -45.225 -0.375
12.975 -45.375 -0.525
12.225 -45.525 -0.675
12.225 -45.525 -0.825
10.575 -44.625 -0.525
10.575 -44.625 1.575
12.825 -41.625 -0.075
11.475 -45.375 -0.525
12.375 -45.525 -0.375
12.375 -45.525 -0.075
12.375 -45.525 -0.225
12.075 -45.525 -0.825
11.175 -45.225 -0.225
10.725 -42.225 0.675
10.725 -42.225 -0.075
10.725 -42.225 -0.225
12.525 -45.525 -0.075
14.025 -44.475 -0.975
11.925 -45.525 -0.075
10.575 -42.375 0.525
12.675 -45.525 -0.225
12.675 -45.525 -0.375
13.125 -45.375 -0.675
13.125 -45.375 -0.225
11.775 -45.525 -0.075
11.775 -45.525 -0.375
14.025 -42.525 -1.575
10.425 -44.475 1.425
14.175 -42.825 -0.975
11.475 -41.625 1.275
11.325 -45.375 0.375
12.225 -41.475 -0.975
10.725 -44.925 -0.225
10.875 -45.075 -0.525
10.875 -45.075 0.075
12.825 -45.525 -0.525
10.575 -44.775 -0.225
10.575 -44.775 -1.425
14.325 -43.575 -0.075
14.325 -43.575 0.975
14.325 -43.575 -0.675
11.025 -45.225 0.075
11.025 -45.225 0.225
11.025 -45.225 0.375
11.625 -45.525 -0.825
14.175 -44.325 -0.825
14.325 -43.725 -0.075
10.725 -42.075 -0.225
14.325 -43.875 0.525
13.275 -45.375 -0.675
10.575 -42.225 -0.975
10.575 -42.225 -0.075
10.575 -42.225 0.675
10.425 -44.625 1.425
11.175 -45.375 0.975
12.225 -45.675 -0.075
12.375 -45.675 -0.225
12.075 -45.675 -0.225
12.075 -45.675 -0.075
10.125 -44.025 0.375
13.125 -45.525 -0.525
12.675 -45.675 0.075
12.675 -45.675 -0.075
12.675 -45.675 -0.225
11.175 -41.625 0.675
13.425 -45.375 -0.075
13.425 -45.375 -0.525
13.425 -45.375 -0.675
11.775 -45.675 -0.675
10.425 -44.775 -0.075
10.425 -44.775 -0.225
11.025 -45.375 -0.075
11.025 -45.375 -0.225
11.025 -45.375 0.375
11.025 -45.375 0.525
10.575 -42.075 0.975
10.575 -42.075 -1.275
10.575 -42.075 1.125
12.825 -45.675 -0.825
12.825 -45.675 -0.375
14.475 -43.575 -0.525
14.475 -43.425 -4.275
14.475 -43.425 -0.075
10.125 -42.825 -0.975
14.475 -43.725 0.825
14.475 -43.725 -0.075
10.425 -42.225 -0.075
10.425 -42.225 0.375
13.275 -45.525 -1.125
13.275 -45.525 -0.825
13.275 -45.525 -1.725
10.275 -44.625 0.525
14.475 -43.875 0.525
11.775 -41.325 -1.275
11.175 -45.525 0.825
11.175 -45.525 -0.225
12.975 -45.675 -0.225
12.975 -45.675 0.075
12.975 -45.675 -0.675
12.975 -45.675 -0.525
11.025 -41.625 0.825
13.575 -45.375 -0.975
13.575 -45.375 -1.275
10.725 -45.225 0.225
11.475 -45.675 0.975
10.425 -44.925 -0.975
10.425 -44.925 -0.225
12.225 -45.825 0.675
12.225 -45.825 0.075
12.225 -45.825 -0.225
10.875 -45.375 0.375
12.375 -45.825 -0.075
12.525 -45.825 -0.225
12.525 -45.825 -0.075
11.925 -45.825 0.525
10.125 -44.475 1.425
14.475 -44.175 -0.975
10.425 -42.075 -1.125
10.425 -42.075 -0.075
11.775 -45.825 -0.675
10.275 -42.225 0.375
10.275 -42.225 -0.075
12.825 -45.825 -0.225
12.825 -45.825 -0.525
11.625 -45.825 0.675
13.275 -45.675 0.075
14.175 -44.925 -0.675
14.625 -43.575 -0.375
14.625 -43.575 -0.075
14.625 -43.575 -1.425
14.625 -43.575 -0.825
14.625 -43.575 -0.525
14.625 -43.425 -0.075
10.425 -45.075 -0.075
10.425 -45.075 0.075
10.425 -45.075 -0.825
10.725 -45.375 1.125
10.725 -45.375 0.075
14.625 -43.725 0.975
14.625 -43.275 -0.075
13.575 -45.525 -0.975
9.975 -44.325 -0.525
14.625 -43.875 -0.525
12.975 -45.825 -0.225
10.875 -45.525 0.975
11.475 -45.825 -0.075
14.325 -44.775 -1.275
14.325 -44.775 -0.825
10.575 -41.775 0.075
9.975 -42.675 -1.125
10.425 -41.925 -0.225
14.625 -44.025 0.225
14.625 -44.025 -0.675
12.225 -45.975 0.075
12.375 -45.975 0.225
12.375 -45.975 0.075
10.275 -42.075 -0.075
10.275 -42.075 0.075
13.125 -45.825 -0.525
13.125 -45.825 -0.375
10.125 -44.775 -0.075
10.125 -44.775 0.225
14.025 -45.225 -0.225
12.525 -45.975 0.825
12.525 -45.975 0.225
12.525 -45.975 0.375
12.525 -45.975 -0.075
13.875 -45.375 -1.275
14.625 -44.175 -1.125
11.325 -45.825 0.225
11.325 -45.825 0.825
11.325 -45.825 0.075
11.325 -45.825 0.975
14.175 -45.075 -1.725
12.675 -45.975 0.075
12.675 -45.975 0.225
14.475 -44.625 0.975
10.425 -45.225 0.075
10.425 -45.225 1.725
10.575 -45.375 0.225
10.575 -45.375 0.375
10.125 -42.225 -0.375
10.125 -42.225 -1.275
10.275 -45.075 -0.225
10.275 -45.075 0.975
12.825 -45.975 -0.225
12.825 -45.975 0.075
13.275 -45.825 -1.275
13.275 -45.825 0.075
13.575 -45.675 -0.825
14.775 -43.575 -0.075
14.775 -43.425 -0.075
14.775 -43.725 -0.375
10.275 -41.925 -0.225
9.825 -44.325 -1.125
12.975 -45.975 -0.525
14.475 -44.775 -1.125
14.775 -43.875 0.075
14.775 -43.875 -0.375
11.475 -45.975 0.825
11.475 -45.975 -0.075
11.475 -45.975 0.525
11.475 -45.975 0.675
11.475 -45.975 0.225
10.125 -42.075 0.375
13.875 -45.525 -1.275
13.875 -45.525 -0.075
13.875 -45.525 0.075
13.425 -45.825 -0.825
14.775 -44.025 -0.975
14.775 -44.025 0.375
14.775 -44.025 -0.525
14.775 -44.025 -0.225
14.775 -44.025 0.075
9.975 -44.775 0.825
9.975 -44.775 -0.525
10.425 -45.375 0.525
10.425 -45.375 -0.825
12.225 -46.125 0.075
13.125 -45.975 -0.225
9.825 -44.475 -0.525
10.275 -45.225 -0.225
12.075 -46.125 -0.225
10.575 -45.525 1.275
13.725 -45.675 -0.675
12.525 -46.125 -0.075
12.525 -46.125 0.225
14.775 -44.175 -0.975
11.925 -46.125 0.075
14.625 -44.625 -1.425
9.975 -42.225 -1.125
10.125 -45.075 0.375
12.675 -46.125 0.375
14.775 -42.825 -0.075
14.475 -44.925 -1.125
9.675 -44.175 1.425
13.575 -45.825 -0.975
13.275 -45.975 0.075
12.825 -46.125 -0.075
12.825 -46.125 0.525
12.825 -46.125 0.075
12.825 -46.125 0.225
10.125 -41.925 -0.225
10.125 -41.925 -0.075
9.975 -44.925 -0.375
9.975 -44.925 -0.075
9.975 -44.925 1.275
9.975 -44.925 0.075
11.625 -46.125 0.375
11.625 -46.125 -0.075
9.675 -42.825 -1.275
14.175 -45.375 -0.375
14.175 -45.375 -0.675
14.025 -45.525 -1.125
14.925 -43.575 -0.525
14.325 -45.225 -0.675
9.825 -42.375 -1.125
14.925 -43.425 -0.075
14.925 -43.725 0.075
9.675 -44.325 -0.075
13.875 -45.675 0.075
12.975 -46.125 0.075
10.275 -45.375 -0.375
9.975 -42.075 -0.075
10.425 -45.525 0.225
11.475 -46.125 0.825
11.475 -46.125 0.525
9.675 -42.675 -1.875
10.125 -45.225 0.525
10.125 -45.225 0.975
14.475 -45.075 0.375
13.425 -45.975 -0.825
9.825 -44.775 -0.525
9.825 -44.775 -0.675
9.825 -44.775 0.075
14.925 -44.025 0.075
13.725 -45.825 -0.825
12.225 -46.275 0.375
12.375 -46.275 1.875
12.375 -46.275 0.225
12.375 -46.275 0.525
10.425 -41.475 0.075
12.075 -46.275 0.825
12.075 -46.275 0.525
12.075 -46.275 0.075
12.075 -46.275 0.225
10.125 -41.775 -1.725
10.125 -41.775 -0.375
12.525 -46.275 -0.075
12.525 -46.275 0.075
14.625 -44.925 -1.275
14.625 -44.925 -0.075
11.925 -46.275 0.825
11.925 -46.275 0.225
14.175 -45.525 -0.825
14.175 -45.525 -0.675
12.675 -46.275 1.125
12.675 -46.275 0.525
14.325 -45.375 -0.975
14.325 -45.375 -0.225
13.575 -45.975 -1.125
9.975 -41.925 -0.225
9.975 -41.925 0.975
11.775 -46.275 0.075
11.775 -46.275 0.225
11.775 -46.275 0.375
11.775 -46.275 0.675
13.275 -46.125 0.075
9.675 -44.625 -0.225
14.475 -45.225 -0.675
14.475 -45.225 0.225
12.825 -46.275 0.675
12.825 -46.275 -0.375
12.825 -46.275 0.375
12.825 -46.275 -0.225
10.425 -45.675 1.425
11.625 -46.275 0.525
13.875 -45.825 -2.025
13.875 -45.825 -0.975
14.775 -44.775 -1.275
15.075 -43.575 -0.225
15.075 -43.575 0.375
15.075 -43.425 -0.225
15.075 -43.725 -0.225
12.975 -46.275 0.375
15.075 -43.275 0.225
11.475 -46.275 0.825
13.425 -46.125 0.675
15.075 -43.875 -0.525
15.075 -43.875 0.075
15.075 -43.875 -0.675
13.725 -45.975 -0.525
9.825 -45.075 0.075
9.825 -45.075 1.275
9.975 -41.775 5.025
9.975 -41.775 -0.075
9.975 -41.775 -0.225
15.075 -44.025 0.225
15.075 -44.025 0.525
9.525 -44.475 -0.375
9.525 -44.475 -1.125
9.525 -44.475 2.325
13.125 -46.275 0.375
13.125 -46.275 -0.075
13.125 -46.275 0.525
13.125 -46.275 -0.375
14.325 -45.525 0.075
14.325 -45.525 -0.525
14.325 -45.525 0.225
9.375 -43.275 0.225
14.175 -45.675 -0.525
14.775 -44.925 0.375
14.925 -44.625 -0.075
12.375 -46.425 0.075
12.075 -46.425 0.375
12.075 -46.425 -0.075
14.025 -45.825 -1.275
15.075 -44.175 -0.225
15.075 -44.175 0.075
9.825 -41.925 0.825
9.825 -41.925 0.675
9.825 -41.925 -0.075
9.825 -41.925 -0.375
12.525 -46.425 0.525
12.525 -46.425 0.825
10.125 -45.525 0.225
11.925 -46.425 0.375
11.925 -46.425 0.225
11.925 -46.425 0.825
9.975 -45.375 1.575
9.525 -44.625 -0.675
9.375 -44.175 0.525
12.825 -46.425 -0.075
14.925 -44.775 -2.025
9.375 -44.325 -0.225
12.975 -46.425 0.075
13.725 -46.125 -0.375
13.425 -46.275 0.075
13.425 -46.275 0.375
13.425 -46.275 -0.075
14.325 -45.675 -1.275
14.325 -45.675 -0.375
15.225 -43.725 -0.525
15.225 -43.725 1.125
9.825 -41.775 -0.075
9.825 -41.775 -0.225
14.475 -45.525 -0.675
9.675 -45.075 0.825
14.175 -45.825 -0.375
14.175 -45.825 -0.525
15.225 -43.875 -0.675
15.225 -43.875 0.075
15.225 -43.875 0.975
10.125 -45.675 -0.075
9.975 -45.525 1.725
15.225 -44.025 0.525
15.225 -44.025 -0.825
15.225 -44.025 0.075
10.275 -45.825 0.375
14.025 -45.975 -0.525
13.125 -46.425 -0.075
13.125 -46.425 -0.225
13.125 -46.425 0.075
9.675 -41.925 0.375
12.225 -46.575 -0.075
12.375 -46.575 0.225
12.075 -46.575 0.375
13.575 -46.275 -0.075
12.525 -46.575 0.075
13.875 -46.125 -0.525
9.375 -44.625 0.225
9.375 -44.625 -0.675
9.375 -44.625 0.075
9.225 -42.975 -1.275
9.225 -42.975 -1.125
9.675 -45.225 1.275
9.675 -45.225 0.075
9.525 -42.075 -0.525
9.225 -44.175 -0.075
9.225 -44.175 1.125
14.475 -45.675 0.075
14.475 -45.675 -1.425
14.325 -45.825 0.525
14.325 -45.825 0.225
14.625 -45.525 -0.375
14.175 -45.975 -0.375
14.175 -45.975 -0.525
9.675 -41.775 -0.225
9.675 -41.775 -0.075
9.975 -45.675 0.075
9.525 -45.075 3.075
15.225 -44.475 -0.525
15.225 -44.475 -1.275
9.375 -44.775 -0.525
9.375 -44.775 0.075
15.375 -43.575 -1.425
15.375 -43.425 0.225
15.375 -43.725 -0.675
10.275 -45.975 0.525
9.225 -42.675 -0.375
15.375 -43.875 0.075
9.375 -42.225 0.225
9.375 -42.225 -0.525
9.225 -44.475 0.225
9.225 -44.475 -0.225
9.225 -44.475 0.075
13.125 -46.575 -0.075
15.375 -44.025 0.075
15.375 -44.025 0.525
9.225 -42.525 -0.075
13.575 -46.425 -0.375
13.575 -46.425 -0.075
9.075 -43.875 1.725
9.375 -44.925 0.225
13.875 -46.275 -0.375
13.875 -46.275 -0.525
13.875 -46.275 -0.075
12.375 -46.725 0.075
15.375 -44.175 -0.525
14.475 -45.825 -0.675
9.675 -41.625 -0.225
9.075 -44.025 0.975
9.075 -44.025 1.425
14.325 -45.975 -0.225
10.575 -46.275 0.825
9.225 -44.625 0.975
13.275 -46.575 0.075
13.275 -46.575 -0.225
9.075 -42.975 -1.125
9.975 -45.825 -0.825
9.825 -45.675 0.525
10.125 -45.975 0.675
10.125 -45.975 0.975
9.075 -44.175 1.275
9.075 -44.175 -0.525
9.525 -41.775 0.375
9.525 -41.775 0.225
13.725 -46.425 -0.075
14.925 -45.375 1.275
9.375 -45.075 0.825
9.375 -45.075 0.525
13.425 -46.575 -0.075
9.075 -44.325 0.675
14.025 -46.275 -0.225
14.025 -46.275 -0.525
15.375 -44.475 0.075
15.375 -44.475 -1.425
15.375 -44.475 -1.125
15.375 -44.475 -0.675
9.075 -42.675 -1.275
9.525 -45.375 0.975
9.525 -45.375 0.375
15.525 -43.725 -1.725
9.375 -41.925 -0.825
10.425 -46.275 1.575
9.225 -42.225 -1.125
9.225 -42.225 -1.275
15.525 -43.875 0.075
9.075 -44.475 0.825
15.525 -44.025 0.675
15.525 -44.025 0.525
15.525 -44.025 -0.975
8.925 -43.575 1.725
13.875 -46.425 -0.525
9.525 -41.625 -0.075
9.525 -41.625 -0.225
9.525 -41.625 0.825
9.525 -41.625 -1.275
14.325 -46.125 0.225
14.325 -46.125 -0.375
9.225 -44.925 0.225
9.225 -44.925 -0.225
9.225 -44.925 -0.525
9.225 -44.925 0.075
9.225 -44.925 0.525
9.075 -42.525 -1.425
9.375 -45.225 0.675
9.375 -45.225 0.825
9.375 -45.225 0.225
9.975 -45.975 0.525
9.975 -45.975 1.275
8.925 -43.875 0.975
15.525 -44.175 0.375
15.525 -44.175 -0.675
10.125 -46.125 1.425
9.075 -44.625 0.375
9.225 -42.075 -0.525
8.925 -44.025 1.275
8.925 -44.025 1.125
9.525 -45.525 0.525
8.925 -44.175 1.275
13.725 -46.575 -0.375
13.725 -46.575 -0.225
14.025 -46.425 0.075
14.025 -46.425 -0.525
10.575 -40.575 1.575
13.425 -46.725 -0.075
9.375 -45.375 0.825
9.375 -45.375 1.275
9.525 -41.475 -0.075
8.925 -44.325 -0.975
15.525 -44.475 -1.725
10.425 -46.425 1.425
10.425 -46.425 0.825
15.375 -44.925 -0.375
9.075 -42.225 -1.125
15.675 -43.725 -1.425
15.675 -43.725 -1.725
15.675 -43.725 -0.075
9.825 -45.975 0.375
9.975 -46.125 1.425
9.975 -46.125 1.575
9.375 -41.625 -0.075
9.375 -41.625 -0.375
9.375 -41.625 0.675
15.675 -43.875 0.975
15.675 -43.875 0.075
8.925 -44.475 -0.675
13.875 -46.575 -0.225
9.075 -44.925 0.075
15.675 -44.025 0.825
15.675 -44.025 -0.375
15.675 -44.025 0.225
8.925 -42.525 -1.275
8.775 -43.575 0.975
8.775 -43.575 1.425
8.775 -43.575 1.125
8.775 -43.425 0.975
10.875 -46.725 1.575
8.775 -43.275 -0.525
8.775 -43.875 0.825
9.675 -41.175 1.125
15.675 -44.175 0.075
9.525 -41.325 1.125
8.775 -44.025 0.975
8.775 -44.025 1.275
8.775 -44.025 2.025
15.525 -44.775 -0.525
15.525 -44.775 -1.275
15.525 -44.775 -0.825
11.175 -46.875 2.025
8.925 -42.375 -1.425
13.725 -46.725 -0.225
15.675 -44.325 -0.225
14.025 -46.575 -0.075
8.775 -44.175 1.125
8.775 -44.175 0.225
8.775 -44.175 0.525
9.375 -41.475 -0.225
9.375 -41.475 0.825
14.475 -46.275 -0.675
8.925 -44.775 -0.225
10.425 -46.575 0.975
9.675 -45.975 1.125
9.825 -46.125 0.525
11.625 -47.025 1.875
9.525 -45.825 0.075
8.775 -44.325 -0.075
15.525 -44.925 -0.975
15.525 -44.925 -1.125
8.925 -42.225 -1.425
9.225 -41.625 0.375
8.775 -42.675 -0.825
8.775 -42.675 -0.675
9.375 -45.675 2.475
15.825 -43.725 -0.225
15.825 -43.725 -0.075
9.675 -41.025 0.075
9.075 -45.225 0.225
9.075 -45.225 0.675
9.075 -45.225 0.525
8.775 -44.475 0.075
8.775 -44.475 0.825
8.775 -44.475 0.375
15.825 -43.875 -0.375
15.825 -43.875 -2.325
15.825 -43.875 -2.025
9.525 -41.175 -0.075
9.525 -41.175 -1.575
9.525 -41.175 -0.225
11.325 -47.025 1.725
10.875 -46.875 2.025
8.775 -42.525 -0.825
15.825 -44.025 0.825
9.375 -41.325 -0.225
8.625 -43.425 1.725
8.625 -43.425 1.125
8.625 -43.725 1.125
8.625 -43.275 1.425
14.625 -46.275 -0.225
8.775 -44.625 0.225
15.825 -44.175 -0.375
15.825 -44.175 0.525
15.825 -44.175 0.075
15.675 -44.775 -0.525
9.675 -46.125 0.825
14.475 -46.425 -0.675
8.625 -44.025 0.375
9.225 -41.475 0.375
9.525 -45.975 2.475
13.725 -46.875 -0.525
9.825 -46.275 0.375
8.775 -42.375 -0.825
8.925 -45.075 0.525
9.075 -45.375 0.375
9.375 -45.825 0.975
9.975 -46.425 0.375
8.775 -44.775 -0.075
15.525 -45.225 -1.425
11.025 -47.025 2.025
9.525 -41.025 -0.225
15.675 -44.925 -0.975
8.625 -44.325 -1.275
9.375 -41.175 -0.225
8.625 -42.675 -0.825
11.475 -47.175 2.025
15.975 -43.575 -0.075
15.975 -43.425 0.075
15.975 -43.725 -0.675
15.975 -43.725 -0.525
15.975 -43.725 -0.075
8.775 -44.925 -0.075
8.625 -44.475 2.025
8.625 -44.475 -0.525
15.975 -43.275 -0.675
9.225 -41.325 -0.225
9.075 -45.525 0.075
15.975 -43.875 0.825
15.975 -43.125 2.475
11.325 -47.175 0.975
15.675 -45.075 -0.375
15.975 -44.025 1.125
15.975 -44.025 0.075
15.975 -44.025 -0.225
8.475 -43.725 1.575
14.925 -40.875 -2.025
8.475 -43.275 2.025
9.075 -41.475 0.225
9.075 -41.475 -0.375
8.625 -44.625 0.225
8.625 -44.625 -0.225
15.975 -44.175 1.425
15.975 -44.175 0.525
8.475 -43.125 1.125
8.475 -43.125 1.725
8.475 -43.125 2.175
11.175 -47.175 1.275
8.925 -45.375 2.175
8.925 -45.375 -0.075
8.775 -45.075 -0.075
8.775 -45.075 0.075
8.475 -44.025 -0.225
11.925 -47.325 1.725
9.675 -40.725 0.825
14.325 -46.725 -0.825
9.375 -41.025 -0.375
9.375 -41.025 -0.525
15.975 -44.325 1.725
15.975 -44.325 -0.525
8.475 -44.175 0.075
8.625 -44.775 1.425
8.625 -44.775 2.025
8.925 -41.625 3.525
9.225 -41.175 -0.225
15.825 -44.925 -0.225
15.975 -44.475 -0.525
8.775 -45.225 -0.075
8.775 -45.225 0.225
8.775 -45.225 2.475
9.075 -41.325 -0.075
14.625 -46.575 -0.375
14.625 -46.575 -0.225
9.375 -46.125 0.525
9.375 -46.125 0.075
11.475 -47.325 1.125
8.625 -44.925 2.475
16.125 -43.575 0.225
15.975 -44.625 -0.675
16.125 -43.275 -0.075
15.675 -45.375 -0.825
14.475 -46.725 -0.675
16.125 -43.875 -0.675
15.825 -45.075 -0.825
11.325 -47.325 2.475
8.625 -42.075 -0.525
8.625 -42.075 -1.125
9.525 -40.725 -1.875
9.075 -45.825 0.675
16.125 -44.025 -0.375
16.125 -44.025 0.075
8.325 -43.575 1.425
14.025 -47.025 2.025
8.325 -43.425 1.425
8.325 -43.425 0.675
8.325 -43.425 1.875
8.475 -44.625 1.725
9.225 -41.025 -0.525
8.325 -43.275 1.275
16.125 -44.175 0.675
16.125 -44.175 -0.825
16.125 -44.175 -0.525
16.125 -44.175 0.225
8.325 -43.875 0.825
8.325 -43.875 0.225
9.825 -40.425 -2.475
11.175 -47.325 1.425
8.325 -43.125 1.875
12.075 -47.475 2.025
8.325 -44.025 2.175
9.075 -41.175 0.075
9.075 -41.175 -0.075
9.075 -41.175 -0.225
11.925 -47.475 1.875
14.775 -46.575 -0.675
14.775 -46.575 -0.825
16.125 -44.325 0.075
16.125 -44.325 -0.225
8.475 -44.775 1.725
9.375 -46.275 0.825
8.325 -44.175 -0.975
8.325 -44.175 2.325
15.975 -44.925 0.075
8.925 -41.325 -1.125
8.925 -41.325 -0.075
8.925 -41.325 -0.525
8.475 -42.225 3.525
16.125 -44.475 0.075
8.625 -45.225 0.825
11.475 -47.475 1.725
11.475 -47.475 0.825
8.475 -44.925 2.925
8.475 -44.925 -0.075
8.475 -44.925 1.425
8.475 -44.925 0.675
14.475 -46.875 -0.525
14.475 -46.875 -0.225
9.225 -40.875 -0.225
15.825 -45.375 -0.825
15.825 -45.375 -0.525
15.825 -45.375 -0.675
16.125 -44.625 -0.675
16.275 -43.425 -0.225
8.925 -45.825 0.375
8.775 -41.475 -0.825
13.425 -39.675 -1.275
15.975 -45.075 -0.975
9.075 -41.025 -0.225
16.275 -43.875 -0.825
15.075 -46.425 -2.625
11.325 -47.475 1.425
16.275 -44.025 -1.275
16.275 -44.025 -0.525
16.275 -44.025 0.075
8.325 -44.625 1.425
8.175 -43.425 1.275
8.925 -41.175 -0.975
13.275 -47.475 1.725
8.175 -43.275 1.725
9.225 -46.275 2.325
16.275 -44.175 0.825
16.275 -44.175 -0.675
8.175 -43.125 1.725
15.825 -45.525 -0.825
8.175 -44.025 0.825
8.175 -44.025 0.225
8.175 -42.975 2.175
8.175 -42.975 1.725
16.275 -44.325 0.525
16.275 -44.325 0.075
8.325 -44.775 0.975
13.425 -47.475 2.175
11.775 -47.625 1.575
8.175 -44.175 1.125
8.175 -44.175 2.625
16.125 -44.925 -0.525
16.125 -44.925 0.675
9.075 -40.875 -0.225
11.625 -47.625 2.025
14.475 -47.025 -0.225
8.175 -44.325 -0.975
8.175 -44.325 -0.825
16.125 -42.075 -1.725
8.775 -45.825 2.025
15.975 -45.375 -0.825
15.975 -45.375 -0.975
15.825 -45.675 -0.975
16.125 -45.075 -0.675
16.125 -45.075 -0.525
8.175 -44.475 0.075
8.175 -44.475 -0.075
8.325 -42.075 -1.575
16.425 -43.725 0.225
14.025 -47.325 0.225
14.325 -47.175 -0.075
8.775 -41.175 0.525
8.775 -41.175 -0.975
8.775 -41.175 -1.125
16.425 -43.875 -0.075
16.425 -44.025 1.125
13.725 -47.475 1.875
8.925 -46.125 2.175
8.325 -45.075 2.325
8.175 -44.625 0.075
8.175 -44.625 -0.225
13.275 -47.625 1.575
13.275 -47.625 2.175
8.025 -43.725 0.375
8.025 -43.725 0.975
8.025 -43.725 2.025
9.225 -40.575 -0.825
11.175 -47.625 2.925
15.975 -45.525 -0.975
16.125 -45.225 -0.975
16.125 -45.225 0.975
16.125 -45.225 -0.075
16.125 -45.225 -0.525
16.125 -45.225 -0.675
8.325 -41.925 -1.425
8.625 -41.325 -1.125
12.375 -47.775 2.025
9.525 -40.275 -0.525
8.025 -44.025 0.525
12.525 -47.775 2.025
8.925 -40.875 -1.575
8.925 -40.875 0.825
8.925 -40.875 -0.225
8.925 -40.875 -0.525
8.925 -40.875 -0.825
8.925 -40.875 -1.275
16.425 -44.325 0.075
16.425 -44.325 0.525
16.425 -44.325 -0.525
12.675 -47.775 1.725
16.275 -44.925 -0.225
13.875 -47.475 2.175
8.325 -45.225 2.025
14.475 -47.175 -0.075
8.775 -41.025 -0.675
8.775 -41.025 -0.975
8.775 -41.025 0.375
8.625 -45.825 2.325
8.625 -45.825 1.125
16.425 -44.475 -0.075
8.025 -44.325 -0.375
8.325 -41.775 -1.125
16.125 -45.375 -1.125
16.125 -45.375 -0.525
8.175 -44.925 0.075
8.175 -44.925 0.975
15.975 -45.675 -0.975
15.975 -45.675 -0.525
15.975 -45.675 -0.675
10.875 -47.625 1.725
16.275 -45.075 -0.075
16.275 -45.075 -0.525
8.625 -41.175 -0.675
16.425 -44.625 -0.825
13.425 -39.375 -2.175
9.225 -40.425 -0.975
15.825 -45.975 -0.675
8.475 -45.675 1.275
8.475 -45.675 2.325
8.475 -45.675 1.575
8.475 -45.675 0.825
9.075 -40.575 -2.475
16.575 -43.275 -1.425
16.575 -43.875 -0.975
16.575 -43.875 -0.075
8.925 -40.725 -0.225
16.575 -43.125 0.825
8.175 -45.075 0.075
8.025 -44.625 0.225
8.025 -44.625 -0.075
8.025 -44.625 -0.225
16.575 -44.025 -0.525
16.575 -44.025 0.825
16.425 -44.775 -0.975
16.425 -44.775 -0.825
16.125 -45.525 -1.125
8.625 -45.975 2.025
7.875 -43.425 0.225
8.775 -40.875 -1.125
8.775 -40.875 -0.225
16.275 -45.225 -0.825
15.525 -46.425 -1.725
11.175 -47.775 1.125
8.175 -41.925 -1.725
8.175 -41.925 -1.575
7.875 -43.275 2.025
16.575 -44.175 0.075
7.875 -43.875 1.425
14.325 -39.675 -0.975
15.675 -46.275 -1.875
8.325 -45.525 1.425
8.325 -45.525 0.525
7.875 -44.025 -0.825
7.875 -44.025 0.675
14.475 -47.325 0.225
16.575 -44.325 0.225
16.575 -44.325 0.525
16.425 -44.925 -0.975
8.475 -45.825 1.275
8.475 -45.825 0.225
7.875 -44.175 0.225
7.875 -44.175 0.675
15.825 -46.125 -1.425
15.825 -46.125 -0.375
13.275 -39.225 -0.675
16.275 -45.375 -0.825
16.275 -45.375 -1.275
16.575 -44.475 -0.225
16.575 -44.475 0.075
16.125 -45.675 -0.375
16.125 -45.675 -0.675
16.125 -45.675 -0.075
16.125 -45.675 -0.525
8.175 -41.775 -1.125
8.175 -41.775 -1.575
9.075 -40.425 -0.075
7.875 -44.325 -0.075
13.575 -47.775 1.725
8.925 -40.575 -1.725
14.925 -39.975 -0.225
16.425 -45.075 -0.375
16.425 -45.075 -0.975
14.325 -47.475 0.075
14.325 -47.475 2.175
15.975 -45.975 -0.375
15.975 -45.975 -0.825
14.025 -47.625 2.025
8.775 -40.725 -0.225
8.175 -45.375 1.875
7.875 -44.475 0.225
16.725 -43.575 -1.575
16.725 -43.725 -0.075
16.725 -43.725 0.225
8.625 -40.875 -1.275
8.625 -40.875 0.375
8.025 -45.075 0.975
13.725 -47.775 1.275
8.175 -41.625 -1.125
16.275 -45.525 -0.525
8.325 -41.325 -0.525
7.875 -44.625 0.675
16.125 -45.825 -0.825
16.125 -45.825 -0.675
16.425 -45.225 -0.825
7.725 -43.575 -0.825
7.725 -43.725 0.075
16.725 -44.175 0.075
16.725 -44.175 1.125
7.725 -43.875 0.525
7.725 -43.125 1.875
7.725 -43.125 1.575
8.325 -45.825 1.425
8.325 -45.825 1.575
7.875 -44.775 0.225
13.875 -47.775 2.325
9.075 -40.275 -0.075
7.725 -44.025 0.075
8.925 -40.425 -0.225
13.425 -47.925 1.575
13.425 -47.925 3.825
13.425 -47.925 3.675
16.575 -44.925 -0.075
16.575 -44.925 -0.375
16.725 -44.325 0.525
16.725 -44.325 0.075
12.525 -48.075 1.275
15.825 -40.725 -0.375
15.825 -40.725 -0.825
11.925 -48.075 1.425
11.925 -48.075 1.725
8.775 -40.575 -0.225
12.675 -48.075 1.575
16.275 -45.675 -0.075
16.275 -45.675 -0.375
16.425 -45.375 -0.675
16.425 -45.375 -0.975
16.425 -45.375 -0.825
9.375 -39.975 0.075
8.325 -41.175 -1.275
8.325 -41.175 -1.125
8.325 -41.175 -0.225
8.475 -46.125 1.725
12.825 -48.075 1.875
16.725 -44.475 -1.575
16.725 -44.475 0.075
8.625 -40.725 0.525
8.625 -40.725 0.225
8.625 -40.725 -0.075
15.975 -40.875 -0.825
16.125 -45.975 -0.675
16.125 -45.975 -0.825
16.125 -45.975 -0.225
16.125 -45.975 -0.525
7.875 -44.925 2.775
14.325 -47.625 0.075
16.575 -45.075 -0.825
7.725 -42.675 2.025
12.975 -48.075 3.525
12.975 -48.075 2.025
12.975 -48.075 1.725
12.975 -48.075 1.575
14.025 -47.775 2.025
8.025 -45.375 1.875
13.425 -39.075 -0.675
15.075 -47.175 0.075
13.125 -48.075 2.325
8.175 -41.325 -1.875
15.975 -46.275 -0.675
16.425 -45.525 -1.125
13.725 -47.925 2.175
16.275 -45.825 -0.525
16.275 -45.825 -0.075
16.875 -43.275 1.575
15.225 -39.975 0.075
14.925 -47.325 -0.075
14.925 -47.325 2.025
16.575 -45.225 -0.675
16.575 -45.225 -0.225
7.875 -41.925 -1.275
16.875 -44.025 -0.075
13.275 -48.075 1.575
8.775 -40.425 -0.225
14.025 -39.225 0.075
8.025 -45.525 1.275
9.225 -39.975 -1.725
16.125 -46.125 -0.525
16.125 -46.125 -0.675
15.975 -40.725 -0.225
8.175 -45.825 1.275
8.175 -45.825 1.125
7.575 -43.425 0.675
8.625 -40.575 -0.225
8.625 -40.575 -0.075
8.625 -40.575 0.825
16.875 -44.175 0.825
16.875 -44.175 -0.675
7.575 -43.875 -0.675
12.225 -48.225 2.025
12.225 -48.225 2.475
16.725 -44.925 -0.075
16.725 -44.925 -0.375
12.375 -48.225 2.175
8.025 -41.475 -0.225
7.575 -44.025 1.275
7.575 -44.025 -0.075
16.425 -45.675 -0.375
16.425 -45.675 -0.525
16.875 -44.325 0.675
16.875 -44.325 0.075
16.875 -44.325 0.825
16.875 -44.325 0.225
14.925 -39.675 -0.975
15.825 -46.575 -1.425
8.475 -40.725 0.375
8.475 -40.725 -0.075
8.475 -40.725 -1.275
8.475 -40.725 -0.525
11.925 -48.225 1.425
11.925 -48.225 2.025
8.175 -41.175 -0.675
16.575 -45.375 -0.825
16.575 -45.375 -1.125
16.575 -45.375 -0.525
16.275 -45.975 -0.675
16.275 -45.975 -0.525
7.575 -44.175 0.675
11.775 -48.225 1.425
9.525 -39.675 0.825
14.175 -39.225 -0.525
7.575 -42.825 1.575
15.675 -40.275 0.375
8.025 -45.675 0.975
7.575 -44.325 0.825
16.725 -45.075 -0.525
16.725 -45.075 -1.125
16.725 -45.075 -0.225
16.725 -45.075 0.225
14.775 -39.525 0.075
16.275 -41.025 -1.275
12.975 -48.225 1.125
16.125 -46.275 -0.225
16.125 -46.275 0.375
16.125 -46.275 -0.375
16.125 -46.275 -0.525
8.925 -40.125 1.125
8.925 -40.125 -1.575
15.975 -40.575 -0.375
16.575 -45.525 -0.675
13.125 -48.225 1.425
8.175 -41.025 -0.375
8.175 -41.025 -0.075
17.025 -43.725 0.225
15.075 -39.675 -0.825
16.725 -45.225 -0.825
8.475 -40.575 -1.275
16.275 -46.125 -0.075
16.275 -46.125 -0.525
14.475 -47.775 2.025
17.025 -43.875 0.075
17.025 -43.875 -1.275
7.875 -45.525 1.575
13.275 -48.225 2.025
15.975 -46.575 -1.575
7.425 -43.575 0.075
14.925 -39.525 0.075
14.925 -39.525 -0.225
14.925 -39.525 0.225
7.425 -43.725 0.375
17.025 -44.175 0.075
17.025 -44.175 0.975
17.025 -44.175 -0.675
17.025 -44.175 1.275
7.425 -43.875 0.825
16.575 -45.675 -0.675
16.875 -44.925 0.075
15.675 -40.125 -0.975
16.125 -46.425 -0.675
15.825 -40.275 -0.675
16.425 -45.975 0.375
17.025 -44.325 0.675
15.375 -39.825 0.075
8.175 -40.875 -1.125
12.675 -48.375 1.575
7.425 -44.175 -0.675
8.775 -40.125 -0.975
13.275 -38.775 -0.675
8.625 -40.275 -0.225
16.725 -41.625 -0.225
7.425 -42.825 2.025
7.425 -42.825 2.475
17.025 -44.475 0.075
17.025 -44.475 -0.675
17.025 -44.475 -0.225
16.275 -46.275 0.525
16.275 -46.275 -0.225
16.425 -41.025 -0.225
13.575 -48.225 2.175
13.575 -48.225 1.875
14.025 -48.075 1.875
14.025 -48.075 2.175
16.875 -45.075 0.075
16.875 -45.075 -0.525
16.875 -45.075 -0.975
8.475 -40.425 -0.225
8.475 -40.425 0.375
8.475 -40.425 0.225
16.575 -45.825 0.525
16.575 -45.825 -0.675
13.425 -38.775 -1.125
16.725 -45.525 -0.825
15.075 -39.525 -0.075
8.025 -41.025 -0.525
15.975 -46.725 -0.075
15.975 -46.725 -0.225
7.425 -44.475 0.675
16.275 -40.725 -1.125
16.425 -46.125 -0.075
16.425 -46.125 -0.825
16.425 -46.125 0.675
16.425 -46.125 0.075
16.125 -46.575 0.675
16.125 -46.575 -0.225
16.125 -46.575 -0.825
16.125 -46.575 -1.575
17.175 -43.725 -2.475
14.175 -48.075 1.875
7.575 -41.925 -0.525
7.425 -44.625 0.525
15.675 -39.975 -0.225
15.675 -39.975 0.825
15.825 -40.125 0.225
8.175 -40.725 -0.825
15.525 -39.825 0.075
17.175 -44.025 -1.275
17.175 -44.025 -0.075
11.175 -48.375 1.575
16.275 -46.425 0.225
7.875 -41.175 -1.275
16.725 -45.675 -0.675
16.725 -45.675 -0.075
13.875 -48.225 1.875
7.275 -43.575 -0.375
8.775 -39.975 -2.475
7.275 -43.425 -1.275
7.275 -43.425 -0.675
7.275 -43.425 -1.575
17.175 -44.175 0.075
17.175 -44.175 -0.375
7.275 -43.725 -0.975
7.275 -43.725 -0.375
7.275 -43.875 -0.975
7.275 -43.875 0.075
8.475 -40.275 -0.675
8.475 -40.275 0.675
8.475 -40.275 -0.075
13.425 -48.375 1.425
16.875 -45.375 -0.525
7.275 -43.125 -0.075
8.025 -40.875 -0.225
7.275 -44.025 0.375
17.175 -44.325 0.675
17.175 -44.325 0.525
17.175 -44.325 0.075
15.225 -39.525 -0.075
14.775 -39.225 -0.375
16.425 -46.275 0.075
16.275 -40.575 0.075
16.275 -40.575 -0.675
7.725 -45.675 1.425
15.825 -47.025 -1.275
8.325 -40.425 -1.275
15.975 -46.875 -0.675
7.275 -44.175 0.075
9.225 -39.525 -0.225
7.575 -45.375 1.875
17.175 -44.475 -0.375
13.575 -48.375 1.725
13.575 -48.375 0.975
17.025 -45.075 -1.875
16.125 -46.725 -0.825
16.125 -46.725 -1.275
16.125 -46.725 -0.675
16.125 -46.725 0.075
15.075 -39.375 -0.525
15.075 -39.375 -0.975
8.175 -40.575 -0.825
8.175 -40.575 -1.275
7.275 -44.325 -0.225
16.725 -45.825 -0.825
16.425 -40.725 0.225
16.425 -40.725 -0.825
16.875 -45.525 0.075
16.575 -46.125 1.575
16.575 -46.125 -0.075
15.825 -39.975 -0.225
15.675 -39.825 0.075
15.675 -39.825 0.225
15.975 -40.125 0.075
7.275 -44.475 -0.525
7.425 -45.075 2.625
13.725 -48.375 2.175
17.025 -45.225 -0.225
17.025 -45.225 -0.075
14.175 -48.225 2.175
7.875 -46.125 0.525
8.475 -40.125 -0.075
8.475 -40.125 -1.275
8.475 -40.125 -0.675
8.475 -40.125 0.825
8.475 -40.125 -0.225
8.475 -40.125 -0.525
16.575 -40.875 -0.225
16.275 -40.425 -0.075
17.325 -43.875 -0.225
17.025 -41.775 0.675
8.325 -40.275 0.375
8.325 -40.275 0.525
8.325 -40.275 -0.225
8.325 -40.275 -0.525
7.725 -41.175 -0.825
16.725 -45.975 0.375
17.325 -44.025 -0.975
17.325 -44.025 0.075
17.325 -44.025 1.275
7.875 -40.875 -0.375
7.875 -40.875 -0.675
8.025 -46.425 1.125
15.225 -39.375 0.225
7.125 -43.575 -1.125
8.175 -40.425 -0.975
17.325 -44.175 0.075
17.325 -44.175 -0.375
17.325 -44.175 -0.525
17.325 -44.175 1.125
7.275 -44.775 -0.225
17.025 -45.375 -0.675
17.025 -45.375 -0.525
17.175 -44.925 1.575
16.575 -46.275 0.675
16.575 -46.275 -0.225
16.575 -46.275 0.525
16.575 -46.275 0.375
13.425 -48.525 1.275
14.175 -38.775 0.075
7.575 -45.675 1.575
16.275 -46.725 0.225
17.325 -44.325 0.075
17.325 -44.325 0.225
17.325 -44.325 0.675
7.125 -44.025 -0.225
7.125 -44.025 -1.125
17.025 -41.625 -0.825
15.825 -39.825 0.225
15.975 -39.975 -0.825
7.275 -44.925 1.425
7.575 -41.325 -0.675
16.125 -40.125 0.075
16.875 -45.825 -0.525
17.325 -44.475 -0.225
17.325 -44.475 0.225
16.425 -46.575 0.525
16.425 -46.575 0.825
16.725 -46.125 -0.225
17.025 -45.525 -0.075
17.025 -45.525 -1.125
7.125 -44.325 0.525
7.125 -44.325 -0.375
8.625 -39.825 -0.225
8.475 -39.975 -0.975
14.325 -38.775 0.225
7.875 -40.725 -0.825
8.325 -40.125 -0.225
7.575 -45.825 1.575
14.925 -39.075 -0.525
7.275 -45.075 -0.525
7.125 -44.475 -0.375
15.375 -39.375 1.125
15.375 -39.375 -0.525
15.375 -39.375 0.225
13.725 -48.525 2.625
16.575 -46.425 0.975
16.575 -46.425 0.375
16.425 -40.425 -0.975
16.725 -40.875 -0.375
12.075 -38.325 -0.525
14.175 -48.375 1.575
17.175 -45.225 -1.725
16.125 -47.025 0.525
16.125 -47.025 -0.525
14.025 -38.625 -0.525
17.475 -43.425 -1.125
17.475 -43.425 -0.825
17.475 -43.425 -1.425
17.475 -43.725 -1.275
16.875 -45.975 -1.275
17.025 -45.675 -0.825
17.475 -43.875 -0.075
13.275 -48.675 0.675
16.575 -40.575 0.225
13.875 -48.525 1.725
16.725 -46.275 1.275
17.475 -44.025 -0.075
14.475 -38.775 0.225
14.475 -38.775 -0.075
14.775 -38.925 -0.825
15.975 -39.825 -0.825
15.975 -39.825 0.225
17.475 -42.975 1.725
17.175 -45.375 -0.675
11.475 -38.325 -0.075
16.125 -39.975 -0.525
16.875 -41.025 0.075
16.875 -41.025 -0.375
16.875 -41.025 -1.725
14.325 -48.375 1.425
17.475 -44.175 0.075
6.975 -43.425 0.375
6.975 -43.425 -0.675
6.975 -43.425 -1.425
13.725 -38.475 -0.825
6.975 -43.725 0.225
6.975 -43.725 -0.525
6.975 -43.725 0.075
7.425 -45.675 -0.075
14.175 -38.625 -0.075
14.175 -38.625 -0.675
6.975 -43.275 -1.425
6.975 -43.275 0.525
13.425 -48.675 1.875
13.425 -48.675 1.575
15.675 -39.525 0.225
16.275 -40.125 -0.675
16.275 -40.125 0.225
6.975 -43.125 0.225
17.175 -41.625 -0.975
8.475 -39.825 -1.125
8.475 -39.825 -0.375
16.725 -40.725 0.375
17.475 -44.325 -0.525
17.475 -44.325 0.075
8.325 -39.975 -0.225
15.525 -39.375 -0.825
15.525 -39.375 -0.975
15.525 -39.375 0.225
7.275 -45.375 0.675
14.025 -48.525 1.725
14.025 -48.525 1.875
17.025 -45.825 -1.275
17.025 -45.825 -0.525
17.025 -45.825 -0.375
17.025 -45.825 -0.675
8.175 -40.125 0.375
13.875 -38.475 -0.375
13.875 -38.475 -0.525
17.475 -44.475 0.525
17.475 -44.475 0.225
11.175 -38.325 -0.525
17.175 -45.525 -0.975
17.175 -45.525 -1.125
17.175 -45.525 -0.225
17.175 -45.525 -0.675
17.175 -45.525 -0.525
17.175 -45.525 -1.275
8.925 -39.375 1.125
7.725 -40.725 -0.525
14.625 -38.775 -0.075
14.625 -38.775 0.525
16.125 -47.175 -0.225
7.275 -41.625 -1.125
15.375 -39.225 0.675
15.375 -39.225 -0.225
17.475 -42.525 -0.375
17.475 -42.525 -1.125
6.975 -44.325 0.525
17.325 -41.925 -0.225
14.925 -38.925 1.125
14.925 -38.925 0.075
16.275 -47.025 0.225
16.275 -47.025 1.575
16.725 -46.425 -0.375
13.725 -48.675 -0.075
16.425 -46.875 0.525
16.425 -46.875 -0.225
6.975 -44.475 -0.375
6.975 -44.475 0.075
17.325 -45.225 -0.075
17.325 -45.225 -0.225
15.225 -39.075 -0.225
15.225 -39.075 0.225
7.425 -41.175 -0.375
7.425 -41.175 -0.825
16.125 -39.825 -0.975
16.125 -39.825 -0.675
16.125 -39.825 0.225
17.025 -45.975 -0.525
15.825 -39.525 -0.075
15.825 -39.525 0.225
15.825 -39.525 1.125
15.825 -39.525 0.975
16.275 -39.975 -0.825
16.275 -39.975 1.275
16.275 -39.975 -0.525
16.275 -39.975 -0.675
16.875 -46.275 0.225
17.625 -43.425 -2.625
17.625 -43.275 -1.725
14.775 -38.775 0.225
14.775 -38.775 -0.225
14.775 -38.775 0.075
15.675 -39.375 -0.225
15.675 -39.375 0.525
15.675 -39.375 0.225
15.675 -39.375 -0.825
14.475 -38.625 -0.375
17.625 -43.875 -0.675
17.625 -43.875 0.075
8.475 -39.675 -0.975
16.425 -40.125 -0.675
16.425 -40.125 0.225
8.325 -39.825 -0.225
8.325 -39.825 -0.975
17.625 -43.125 1.725
17.025 -41.025 0.375
8.625 -39.525 -0.975
17.175 -41.325 -0.375
17.175 -41.325 0.075
17.625 -44.025 -0.075
17.625 -44.025 0.075
8.175 -39.975 0.375
15.075 -38.925 0.225
15.075 -38.925 1.125
17.625 -42.975 1.275
7.275 -45.675 1.725
15.525 -39.225 -0.225
16.875 -40.725 0.225
6.825 -43.575 -0.675
6.825 -43.575 1.725
16.575 -40.275 0.975
6.825 -43.725 -0.525
8.025 -40.125 -0.675
6.825 -43.275 -0.975
16.275 -47.175 0.225
7.425 -41.025 -1.125
17.175 -45.825 -0.825
17.175 -45.825 -0.975
17.175 -45.825 -0.525
17.175 -45.825 -0.375
17.025 -46.125 1.125
17.025 -46.125 -0.825
17.025 -46.125 0.075
17.625 -44.325 0.075
17.625 -44.325 0.675
6.975 -44.925 -0.225
7.875 -40.275 -0.525
17.475 -45.075 -0.975
17.475 -45.075 1.425
16.725 -40.425 -0.225
16.725 -40.425 -0.975
16.725 -40.425 0.225
13.575 -48.825 0.375
13.875 -38.325 -0.675
16.875 -46.425 0.225
14.925 -38.775 1.125
14.325 -38.475 -0.675
17.025 -40.875 -0.825
17.025 -40.875 -0.375
16.575 -46.875 0.375
16.575 -46.875 0.675
17.475 -41.925 -0.075
15.975 -39.525 0.975
15.975 -39.525 0.675
6.825 -44.325 0.525
16.275 -39.825 0.225
9.675 -48.375 1.275
7.725 -40.425 -1.125
15.825 -39.375 -0.525
15.825 -39.375 0.225
15.225 -38.925 0.225
15.225 -38.925 -0.225
16.425 -39.975 0.225
17.625 -44.625 -0.675
17.625 -44.625 -0.975
17.475 -45.225 -0.375
17.475 -45.225 -0.225
17.475 -45.225 -0.975
8.325 -39.675 -0.225
6.825 -44.475 0.225
16.725 -46.725 0.525
17.175 -45.975 -0.825
17.175 -45.975 1.275
17.175 -45.975 -0.675
8.175 -39.825 0.225
8.175 -39.825 -0.075
8.175 -39.825 -0.225
15.675 -39.225 -0.825
15.675 -39.225 0.675
16.575 -40.125 0.225
16.575 -40.125 1.275
17.325 -45.675 -0.525
8.025 -39.975 -1.425
14.775 -38.625 1.125
7.575 -40.575 -1.125
6.825 -44.625 2.625
14.475 -38.475 -0.675
17.775 -43.575 -0.375
16.125 -47.475 -0.075
17.175 -41.025 -0.525
17.175 -41.025 0.225
16.275 -47.325 -0.375
17.775 -43.725 0.075
15.075 -38.775 0.675
17.325 -41.325 -0.375
16.725 -40.275 -0.525
16.725 -40.275 0.375
16.875 -46.575 0.525
7.875 -40.125 -1.125
17.775 -43.875 -0.075
16.425 -47.175 -0.375
17.025 -40.725 0.225
17.025 -40.725 -0.675
17.475 -45.375 -0.525
17.775 -43.125 1.425
17.775 -44.025 -0.825
17.775 -44.025 -0.075
14.175 -38.325 0.375
17.625 -44.925 1.575
6.825 -44.775 0.825
16.575 -47.025 0.675
17.775 -44.175 -0.675
17.775 -44.175 0.075
17.775 -44.175 -0.825
17.775 -44.175 -1.725
6.675 -43.425 0.375
17.175 -46.125 0.075
17.175 -46.125 0.975
15.375 -38.925 -0.075
15.375 -38.925 0.225
7.725 -40.275 -0.675
6.675 -43.725 -0.825
17.325 -45.825 -0.975
17.325 -45.825 -0.375
17.325 -45.825 -0.825
6.675 -43.275 -0.225
16.875 -40.425 0.075
16.875 -40.425 0.225
16.125 -39.525 0.675
16.125 -39.525 -0.825
6.675 -43.875 -0.075
16.275 -39.675 0.675
6.675 -43.125 -1.575
6.675 -43.125 -0.075
6.675 -43.125 -0.975
15.975 -39.375 -0.675
17.775 -44.325 -1.125
17.775 -44.325 0.675
16.425 -39.825 0.975
16.425 -39.825 -0.075
16.425 -39.825 0.225
16.425 -39.825 -0.525
6.675 -44.025 -0.525
14.925 -38.625 2.175
14.925 -38.625 0.675
14.925 -38.625 -1.425
17.475 -45.525 -0.675
17.475 -45.525 -0.525
17.475 -45.525 -0.825
13.875 -38.175 -0.225
17.325 -41.175 0.075
15.825 -39.225 -0.675
16.575 -39.975 -0.825
16.575 -39.975 0.825
9.825 -38.475 3.525
8.175 -39.675 -0.075
8.175 -39.675 -0.825
8.175 -39.675 -0.375
8.175 -39.675 -1.725
17.775 -44.475 -1.425
6.675 -42.825 2.625
15.225 -38.775 0.525
15.225 -38.775 -0.075
17.625 -41.925 0.225
8.025 -39.825 -0.525
8.025 -39.825 -0.675
6.675 -44.325 0.225
15.675 -39.075 -0.225
16.725 -40.125 0.675
16.725 -40.125 0.225
16.725 -40.125 0.975
6.825 -45.075 0.075
7.875 -39.975 -1.725
17.325 -45.975 -0.975
17.775 -44.625 -0.675
17.775 -44.625 -1.125
17.775 -44.625 -0.225
16.275 -47.475 -0.375
16.275 -47.475 -0.525
17.625 -45.225 -0.075
17.625 -45.225 -0.525
17.175 -46.275 0.525
16.425 -47.325 -0.375
16.425 -47.325 -0.075
14.025 -38.175 -0.525
14.025 -38.175 -0.375
6.675 -44.475 -0.375
6.675 -44.475 -1.125
14.775 -38.475 -1.425
12.225 -37.875 0.075
16.575 -47.175 0.675
6.675 -42.525 -0.675
7.725 -40.125 -0.825
16.875 -40.275 0.225
16.875 -40.275 -1.125
16.875 -40.275 0.675
17.325 -41.025 -0.525
17.325 -41.025 -1.125
17.325 -41.025 0.225
17.025 -46.575 0.525
17.025 -46.575 0.375
13.575 -38.025 -0.375
17.175 -40.725 -0.525
17.175 -40.725 0.075
17.475 -41.325 -0.225
16.725 -47.025 0.375
17.925 -43.425 0.075
16.275 -39.525 -0.975
17.625 -45.375 -0.225
17.625 -45.375 -0.675
16.425 -39.675 -0.225
14.175 -38.175 -0.075
17.925 -44.025 -0.075
17.025 -40.425 1.275
17.025 -40.425 -0.225
17.025 -40.425 0.225
17.775 -44.925 -0.825
17.775 -44.925 -0.675
13.725 -38.025 -0.075
6.675 -44.775 0.825
17.475 -45.825 -0.375
8.175 -39.525 -0.225
8.325 -39.375 -0.225
17.925 -44.175 -0.375
17.925 -44.175 0.075
17.925 -44.175 -0.525
9.075 -38.775 -3.825
8.025 -39.675 0.525
8.025 -39.675 -0.525
8.025 -39.675 -0.075
6.525 -43.425 1.125
16.725 -39.975 0.525
16.725 -39.975 0.675
6.525 -43.725 0.225
